ply
format ascii 1.0
comment Created by Open3D
element vertex 1399
property double x
property double y
property double z
property uchar red
property uchar green
property uchar blue
end_header
0.229352 -0.257462 1.193 22 43 11
0.231205 -0.257462 1.193 22 43 11
0.233253 -0.257678 1.194 22 42 13
0.235107 -0.257678 1.194 22 42 13
0.236961 -0.257678 1.194 22 42 13
0.238816 -0.257678 1.194 21 41 12
0.240469 -0.257462 1.193 20 40 13
0.242118 -0.257246 1.192 18 38 11
0.243969 -0.257246 1.192 17 36 11
0.245821 -0.257246 1.192 16 35 10
0.247464 -0.25703 1.191 13 30 5
0.249104 -0.256814 1.19 15 32 7
0.250953 -0.256814 1.19 18 32 8
0.252801 -0.256814 1.19 17 31 7
0.254435 -0.256599 1.189 13 29 7
0.256281 -0.256599 1.189 12 28 6
0.258128 -0.256599 1.189 13 28 8
0.262041 -0.256814 1.19 12 27 7
0.263889 -0.256814 1.19 12 27 7
0.265737 -0.256814 1.19 13 28 8
0.26781 -0.25703 1.191 12 27 7
0.269886 -0.257246 1.192 13 25 6
0.271738 -0.257246 1.192 14 26 7
0.274048 -0.257678 1.194 14 26 7
0.276133 -0.257894 1.195 14 26 7
0.277989 -0.257894 1.195 14 26 7
0.280079 -0.258109 1.196 15 27 8
0.281937 -0.258109 1.196 17 29 10
0.283557 -0.257894 1.195 17 29 10
0.285413 -0.257894 1.195 18 30 11
0.287269 -0.257894 1.195 17 29 10
0.288883 -0.257678 1.194 18 30 11
0.29025 -0.257246 1.192 18 30 11
0.291856 -0.25703 1.191 18 30 11
0.293459 -0.256814 1.19 18 30 11
0.295307 -0.256814 1.19 17 29 10
0.296906 -0.256599 1.189 15 27 8
0.298501 -0.256383 1.188 15 27 8
0.300093 -0.256167 1.187 15 27 8
0.301937 -0.256167 1.187 17 29 10
0.30378 -0.256167 1.187 18 30 11
0.305366 -0.255951 1.186 15 27 8
0.306949 -0.255735 1.185 15 27 8
0.30905 -0.255951 1.186 15 26 10
0.310892 -0.255951 1.186 15 26 10
0.312734 -0.255951 1.186 17 29 10
0.314575 -0.255951 1.186 17 29 10
0.316417 -0.255951 1.186 17 29 10
0.318259 -0.255951 1.186 17 29 10
0.320371 -0.256167 1.187 17 29 10
0.322214 -0.256167 1.187 17 29 10
0.324331 -0.256383 1.188 17 28 12
0.32645 -0.256599 1.189 17 28 12
0.328573 -0.256814 1.19 17 28 12
0.330977 -0.257246 1.192 17 28 12
0.332828 -0.257246 1.192 17 29 10
0.33496 -0.257462 1.193 18 30 11
0.337095 -0.257678 1.194 19 31 12
0.338949 -0.257678 1.194 20 32 13
0.340804 -0.257678 1.194 18 33 13
0.342371 -0.257462 1.193 18 33 13
0.343935 -0.257246 1.192 18 33 13
0.345496 -0.25703 1.191 17 32 12
0.347054 -0.256814 1.19 15 30 10
0.348609 -0.256599 1.189 16 31 11
0.349866 -0.256167 1.187 16 31 11
0.351413 -0.255951 1.186 16 31 11
0.352957 -0.255735 1.185 16 31 11
0.354498 -0.25552 1.184 17 32 12
0.355735 -0.255088 1.182 18 33 13
0.357268 -0.254872 1.181 17 32 12
0.358798 -0.254656 1.18 15 32 12
0.360631 -0.254656 1.18 10 27 7
0.361849 -0.254225 1.178 18 33 20
0.363679 -0.254225 1.178 48 63 50
0.365508 -0.254225 1.178 10 22 12
0.366714 -0.253793 1.176 8 20 10
0.368227 -0.253577 1.175 15 24 15
0.369737 -0.253361 1.174 8 17 8
0.370927 -0.25293 1.172 8 15 11
0.368613 -0.250124 1.159 52 59 55
0.368495 -0.248829 1.153 82 91 89
0.368204 -0.24624 1.141 83 92 90
0.368679 -0.245376 1.137 83 92 90
-0.1663 -0.254321 1.187 24 42 13
-0.164457 -0.254321 1.187 24 42 13
-0.162613 -0.254321 1.187 22 42 13
-0.16077 -0.254321 1.187 22 42 13
-0.15906 -0.254536 1.188 21 41 12
-0.157215 -0.254536 1.188 20 40 11
-0.15537 -0.254536 1.188 22 43 11
-0.153396 -0.254321 1.187 23 44 12
-0.151553 -0.254321 1.187 26 45 13
-0.149709 -0.254321 1.187 26 45 13
-0.147741 -0.254107 1.186 29 48 16
-0.145776 -0.253893 1.185 29 48 16
-0.143936 -0.253893 1.185 30 49 17
-0.142095 -0.253893 1.185 30 49 17
-0.140255 -0.253893 1.185 31 50 18
-0.138415 -0.253893 1.185 32 51 19
-0.13669 -0.254107 1.186 31 50 18
-0.134848 -0.254107 1.186 31 50 18
-0.133118 -0.254321 1.187 31 50 18
-0.131275 -0.254321 1.187 31 50 18
-0.12954 -0.254536 1.188 31 51 17
-0.127803 -0.25475 1.189 31 51 17
-0.125956 -0.25475 1.189 30 50 16
-0.12411 -0.25475 1.189 31 51 17
-0.122366 -0.254964 1.19 31 51 17
-0.120518 -0.254964 1.19 30 50 16
-0.11867 -0.254964 1.19 30 50 16
-0.116821 -0.254964 1.19 30 50 16
-0.114973 -0.254964 1.19 31 51 17
-0.113125 -0.254964 1.19 33 53 19
-0.111277 -0.254964 1.19 32 51 19
-0.109337 -0.25475 1.189 33 52 20
-0.107491 -0.25475 1.189 33 51 22
-0.105644 -0.25475 1.189 32 50 21
-0.103797 -0.25475 1.189 31 49 20
-0.101951 -0.25475 1.189 30 48 19
-0.100188 -0.254964 1.19 29 48 16
-0.0983404 -0.254964 1.19 27 46 14
-0.0964923 -0.254964 1.19 29 48 16
-0.0946442 -0.254964 1.19 27 46 14
-0.092796 -0.254964 1.19 27 46 14
-0.0910244 -0.255178 1.191 26 45 13
-0.0892496 -0.255393 1.192 27 46 14
-0.0873983 -0.255393 1.192 27 46 14
-0.0855471 -0.255393 1.192 27 46 14
-0.0836959 -0.255393 1.192 26 45 13
-0.0818447 -0.255393 1.192 24 46 12
-0.0799935 -0.255393 1.192 23 45 11
-0.0781423 -0.255393 1.192 24 46 12
-0.076227 -0.255178 1.191 24 46 12
-0.0743774 -0.255178 1.191 24 46 12
-0.0724668 -0.254964 1.19 23 45 11
-0.0706187 -0.254964 1.19 24 46 12
-0.0688284 -0.255178 1.191 25 47 13
-0.0669787 -0.255178 1.191 25 47 13
-0.0651291 -0.255178 1.191 24 46 12
-0.0632263 -0.254964 1.19 24 46 12
-0.0613782 -0.254964 1.19 24 46 12
-0.05953 -0.254964 1.19 24 46 12
-0.0576819 -0.254964 1.19 24 46 12
-0.0558338 -0.254964 1.19 25 47 13
-0.0539857 -0.254964 1.19 25 47 13
-0.0521376 -0.254964 1.19 24 46 12
-0.0502895 -0.254964 1.19 25 47 13
-0.0484414 -0.254964 1.19 24 46 12
-0.0465933 -0.254964 1.19 23 45 11
-0.0447076 -0.25475 1.189 23 46 9
-0.042825 -0.254536 1.188 24 47 10
-0.04098 -0.254536 1.188 25 48 11
-0.039102 -0.254321 1.187 22 45 8
-0.0372272 -0.254107 1.186 22 45 8
-0.0353853 -0.254107 1.186 21 44 7
-0.0335151 -0.253893 1.185 22 45 8
-0.0316747 -0.253893 1.185 22 45 8
-0.0298344 -0.253893 1.185 22 45 8
-0.0279704 -0.253679 1.184 22 45 8
-0.0261316 -0.253679 1.184 21 44 7
-0.0242928 -0.253679 1.184 21 44 7
-0.0224541 -0.253679 1.184 22 45 8
-0.0206153 -0.253679 1.184 22 45 8
-0.0187765 -0.253679 1.184 21 44 7
-0.016952 -0.253893 1.185 20 43 6
-0.0150989 -0.253679 1.184 21 43 9
-0.0132713 -0.253893 1.185 20 42 8
-0.0114309 -0.253893 1.185 21 43 9
-0.00959869 -0.254107 1.186 21 43 9
-0.00775679 -0.254107 1.186 19 43 9
-0.0059149 -0.254107 1.186 18 42 8
-0.00407643 -0.254321 1.187 19 43 9
-0.00223298 -0.254321 1.187 18 42 8
-0.000389528 -0.254321 1.187 19 43 9
0.00145515 -0.254536 1.188 19 43 9
0.00330015 -0.254536 1.188 20 44 10
0.00514949 -0.25475 1.189 20 44 10
0.00699605 -0.25475 1.189 21 45 11
0.0088426 -0.25475 1.189 21 45 11
0.0106892 -0.25475 1.189 21 45 11
0.0125357 -0.25475 1.189 23 47 13
0.0143823 -0.25475 1.189 25 49 15
0.0162288 -0.25475 1.189 25 49 15
0.0180754 -0.25475 1.189 22 46 12
0.0199219 -0.25475 1.189 22 46 12
0.0217502 -0.254536 1.188 21 45 11
0.0235952 -0.254536 1.188 20 44 10
0.0254188 -0.254321 1.187 22 46 12
0.0272622 -0.254321 1.187 22 46 12
0.0291057 -0.254321 1.187 22 46 12
0.0309491 -0.254321 1.187 22 46 12
0.032765 -0.254107 1.186 24 46 12
0.0346069 -0.254107 1.186 23 45 11
0.0364488 -0.254107 1.186 23 45 11
0.0382907 -0.254107 1.186 22 44 10
0.0401326 -0.254107 1.186 25 45 11
0.0419745 -0.254107 1.186 26 46 12
0.0438164 -0.254107 1.186 27 47 13
0.0456583 -0.254107 1.186 27 47 13
0.0475402 -0.254321 1.187 27 47 13
0.0493837 -0.254321 1.187 27 47 13
0.0512271 -0.254321 1.187 27 47 13
0.0531153 -0.254536 1.188 27 47 13
0.0549603 -0.254536 1.188 26 46 12
0.0568531 -0.25475 1.189 27 47 13
0.058749 -0.254964 1.19 26 46 12
0.0605971 -0.254964 1.19 24 44 10
0.0624452 -0.254964 1.19 25 45 11
0.0642934 -0.254964 1.19 24 44 10
0.0660303 -0.254536 1.188 23 45 11
0.0678182 -0.254321 1.187 24 46 12
0.0696029 -0.254107 1.186 24 46 12
0.0713846 -0.253893 1.185 22 44 10
0.0732249 -0.253893 1.185 23 45 11
0.0749386 -0.253464 1.183 24 46 12
0.0767109 -0.25325 1.182 23 45 11
0.0785466 -0.25325 1.182 22 44 10
0.0803143 -0.253036 1.181 23 45 11
0.0820789 -0.252822 1.18 23 45 11
0.0839115 -0.252822 1.18 24 46 12
0.085744 -0.252822 1.18 24 46 12
0.0875766 -0.252822 1.18 24 46 12
0.0894092 -0.252822 1.18 25 47 13
0.0912418 -0.252822 1.18 27 47 13
0.0930744 -0.252822 1.18 27 47 13
0.0949069 -0.252822 1.18 26 46 12
0.0968215 -0.253036 1.181 26 46 12
0.0986556 -0.253036 1.181 25 45 11
0.100405 -0.252822 1.18 25 45 11
0.102324 -0.253036 1.181 28 45 12
0.104158 -0.253036 1.181 29 46 13
0.106082 -0.25325 1.182 29 46 13
0.107918 -0.25325 1.182 28 45 12
0.109753 -0.25325 1.182 28 45 12
0.111589 -0.25325 1.182 26 43 10
0.113425 -0.25325 1.182 27 44 11
0.11526 -0.25325 1.182 27 44 11
0.117096 -0.25325 1.182 25 45 11
0.118932 -0.25325 1.182 25 45 11
0.120767 -0.25325 1.182 26 46 12
0.122603 -0.25325 1.182 25 45 11
0.124439 -0.25325 1.182 25 45 11
0.126381 -0.253464 1.183 25 45 11
0.128327 -0.253679 1.184 27 46 14
0.130276 -0.253893 1.185 27 46 14
0.132116 -0.253893 1.185 26 45 13
0.134069 -0.254107 1.186 25 44 12
0.136026 -0.254321 1.187 27 46 14
0.137869 -0.254321 1.187 27 46 14
0.139713 -0.254321 1.187 29 48 16
0.141675 -0.254536 1.188 27 46 14
0.14352 -0.254536 1.188 27 46 14
0.145365 -0.254536 1.188 27 46 14
0.147211 -0.254536 1.188 29 48 16
0.149056 -0.254536 1.188 29 48 16
0.150901 -0.254536 1.188 29 48 16
0.152874 -0.25475 1.189 29 48 16
0.154721 -0.25475 1.189 29 48 16
0.156436 -0.254536 1.188 29 48 16
0.158414 -0.25475 1.189 29 48 16
0.16026 -0.25475 1.189 29 48 16
0.162107 -0.25475 1.189 27 48 16
0.163953 -0.25475 1.189 24 45 13
0.1658 -0.25475 1.189 25 46 14
0.167647 -0.25475 1.189 27 48 16
0.169636 -0.254964 1.19 28 49 17
0.171484 -0.254964 1.19 28 49 17
0.173332 -0.254964 1.19 28 49 17
0.17518 -0.254964 1.19 29 50 18
0.177028 -0.254964 1.19 29 50 18
0.178876 -0.254964 1.19 27 48 16
0.180724 -0.254964 1.19 28 49 17
0.182572 -0.254964 1.19 27 48 16
0.184421 -0.254964 1.19 27 48 16
0.186425 -0.255178 1.191 28 49 17
0.188275 -0.255178 1.191 28 49 17
0.190284 -0.255393 1.192 27 48 16
0.192135 -0.255393 1.192 28 49 17
0.193987 -0.255393 1.192 28 49 17
0.196002 -0.255607 1.193 28 49 17
0.197689 -0.255393 1.192 27 48 16
0.199708 -0.255607 1.193 29 50 18
0.20156 -0.255607 1.193 29 50 18
0.203413 -0.255607 1.193 28 49 17
0.205266 -0.255607 1.193 27 48 16
0.206945 -0.255393 1.192 27 48 16
0.208796 -0.255393 1.192 27 48 16
0.210648 -0.255393 1.192 29 50 18
0.212499 -0.255393 1.192 28 49 17
0.21435 -0.255393 1.192 28 49 17
0.21602 -0.255178 1.191 28 49 17
0.217869 -0.255178 1.191 28 49 17
0.219719 -0.255178 1.191 28 49 17
0.221569 -0.255178 1.191 27 48 16
0.223418 -0.255178 1.191 27 48 16
0.225457 -0.255393 1.192 27 48 16
0.227308 -0.255393 1.192 25 46 14
0.22916 -0.255393 1.192 23 44 12
0.231011 -0.255393 1.192 23 44 12
0.232862 -0.255393 1.192 22 42 13
0.234713 -0.255393 1.192 21 41 12
0.236565 -0.255393 1.192 21 41 12
0.238416 -0.255393 1.192 18 38 9
0.240267 -0.255393 1.192 18 38 11
0.241915 -0.255178 1.191 18 38 11
0.243765 -0.255178 1.191 17 37 10
0.245614 -0.255178 1.191 16 36 9
0.247256 -0.254964 1.19 14 33 8
0.249104 -0.254964 1.19 11 30 5
0.250531 -0.254536 1.188 17 34 9
0.252376 -0.254536 1.188 16 33 8
0.254221 -0.254536 1.188 13 29 7
0.256066 -0.254536 1.188 13 29 7
0.257911 -0.254536 1.188 13 28 8
0.259756 -0.254536 1.188 13 28 8
0.261821 -0.25475 1.189 12 27 7
0.265737 -0.254964 1.19 12 27 7
0.269886 -0.255393 1.192 12 27 7
0.271738 -0.255393 1.192 11 26 6
0.273818 -0.255607 1.193 14 26 7
0.275902 -0.255821 1.194 15 27 8
0.277989 -0.256035 1.195 17 29 10
0.279845 -0.256035 1.195 17 29 10
0.281701 -0.256035 1.195 17 29 10
0.283557 -0.256035 1.195 15 27 8
0.285174 -0.255821 1.194 18 30 11
0.286788 -0.255607 1.193 17 29 10
0.288399 -0.255393 1.192 15 27 8
0.290006 -0.255178 1.191 14 26 7
0.291611 -0.254964 1.19 15 27 8
0.293212 -0.25475 1.189 17 29 10
0.294811 -0.254536 1.188 13 28 8
0.296406 -0.254321 1.187 12 27 7
0.29825 -0.254321 1.187 13 28 8
0.29984 -0.254107 1.186 13 28 8
0.301682 -0.254107 1.186 15 30 10
0.303268 -0.253893 1.185 16 31 11
0.305108 -0.253893 1.185 15 30 10
0.30669 -0.253679 1.184 15 30 10
0.308789 -0.253893 1.185 15 30 10
0.310629 -0.253893 1.185 15 30 10
0.31247 -0.253893 1.185 16 31 11
0.31431 -0.253893 1.185 18 33 13
0.316151 -0.253893 1.185 16 31 11
0.317991 -0.253893 1.185 13 28 8
0.319831 -0.253893 1.185 13 28 8
0.321943 -0.254107 1.186 13 28 8
0.324058 -0.254321 1.187 16 31 11
0.326176 -0.254536 1.188 17 32 12
0.328573 -0.254964 1.19 16 31 11
0.330699 -0.255178 1.191 15 30 10
0.332828 -0.255393 1.192 16 31 11
0.335241 -0.255821 1.194 17 32 12
0.337377 -0.256035 1.195 17 32 12
0.339233 -0.256035 1.195 18 33 13
0.340804 -0.255821 1.194 19 34 14
0.342658 -0.255821 1.194 19 34 14
0.344224 -0.255607 1.193 18 33 13
0.345786 -0.255393 1.192 15 30 10
0.347346 -0.255178 1.191 15 30 10
0.348902 -0.254964 1.19 15 30 10
0.350161 -0.254536 1.188 16 31 11
0.35171 -0.254321 1.187 16 31 11
0.353255 -0.254107 1.186 16 31 11
0.354798 -0.253893 1.185 16 31 11
0.356036 -0.253464 1.183 18 33 13
0.357571 -0.25325 1.182 18 33 13
0.358798 -0.252822 1.18 17 31 14
0.360631 -0.252822 1.18 12 26 9
0.361849 -0.252393 1.178 17 29 19
0.363679 -0.252393 1.178 46 58 48
0.365198 -0.252179 1.177 12 24 14
0.366714 -0.251965 1.176 8 20 10
0.368227 -0.25175 1.175 15 27 17
0.369737 -0.251536 1.174 8 20 10
0.370611 -0.250893 1.171 11 18 14
0.368295 -0.248108 1.158 54 61 57
0.368038 -0.245537 1.146 82 91 90
0.367881 -0.244251 1.14 82 91 90
0.368355 -0.243394 1.136 82 91 90
-0.16616 -0.252263 1.186 21 41 12
-0.164457 -0.252476 1.187 22 42 13
-0.162613 -0.252476 1.187 21 41 12
-0.16077 -0.252476 1.187 21 41 12
-0.158926 -0.252476 1.187 20 40 11
-0.157215 -0.252688 1.188 20 40 11
-0.15537 -0.252688 1.188 22 42 13
-0.153396 -0.252476 1.187 23 43 14
-0.151553 -0.252476 1.187 27 46 14
-0.149709 -0.252476 1.187 27 46 14
-0.147741 -0.252263 1.186 31 50 18
-0.145899 -0.252263 1.186 30 49 17
-0.143936 -0.25205 1.185 30 49 17
-0.142095 -0.25205 1.185 31 50 18
-0.140255 -0.25205 1.185 33 52 20
-0.138415 -0.25205 1.185 33 52 20
-0.136574 -0.25205 1.185 33 52 20
-0.134848 -0.252263 1.186 32 51 19
-0.133006 -0.252263 1.186 31 50 18
-0.131275 -0.252476 1.187 31 50 18
-0.129431 -0.252476 1.187 30 50 16
-0.127695 -0.252688 1.188 31 51 17
-0.125956 -0.252901 1.189 29 49 15
-0.12411 -0.252901 1.189 31 51 17
-0.122366 -0.253114 1.19 31 51 17
-0.120518 -0.253114 1.19 31 51 17
-0.11867 -0.253114 1.19 30 50 16
-0.116821 -0.253114 1.19 30 50 16
-0.114973 -0.253114 1.19 31 50 18
-0.113125 -0.253114 1.19 32 51 19
-0.111277 -0.253114 1.19 32 51 19
-0.109429 -0.253114 1.19 33 52 20
-0.107491 -0.252901 1.189 33 52 20
-0.105644 -0.252901 1.189 33 52 20
-0.103797 -0.252901 1.189 32 51 19
-0.102037 -0.253114 1.19 31 50 18
-0.100188 -0.253114 1.19 30 49 17
-0.0983404 -0.253114 1.19 29 48 16
-0.0964923 -0.253114 1.19 30 49 17
-0.0947237 -0.253327 1.191 30 49 17
-0.092952 -0.253539 1.192 30 49 17
-0.0911008 -0.253539 1.192 27 46 14
-0.0892496 -0.253539 1.192 29 48 16
-0.0873983 -0.253539 1.192 27 46 14
-0.0855471 -0.253539 1.192 29 49 15
-0.0836959 -0.253539 1.192 27 47 13
-0.0818447 -0.253539 1.192 27 47 13
-0.0799935 -0.253539 1.192 26 46 12
-0.0781423 -0.253539 1.192 27 47 13
-0.076291 -0.253539 1.192 27 47 13
-0.0743774 -0.253327 1.191 25 45 11
-0.0725277 -0.253327 1.191 26 46 12
-0.0706781 -0.253327 1.191 25 47 13
-0.0688284 -0.253327 1.191 25 47 13
-0.067035 -0.253539 1.192 25 47 13
-0.0651291 -0.253327 1.191 25 47 13
-0.0632794 -0.253327 1.191 27 49 15
-0.0613782 -0.253114 1.19 25 47 13
-0.05953 -0.253114 1.19 24 46 12
-0.0576819 -0.253114 1.19 24 46 12
-0.0558338 -0.253114 1.19 23 45 11
-0.0539857 -0.253114 1.19 23 45 11
-0.0521376 -0.253114 1.19 24 46 12
-0.0502895 -0.253114 1.19 24 46 12
-0.0484414 -0.253114 1.19 23 45 11
-0.0465933 -0.253114 1.19 22 44 10
-0.0447452 -0.253114 1.19 22 44 10
-0.042861 -0.252901 1.189 24 46 12
-0.04098 -0.252688 1.188 25 48 11
-0.039135 -0.252688 1.188 25 48 11
-0.0372586 -0.252476 1.187 25 48 11
-0.0354151 -0.252476 1.187 23 46 9
-0.0335717 -0.252476 1.187 24 47 10
-0.0317015 -0.252263 1.186 23 46 9
-0.0298344 -0.25205 1.185 21 44 7
-0.0279941 -0.25205 1.185 21 44 7
-0.0261316 -0.251838 1.184 21 44 7
-0.0243134 -0.25205 1.185 21 44 7
-0.0224541 -0.251838 1.184 21 44 7
-0.0206153 -0.251838 1.184 21 44 7
-0.0187606 -0.251625 1.183 21 44 7
-0.0169377 -0.251838 1.184 21 44 7
-0.0150861 -0.251625 1.183 22 44 10
-0.0132601 -0.251838 1.184 22 44 10
-0.0114309 -0.25205 1.185 20 44 10
-0.0095906 -0.25205 1.185 19 43 9
-0.00775025 -0.25205 1.185 19 43 9
-0.00590991 -0.25205 1.185 19 43 9
-0.004073 -0.252263 1.186 20 44 10
-0.0022311 -0.252263 1.186 19 43 9
-0.000389528 -0.252476 1.187 20 44 10
0.00145392 -0.252476 1.187 19 43 9
0.00329737 -0.252476 1.187 19 43 9
0.00514516 -0.252688 1.188 21 45 11
0.00699016 -0.252688 1.188 21 45 11
0.0088426 -0.252901 1.189 21 45 11
0.0106892 -0.252901 1.189 23 45 11
0.0125357 -0.252901 1.189 23 45 11
0.0143823 -0.252901 1.189 23 45 11
0.0162288 -0.252901 1.189 24 46 12
0.0180754 -0.252901 1.189 25 47 13
0.0199219 -0.252901 1.189 24 46 12
0.0217685 -0.252901 1.189 24 46 12
0.0235952 -0.252688 1.188 23 45 11
0.0254188 -0.252476 1.187 24 46 12
0.0272622 -0.252476 1.187 24 46 12
0.0291057 -0.252476 1.187 24 46 12
0.0309491 -0.252476 1.187 24 46 12
0.0327926 -0.252476 1.187 23 45 11
0.0346069 -0.252263 1.186 23 45 11
0.0364488 -0.252263 1.186 24 46 12
0.0382907 -0.252263 1.186 23 45 11
0.0401326 -0.252263 1.186 24 44 10
0.0420099 -0.252476 1.187 26 46 12
0.0438533 -0.252476 1.187 27 47 13
0.0456968 -0.252476 1.187 27 47 13
0.0475402 -0.252476 1.187 26 46 12
0.0493837 -0.252476 1.187 26 46 12
0.0512703 -0.252688 1.188 25 45 11
0.0531153 -0.252688 1.188 27 47 13
0.0550065 -0.252901 1.189 27 47 13
0.0569009 -0.253114 1.19 27 47 13
0.058749 -0.253114 1.19 26 46 12
0.0605971 -0.253114 1.19 25 45 11
0.0624452 -0.253114 1.19 25 45 11
0.0642934 -0.253114 1.19 25 45 11
0.0660859 -0.252901 1.189 24 46 12
0.0678753 -0.252688 1.188 24 46 12
0.0696616 -0.252476 1.187 25 47 13
0.0714448 -0.252263 1.186 23 45 11
0.0732249 -0.25205 1.185 22 44 10
0.0750653 -0.25205 1.185 23 45 11
0.0768407 -0.251838 1.184 23 45 11
0.0785466 -0.251412 1.182 23 45 11
0.0803823 -0.251412 1.182 23 45 11
0.082218 -0.251412 1.182 24 46 12
0.0840537 -0.251412 1.182 26 46 12
0.0858167 -0.2512 1.181 26 46 12
0.0877251 -0.251412 1.182 27 47 13
0.0895607 -0.251412 1.182 27 47 13
0.0913964 -0.251412 1.182 27 47 13
0.0931532 -0.2512 1.181 26 46 12
0.0949874 -0.2512 1.181 25 45 11
0.0968215 -0.2512 1.181 26 46 12
0.0987392 -0.251412 1.182 26 46 12
0.100575 -0.251412 1.182 26 46 12
0.102411 -0.251412 1.182 29 46 13
0.104246 -0.251412 1.182 29 46 13
0.106082 -0.251412 1.182 29 46 13
0.107918 -0.251412 1.182 29 46 13
0.109846 -0.251625 1.183 28 45 12
0.111683 -0.251625 1.183 28 45 12
0.113425 -0.251412 1.182 28 45 12
0.11526 -0.251412 1.182 27 44 11
0.117195 -0.251625 1.183 25 45 11
0.119032 -0.251625 1.183 26 46 12
0.120767 -0.251412 1.182 26 46 12
0.122707 -0.251625 1.183 26 46 12
0.124544 -0.251625 1.183 29 48 16
0.126488 -0.251838 1.184 29 48 16
0.128435 -0.25205 1.185 29 48 16
0.130276 -0.25205 1.185 27 46 14
0.132227 -0.252263 1.186 27 46 14
0.134182 -0.252476 1.187 26 45 13
0.136026 -0.252476 1.187 29 48 16
0.137985 -0.252688 1.188 29 48 16
0.13983 -0.252688 1.188 30 49 17
0.141795 -0.252901 1.189 29 48 16
0.143641 -0.252901 1.189 29 48 16
0.145488 -0.252901 1.189 29 48 16
0.147334 -0.252901 1.189 27 46 14
0.149056 -0.252688 1.188 29 48 16
0.151028 -0.252901 1.189 29 48 16
0.152874 -0.252901 1.189 29 48 16
0.154721 -0.252901 1.189 29 48 16
0.156567 -0.252901 1.189 29 48 16
0.158414 -0.252901 1.189 29 48 16
0.16026 -0.252901 1.189 29 48 16
0.162107 -0.252901 1.189 28 49 17
0.163953 -0.252901 1.189 25 46 14
0.165939 -0.253114 1.19 24 45 13
0.167788 -0.253114 1.19 27 48 16
0.169636 -0.253114 1.19 28 49 17
0.171484 -0.253114 1.19 28 49 17
0.173332 -0.253114 1.19 28 49 17
0.17518 -0.253114 1.19 29 50 18
0.177028 -0.253114 1.19 29 50 18
0.178876 -0.253114 1.19 28 49 17
0.180724 -0.253114 1.19 28 49 17
0.182572 -0.253114 1.19 28 49 17
0.184576 -0.253327 1.191 27 48 16
0.186425 -0.253327 1.191 27 48 16
0.188275 -0.253327 1.191 27 48 16
0.190125 -0.253327 1.191 27 48 16
0.191974 -0.253327 1.191 27 48 16
0.193987 -0.253539 1.192 28 49 17
0.195838 -0.253539 1.192 29 50 18
0.197689 -0.253539 1.192 28 49 17
0.19954 -0.253539 1.192 29 50 18
0.201391 -0.253539 1.192 28 49 17
0.203243 -0.253539 1.192 27 48 16
0.205094 -0.253539 1.192 27 48 16
0.206945 -0.253539 1.192 27 48 16
0.208621 -0.253327 1.191 28 49 17
0.210471 -0.253327 1.191 29 50 18
0.21232 -0.253327 1.191 29 50 18
0.21399 -0.253114 1.19 28 49 17
0.215838 -0.253114 1.19 28 49 17
0.217687 -0.253114 1.19 28 49 17
0.219535 -0.253114 1.19 28 49 17
0.221383 -0.253114 1.19 27 48 16
0.223231 -0.253114 1.19 27 48 16
0.225079 -0.253114 1.19 25 46 14
0.226927 -0.253114 1.19 27 48 16
0.228775 -0.253114 1.19 24 45 13
0.230817 -0.253327 1.191 24 45 13
0.232667 -0.253327 1.191 25 45 16
0.234516 -0.253327 1.191 24 44 15
0.236366 -0.253327 1.191 25 45 16
0.238216 -0.253327 1.191 20 40 11
0.240065 -0.253327 1.191 18 38 11
0.241712 -0.253114 1.19 18 38 11
0.24356 -0.253114 1.19 17 37 10
0.245408 -0.253114 1.19 16 36 9
0.246841 -0.252688 1.188 15 34 9
0.248686 -0.252688 1.188 14 33 8
0.25032 -0.252476 1.187 17 34 9
0.252163 -0.252476 1.187 16 33 8
0.254007 -0.252476 1.187 15 31 9
0.25585 -0.252476 1.187 13 29 7
0.257694 -0.252476 1.187 13 28 8
0.259537 -0.252476 1.187 12 27 7
0.261601 -0.252688 1.188 12 27 7
0.263668 -0.252901 1.189 12 27 7
0.267586 -0.253114 1.19 13 28 8
0.271738 -0.253539 1.192 12 27 7
0.273589 -0.253539 1.192 15 27 8
0.27544 -0.253539 1.192 17 29 10
0.277757 -0.253965 1.194 18 30 11
0.279611 -0.253965 1.194 18 30 11
0.281465 -0.253965 1.194 17 29 10
0.283082 -0.253752 1.193 17 29 10
0.284696 -0.253539 1.192 18 30 11
0.286307 -0.253327 1.191 17 29 10
0.287915 -0.253114 1.19 14 26 7
0.289763 -0.253114 1.19 13 25 6
0.291366 -0.252901 1.189 13 25 6
0.292719 -0.252476 1.187 14 26 7
0.294563 -0.252476 1.187 13 25 6
0.296406 -0.252476 1.187 15 27 8
0.297998 -0.252263 1.186 17 29 10
0.299587 -0.25205 1.185 18 30 11
0.301428 -0.25205 1.185 19 31 12
0.303012 -0.251838 1.184 18 30 11
0.304594 -0.251625 1.183 17 29 10
0.30669 -0.251838 1.184 17 29 10
0.308529 -0.251838 1.184 17 29 10
0.310105 -0.251625 1.183 19 31 12
0.311942 -0.251625 1.183 20 32 13
0.31378 -0.251625 1.183 20 32 13
0.315617 -0.251625 1.183 20 32 13
0.317723 -0.251838 1.184 18 30 11
0.319831 -0.25205 1.185 18 30 11
0.321672 -0.25205 1.185 17 29 10
0.323785 -0.252263 1.186 19 31 12
0.325901 -0.252476 1.187 18 30 11
0.328297 -0.252901 1.189 17 29 10
0.330699 -0.253327 1.191 18 30 11
0.332828 -0.253539 1.192 17 29 10
0.335241 -0.253965 1.194 18 30 11
0.337377 -0.254177 1.195 18 30 11
0.339233 -0.254177 1.195 20 32 13
0.342945 -0.254177 1.195 20 35 15
0.344801 -0.254177 1.195 19 34 14
0.346076 -0.253752 1.193 17 32 12
0.347638 -0.253539 1.192 16 31 11
0.349196 -0.253327 1.191 16 31 11
0.35075 -0.253114 1.19 16 31 11
0.352006 -0.252688 1.188 16 31 11
0.353553 -0.252476 1.187 16 31 11
0.354798 -0.25205 1.185 17 32 12
0.356036 -0.251625 1.183 18 33 13
0.357571 -0.251412 1.182 18 33 13
0.358798 -0.250987 1.18 13 29 12
0.360631 -0.250987 1.18 9 25 8
0.362156 -0.250774 1.179 17 29 19
0.363679 -0.250561 1.178 50 62 52
0.365508 -0.250561 1.178 13 24 16
0.366714 -0.250136 1.176 9 20 12
0.368227 -0.249923 1.175 16 27 19
0.369422 -0.249498 1.173 10 21 13
0.370294 -0.24886 1.17 12 21 19
0.368295 -0.246307 1.158 55 64 62
0.367717 -0.243542 1.145 79 90 89
0.367881 -0.242479 1.14 80 91 90
0.368355 -0.241628 1.136 80 91 90
-0.16602 -0.250208 1.185 21 41 12
-0.164318 -0.250419 1.186 22 42 13
-0.162613 -0.25063 1.187 22 42 13
-0.16077 -0.25063 1.187 22 42 13
-0.158926 -0.25063 1.187 21 41 12
-0.157215 -0.250841 1.188 21 41 12
-0.15537 -0.250841 1.188 21 41 12
-0.153525 -0.250841 1.188 24 44 15
-0.151553 -0.25063 1.187 24 44 15
-0.149709 -0.25063 1.187 25 45 16
-0.147866 -0.25063 1.187 31 49 20
-0.145899 -0.250419 1.186 32 50 21
-0.144057 -0.250419 1.186 30 48 19
-0.142215 -0.250419 1.186 32 50 21
-0.140373 -0.250419 1.186 33 51 22
-0.138415 -0.250208 1.185 33 51 22
-0.13669 -0.250419 1.186 32 50 21
-0.134848 -0.250419 1.186 32 50 21
-0.133006 -0.250419 1.186 31 50 18
-0.131164 -0.250419 1.186 31 50 18
-0.129431 -0.25063 1.187 31 50 18
-0.127695 -0.250841 1.188 32 51 19
-0.12585 -0.250841 1.188 32 52 18
-0.12411 -0.251052 1.189 32 52 18
-0.122263 -0.251052 1.189 32 52 18
-0.120416 -0.251052 1.189 31 51 17
-0.11867 -0.251264 1.19 31 51 17
-0.116821 -0.251264 1.19 32 52 18
-0.114973 -0.251264 1.19 32 52 18
-0.113125 -0.251264 1.19 32 52 18
-0.111277 -0.251264 1.19 32 51 19
-0.109429 -0.251264 1.19 33 52 20
-0.107581 -0.251264 1.19 33 52 20
-0.105733 -0.251264 1.19 33 52 20
-0.103885 -0.251264 1.19 33 52 20
-0.102037 -0.251264 1.19 32 51 19
-0.100188 -0.251264 1.19 31 50 18
-0.098423 -0.251475 1.191 30 49 17
-0.0966544 -0.251686 1.192 29 48 16
-0.0948032 -0.251686 1.192 27 46 14
-0.092952 -0.251686 1.192 29 48 16
-0.0911008 -0.251686 1.192 27 46 14
-0.0892496 -0.251686 1.192 29 48 16
-0.0874717 -0.251897 1.193 27 46 14
-0.0856189 -0.251897 1.193 27 47 13
-0.0837661 -0.251897 1.193 29 49 15
-0.0818447 -0.251686 1.192 26 46 12
-0.0799935 -0.251686 1.192 25 45 11
-0.0781423 -0.251686 1.192 29 49 15
-0.076291 -0.251686 1.192 29 49 15
-0.0744398 -0.251686 1.192 27 47 13
-0.0725886 -0.251686 1.192 27 47 13
-0.0707374 -0.251686 1.192 25 47 13
-0.0688862 -0.251686 1.192 25 47 13
-0.067035 -0.251686 1.192 25 47 13
-0.0651838 -0.251686 1.192 27 49 15
-0.0632794 -0.251475 1.191 25 47 13
-0.0613782 -0.251264 1.19 24 46 12
-0.05953 -0.251264 1.19 24 46 12
-0.0576819 -0.251264 1.19 24 46 12
-0.0558338 -0.251264 1.19 22 44 10
-0.0539857 -0.251264 1.19 22 44 10
-0.0521376 -0.251264 1.19 24 46 12
-0.0502895 -0.251264 1.19 24 46 12
-0.0484414 -0.251264 1.19 23 45 11
-0.0465933 -0.251264 1.19 21 43 9
-0.0447452 -0.251264 1.19 23 45 11
-0.0428971 -0.251264 1.19 24 46 12
-0.0410144 -0.251052 1.189 25 47 13
-0.0391679 -0.251052 1.189 25 47 13
-0.0373213 -0.251052 1.189 24 47 10
-0.0354748 -0.251052 1.189 22 45 8
-0.0335999 -0.250841 1.188 24 47 10
-0.0317282 -0.25063 1.187 24 47 10
-0.0298848 -0.25063 1.187 21 44 7
-0.0280177 -0.250419 1.186 21 44 7
-0.0261537 -0.250208 1.185 21 44 7
-0.0243134 -0.250208 1.185 20 43 6
-0.0224541 -0.249997 1.184 20 43 6
-0.0206153 -0.249997 1.184 21 44 7
-0.0187606 -0.249786 1.183 22 45 8
-0.0169234 -0.249786 1.183 22 45 8
-0.0150734 -0.249574 1.182 23 45 11
-0.0132489 -0.249786 1.183 24 46 12
-0.0114117 -0.249786 1.183 24 46 12
-0.00958251 -0.249997 1.184 24 46 12
-0.00774371 -0.249997 1.184 19 43 9
-0.00590991 -0.250208 1.185 20 44 10
-0.00406956 -0.250208 1.185 20 44 10
-0.0022311 -0.250419 1.186 18 42 8
-0.0003892 -0.250419 1.186 20 44 10
0.00145392 -0.25063 1.187 20 44 10
0.00329737 -0.25063 1.187 20 44 10
0.00514516 -0.250841 1.188 22 46 12
0.00699016 -0.250841 1.188 21 45 11
0.0088426 -0.251052 1.189 21 45 11
0.0106982 -0.251264 1.19 21 45 11
0.0125463 -0.251264 1.19 22 46 12
0.0143944 -0.251264 1.19 21 45 11
0.0162425 -0.251264 1.19 23 47 13
0.0180906 -0.251264 1.19 22 46 12
0.0199387 -0.251264 1.19 22 46 12
0.0217685 -0.251052 1.189 23 47 13
0.0236151 -0.251052 1.189 21 45 11
0.0254616 -0.251052 1.189 21 45 11
0.0272622 -0.25063 1.187 19 43 9
0.0291057 -0.25063 1.187 23 45 11
0.0309491 -0.25063 1.187 24 46 12
0.0327926 -0.25063 1.187 23 45 11
0.034636 -0.25063 1.187 24 46 12
0.0364795 -0.25063 1.187 24 46 12
0.038323 -0.25063 1.187 24 46 12
0.0401664 -0.25063 1.187 24 46 12
0.0420099 -0.25063 1.187 24 46 12
0.0438533 -0.25063 1.187 25 47 13
0.0456968 -0.25063 1.187 25 47 13
0.0475803 -0.250841 1.188 24 46 12
0.0494253 -0.250841 1.188 23 45 11
0.0513134 -0.251052 1.189 24 46 12
0.05316 -0.251052 1.189 25 47 13
0.0550528 -0.251264 1.19 25 47 13
0.0569009 -0.251264 1.19 24 46 12
0.058749 -0.251264 1.19 24 46 12
0.0606481 -0.251475 1.191 24 46 12
0.0624452 -0.251264 1.19 24 46 12
0.0642934 -0.251264 1.19 25 47 13
0.0661415 -0.251264 1.19 25 47 13
0.0679324 -0.251052 1.189 25 47 13
0.0696616 -0.25063 1.187 25 47 13
0.0714448 -0.250419 1.186 24 46 12
0.0732867 -0.250419 1.186 23 45 11
0.0750653 -0.250208 1.185 25 47 13
0.0769056 -0.250208 1.185 25 47 13
0.0786795 -0.249997 1.184 25 47 13
0.0804503 -0.249786 1.183 25 47 13
0.082218 -0.249574 1.182 25 47 13
0.0840537 -0.249574 1.182 27 47 13
0.0858894 -0.249574 1.182 26 46 12
0.0876508 -0.249363 1.181 26 46 12
0.0895607 -0.249574 1.182 25 45 11
0.0913191 -0.249363 1.181 27 47 13
0.0932321 -0.249574 1.182 26 46 12
0.0949874 -0.249363 1.181 26 46 12
0.0969035 -0.249574 1.182 27 47 13
0.0987392 -0.249574 1.182 28 45 12
0.100575 -0.249574 1.182 29 46 13
0.102411 -0.249574 1.182 29 46 13
0.104246 -0.249574 1.182 29 46 13
0.106082 -0.249574 1.182 29 46 13
0.108009 -0.249786 1.183 29 46 13
0.109846 -0.249786 1.183 28 45 12
0.111683 -0.249786 1.183 29 46 13
0.113521 -0.249786 1.183 29 46 13
0.115358 -0.249786 1.183 27 44 11
0.117195 -0.249786 1.183 26 46 12
0.119032 -0.249786 1.183 27 47 13
0.12087 -0.249786 1.183 27 47 13
0.122811 -0.249997 1.184 26 46 12
0.124649 -0.249997 1.184 29 48 16
0.126595 -0.250208 1.185 30 49 17
0.128435 -0.250208 1.185 30 49 17
0.130386 -0.250419 1.186 29 48 16
0.132339 -0.25063 1.187 27 46 14
0.134182 -0.25063 1.187 25 44 12
0.13614 -0.250841 1.188 29 48 16
0.138102 -0.251052 1.189 30 49 17
0.140066 -0.251264 1.19 30 49 17
0.141914 -0.251264 1.19 30 49 17
0.143762 -0.251264 1.19 30 49 17
0.14561 -0.251264 1.19 30 49 17
0.147458 -0.251264 1.19 30 49 17
0.149181 -0.251052 1.189 29 48 16
0.151155 -0.251264 1.19 30 49 17
0.153003 -0.251264 1.19 30 49 17
0.154851 -0.251264 1.19 29 48 16
0.156699 -0.251264 1.19 29 48 16
0.158547 -0.251264 1.19 29 48 16
0.160395 -0.251264 1.19 29 48 16
0.162243 -0.251264 1.19 31 50 18
0.164091 -0.251264 1.19 27 46 14
0.165939 -0.251264 1.19 25 46 14
0.167788 -0.251264 1.19 28 49 17
0.169636 -0.251264 1.19 28 49 17
0.171484 -0.251264 1.19 28 49 17
0.173332 -0.251264 1.19 28 49 17
0.17518 -0.251264 1.19 29 50 18
0.177028 -0.251264 1.19 29 50 18
0.178876 -0.251264 1.19 29 50 18
0.180724 -0.251264 1.19 29 50 18
0.182572 -0.251264 1.19 29 50 18
0.184421 -0.251264 1.19 27 48 16
0.186425 -0.251475 1.191 27 48 16
0.188117 -0.251264 1.19 27 48 16
0.190125 -0.251475 1.191 27 48 16
0.191974 -0.251475 1.191 28 49 17
0.193661 -0.251264 1.19 28 49 17
0.195673 -0.251475 1.191 29 50 18
0.197523 -0.251475 1.191 29 50 18
0.199373 -0.251475 1.191 29 50 18
0.201222 -0.251475 1.191 28 49 17
0.203072 -0.251475 1.191 28 49 17
0.204922 -0.251475 1.191 29 50 18
0.206598 -0.251264 1.19 28 49 17
0.208446 -0.251264 1.19 28 49 17
0.210294 -0.251264 1.19 28 49 17
0.212142 -0.251264 1.19 28 49 17
0.21381 -0.251052 1.189 28 49 17
0.215657 -0.251052 1.189 28 49 17
0.217321 -0.250841 1.188 28 49 17
0.219166 -0.250841 1.188 28 49 17
0.221011 -0.250841 1.188 27 48 16
0.223043 -0.251052 1.189 28 49 17
0.22489 -0.251052 1.189 27 48 16
0.226736 -0.251052 1.189 27 48 16
0.228583 -0.251052 1.189 24 45 13
0.230623 -0.251264 1.19 23 44 12
0.232471 -0.251264 1.19 24 44 15
0.23432 -0.251264 1.19 25 45 16
0.236168 -0.251264 1.19 24 44 15
0.238016 -0.251264 1.19 20 40 11
0.239864 -0.251264 1.19 18 38 11
0.241712 -0.251264 1.19 20 40 13
0.24356 -0.251264 1.19 18 38 11
0.244996 -0.250841 1.188 15 35 8
0.246841 -0.250841 1.188 13 33 6
0.248476 -0.25063 1.187 13 33 6
0.25032 -0.25063 1.187 13 32 7
0.252163 -0.25063 1.187 13 32 7
0.254007 -0.25063 1.187 13 29 7
0.255635 -0.250419 1.186 12 28 6
0.257477 -0.250419 1.186 12 27 7
0.259537 -0.25063 1.187 11 26 6
0.261381 -0.25063 1.187 12 27 7
0.263224 -0.25063 1.187 13 28 8
0.265514 -0.251052 1.189 13 28 8
0.267586 -0.251264 1.19 12 27 7
0.269434 -0.251264 1.19 12 27 7
0.273359 -0.251475 1.191 17 29 10
0.275209 -0.251475 1.191 17 29 10
0.277291 -0.251686 1.192 18 30 11
0.279143 -0.251686 1.192 17 29 10
0.280994 -0.251686 1.192 17 29 10
0.282608 -0.251475 1.191 15 27 8
0.284457 -0.251475 1.191 17 29 10
0.286067 -0.251264 1.19 17 29 10
0.287915 -0.251264 1.19 17 29 10
0.289763 -0.251264 1.19 17 29 10
0.291121 -0.250841 1.188 17 29 10
0.292966 -0.250841 1.188 17 29 10
0.294563 -0.25063 1.187 18 30 11
0.296406 -0.25063 1.187 19 31 12
0.297998 -0.250419 1.186 17 32 12
0.299587 -0.250208 1.185 17 32 12
0.301428 -0.250208 1.185 16 31 11
0.303012 -0.249997 1.184 16 31 11
0.304851 -0.249997 1.184 16 31 11
0.306431 -0.249786 1.183 18 33 13
0.308268 -0.249786 1.183 18 33 13
0.310105 -0.249786 1.183 18 33 13
0.311942 -0.249786 1.183 18 33 13
0.31378 -0.249786 1.183 18 33 13
0.315617 -0.249786 1.183 17 32 12
0.317454 -0.249786 1.183 16 31 11
0.319831 -0.250208 1.185 15 30 10
0.321672 -0.250208 1.185 13 28 8
0.324058 -0.25063 1.187 13 28 8
0.325901 -0.25063 1.187 15 30 10
0.328573 -0.251264 1.19 15 30 10
0.330977 -0.251686 1.192 17 32 12
0.333386 -0.252108 1.194 17 32 12
0.335521 -0.252319 1.195 17 32 12
0.339517 -0.25253 1.196 18 33 13
0.34166 -0.252742 1.197 19 34 14
0.343519 -0.252742 1.197 22 37 17
0.345089 -0.25253 1.196 19 34 14
0.346657 -0.252319 1.195 18 33 13
0.347929 -0.251897 1.193 17 32 12
0.349489 -0.251686 1.192 18 33 13
0.351045 -0.251475 1.191 18 33 13
0.352599 -0.251264 1.19 18 33 13
0.353553 -0.25063 1.187 18 33 13
0.355097 -0.250419 1.186 18 33 13
0.356337 -0.249997 1.184 18 33 13
0.357571 -0.249574 1.182 18 33 13
0.359103 -0.249363 1.181 16 30 13
0.360631 -0.249152 1.18 10 24 7
0.362156 -0.248941 1.179 19 31 21
0.363679 -0.24873 1.178 53 65 55
0.365508 -0.24873 1.178 10 21 13
0.366714 -0.248307 1.176 9 20 12
0.368227 -0.248096 1.175 16 27 19
0.369737 -0.247885 1.174 11 22 14
0.369978 -0.246829 1.169 13 22 20
0.367977 -0.244296 1.157 61 70 68
0.367395 -0.241551 1.144 78 89 88
0.367559 -0.240495 1.139 81 92 91
0.368031 -0.239651 1.135 80 91 90
-0.16602 -0.248365 1.185 21 41 12
-0.16418 -0.248365 1.185 22 42 13
-0.162613 -0.248784 1.187 23 43 16
-0.16077 -0.248784 1.187 23 43 16
-0.158926 -0.248784 1.187 22 42 15
-0.157215 -0.248994 1.188 21 41 14
-0.15537 -0.248994 1.188 21 41 12
-0.153654 -0.249204 1.189 23 43 14
-0.151808 -0.249204 1.189 24 44 15
-0.149835 -0.248994 1.188 25 45 16
-0.147866 -0.248784 1.187 31 49 20
-0.146022 -0.248784 1.187 32 50 21
-0.144179 -0.248784 1.187 30 48 19
-0.142335 -0.248784 1.187 32 50 21
-0.140492 -0.248784 1.187 33 51 22
-0.138532 -0.248575 1.186 32 50 21
-0.13669 -0.248575 1.186 31 49 20
-0.134848 -0.248575 1.186 31 49 20
-0.133006 -0.248575 1.186 30 49 17
-0.131164 -0.248575 1.186 30 49 17
-0.129431 -0.248784 1.187 30 49 17
-0.127588 -0.248784 1.187 31 50 18
-0.12585 -0.248994 1.188 33 53 19
-0.124005 -0.248994 1.188 32 52 18
-0.122263 -0.249204 1.189 31 51 17
-0.120416 -0.249204 1.189 31 51 17
-0.11867 -0.249413 1.19 32 52 18
-0.116821 -0.249413 1.19 32 52 18
-0.114973 -0.249413 1.19 32 52 18
-0.113125 -0.249413 1.19 32 52 18
-0.111277 -0.249413 1.19 33 52 20
-0.109429 -0.249413 1.19 33 52 20
-0.107581 -0.249413 1.19 34 53 21
-0.105733 -0.249413 1.19 33 52 20
-0.103885 -0.249413 1.19 34 50 19
-0.102037 -0.249413 1.19 33 49 18
-0.100273 -0.249623 1.191 32 48 17
-0.0985056 -0.249832 1.192 32 48 17
-0.0966544 -0.249832 1.192 29 48 16
-0.0948032 -0.249832 1.192 29 48 16
-0.09303 -0.250042 1.193 29 48 16
-0.0912536 -0.250252 1.194 29 48 16
-0.0893993 -0.250252 1.194 27 46 14
-0.087545 -0.250252 1.194 26 45 13
-0.0856907 -0.250252 1.194 26 46 12
-0.0838363 -0.250252 1.194 26 46 12
-0.081982 -0.250252 1.194 25 45 11
-0.0800606 -0.250042 1.193 25 45 11
-0.0782078 -0.250042 1.193 29 49 15
-0.076291 -0.249832 1.192 29 49 15
-0.0744398 -0.249832 1.192 27 47 13
-0.0725886 -0.249832 1.192 27 47 13
-0.0707374 -0.249832 1.192 26 46 12
-0.0688862 -0.249832 1.192 27 47 13
-0.067035 -0.249832 1.192 24 46 12
-0.0651838 -0.249832 1.192 24 46 12
-0.0633325 -0.249832 1.192 23 45 11
-0.0614813 -0.249832 1.192 24 46 12
-0.0595801 -0.249623 1.191 24 46 12
-0.0576819 -0.249413 1.19 24 46 12
-0.0558338 -0.249413 1.19 22 44 10
-0.0539857 -0.249413 1.19 22 44 10
-0.0521376 -0.249413 1.19 23 45 11
-0.0502895 -0.249413 1.19 24 46 12
-0.0484414 -0.249413 1.19 25 47 13
-0.0465933 -0.249413 1.19 23 45 11
-0.0447452 -0.249413 1.19 24 46 12
-0.0428971 -0.249413 1.19 23 45 11
-0.0410489 -0.249413 1.19 23 45 11
-0.0392008 -0.249413 1.19 23 45 11
-0.0373527 -0.249413 1.19 23 45 11
-0.0355046 -0.249413 1.19 23 45 11
-0.0336565 -0.249413 1.19 24 46 12
-0.0317549 -0.248994 1.188 24 46 12
-0.0299099 -0.248994 1.188 21 43 9
-0.0280413 -0.248784 1.187 21 43 9
-0.0261758 -0.248575 1.186 24 46 12
-0.0243134 -0.248365 1.185 24 46 12
-0.022473 -0.248365 1.185 24 46 12
-0.0206153 -0.248156 1.184 24 46 12
-0.0187606 -0.247946 1.183 24 46 12
-0.0169234 -0.247946 1.183 23 45 11
-0.0150734 -0.247736 1.182 24 46 12
-0.0132489 -0.247946 1.183 23 45 11
-0.0114117 -0.247946 1.183 21 43 9
-0.00957441 -0.247946 1.183 21 43 9
-0.00773717 -0.247946 1.183 18 42 8
-0.00590492 -0.248156 1.184 20 44 10
-0.00406956 -0.248365 1.185 19 43 9
-0.0022311 -0.248575 1.186 20 44 10
-0.0003892 -0.248575 1.186 21 45 11
0.00145392 -0.248784 1.187 21 45 11
0.00329737 -0.248784 1.187 20 44 10
0.00514949 -0.249204 1.189 22 46 12
0.00699605 -0.249204 1.189 22 44 10
0.00885004 -0.249413 1.19 22 44 10
0.0107071 -0.249623 1.191 22 44 10
0.0125568 -0.249623 1.191 24 46 12
0.0144065 -0.249623 1.191 22 44 10
0.0162561 -0.249623 1.191 24 46 12
0.0180906 -0.249413 1.19 23 45 11
0.0199387 -0.249413 1.19 24 46 12
0.0217868 -0.249413 1.19 25 47 13
0.0236349 -0.249413 1.19 24 46 12
0.0254616 -0.249204 1.189 23 45 11
0.0273082 -0.249204 1.189 22 44 10
0.0291302 -0.248994 1.188 21 43 9
0.0309491 -0.248784 1.187 22 44 10
0.0327926 -0.248784 1.187 22 44 10
0.034636 -0.248784 1.187 23 45 11
0.0364795 -0.248784 1.187 23 45 11
0.038323 -0.248784 1.187 23 45 11
0.0401664 -0.248784 1.187 23 45 11
0.0420099 -0.248784 1.187 24 46 12
0.0438903 -0.248994 1.188 24 46 12
0.0457353 -0.248994 1.188 25 47 13
0.0475803 -0.248994 1.188 25 47 13
0.0494669 -0.249204 1.189 24 46 12
0.0513134 -0.249204 1.189 24 46 12
0.05316 -0.249204 1.189 25 47 13
0.0550528 -0.249413 1.19 25 47 13
0.0569009 -0.249413 1.19 25 47 13
0.058749 -0.249413 1.19 23 45 11
0.0606481 -0.249623 1.191 23 45 11
0.0624452 -0.249413 1.19 23 45 11
0.0642934 -0.249413 1.19 23 45 11
0.0660859 -0.249204 1.189 23 45 11
0.0678753 -0.248994 1.188 24 46 12
0.0696616 -0.248784 1.187 25 47 13
0.0715051 -0.248784 1.187 24 46 12
0.0732867 -0.248575 1.186 24 46 12
0.0750653 -0.248365 1.185 25 47 13
0.0768407 -0.248156 1.184 25 47 13
0.0786131 -0.247946 1.183 24 46 12
0.0804503 -0.247946 1.183 26 46 12
0.082218 -0.247736 1.182 26 46 12
0.0840537 -0.247736 1.182 26 46 12
0.0858894 -0.247736 1.182 27 47 13
0.0877251 -0.247736 1.182 27 47 13
0.0895607 -0.247736 1.182 26 46 12
0.0913964 -0.247736 1.182 27 47 13
0.0932321 -0.247736 1.182 27 47 13
0.0950678 -0.247736 1.182 27 47 13
0.0969035 -0.247736 1.182 27 47 13
0.0987392 -0.247736 1.182 25 45 11
0.100575 -0.247736 1.182 25 45 11
0.102411 -0.247736 1.182 27 44 11
0.104246 -0.247736 1.182 27 44 11
0.106082 -0.247736 1.182 27 44 11
0.108009 -0.247946 1.183 28 45 12
0.109846 -0.247946 1.183 28 45 12
0.111683 -0.247946 1.183 29 46 13
0.113521 -0.247946 1.183 31 48 15
0.115358 -0.247946 1.183 29 46 13
0.117294 -0.248156 1.184 27 47 13
0.119133 -0.248156 1.184 29 49 15
0.120972 -0.248156 1.184 29 48 16
0.122914 -0.248365 1.185 27 46 14
0.124755 -0.248365 1.185 30 49 17
0.126595 -0.248365 1.185 30 49 17
0.128544 -0.248575 1.186 27 46 14
0.130496 -0.248784 1.187 27 46 14
0.13245 -0.248994 1.188 27 46 14
0.134409 -0.249204 1.189 27 46 14
0.13637 -0.249413 1.19 29 48 16
0.138218 -0.249413 1.19 29 48 16
0.140184 -0.249623 1.191 27 46 14
0.142033 -0.249623 1.191 30 49 17
0.143883 -0.249623 1.191 29 48 16
0.145733 -0.249623 1.191 30 49 17
0.147582 -0.249623 1.191 30 49 17
0.149432 -0.249623 1.191 30 49 17
0.151282 -0.249623 1.191 29 48 16
0.153131 -0.249623 1.191 29 48 16
0.154851 -0.249413 1.19 27 46 14
0.156699 -0.249413 1.19 29 48 16
0.158547 -0.249413 1.19 29 48 16
0.160395 -0.249413 1.19 29 48 16
0.162243 -0.249413 1.19 30 49 17
0.164091 -0.249413 1.19 29 48 16
0.165939 -0.249413 1.19 29 48 16
0.167788 -0.249413 1.19 30 49 17
0.169636 -0.249413 1.19 29 49 15
0.171484 -0.249413 1.19 29 49 15
0.173332 -0.249413 1.19 31 51 17
0.17518 -0.249413 1.19 31 51 17
0.177028 -0.249413 1.19 31 51 17
0.178876 -0.249413 1.19 32 52 18
0.180724 -0.249413 1.19 31 51 17
0.182572 -0.249413 1.19 31 51 17
0.184421 -0.249413 1.19 29 48 16
0.186269 -0.249413 1.19 29 48 16
0.188117 -0.249413 1.19 29 48 16
0.189965 -0.249413 1.19 30 49 17
0.191813 -0.249413 1.19 30 49 17
0.193661 -0.249413 1.19 30 49 17
0.195509 -0.249413 1.19 31 50 18
0.197357 -0.249413 1.19 31 50 18
0.199205 -0.249413 1.19 31 50 18
0.201054 -0.249413 1.19 31 50 18
0.202902 -0.249413 1.19 31 50 18
0.20475 -0.249413 1.19 31 50 18
0.206598 -0.249413 1.19 31 50 18
0.208446 -0.249413 1.19 31 50 18
0.210117 -0.249204 1.189 32 51 19
0.211786 -0.248994 1.188 31 50 18
0.213631 -0.248994 1.188 31 50 18
0.215294 -0.248784 1.187 30 49 17
0.217138 -0.248784 1.187 30 49 17
0.218981 -0.248784 1.187 30 49 17
0.220825 -0.248784 1.187 29 48 16
0.222668 -0.248784 1.187 30 49 17
0.224512 -0.248784 1.187 29 48 16
0.226355 -0.248784 1.187 27 46 14
0.228391 -0.248994 1.188 24 45 13
0.230236 -0.248994 1.188 24 45 13
0.232276 -0.249204 1.189 24 45 13
0.23432 -0.249413 1.19 23 44 12
0.236168 -0.249413 1.19 22 42 13
0.238016 -0.249413 1.19 20 40 11
0.239864 -0.249413 1.19 18 38 11
0.241712 -0.249413 1.19 21 41 14
0.243355 -0.249204 1.189 21 41 14
0.244996 -0.248994 1.188 22 42 15
0.246841 -0.248994 1.188 20 40 13
0.248476 -0.248784 1.187 15 35 8
0.25032 -0.248784 1.187 11 29 7
0.252163 -0.248784 1.187 11 29 7
0.253793 -0.248575 1.186 12 27 7
0.255635 -0.248575 1.186 12 27 7
0.257259 -0.248365 1.185 12 27 7
0.2591 -0.248365 1.185 12 27 7
0.26094 -0.248365 1.185 12 27 7
0.263002 -0.248575 1.186 13 28 8
0.265067 -0.248784 1.187 12 27 7
0.266911 -0.248784 1.187 12 27 7
0.268981 -0.248994 1.188 13 28 8
0.271054 -0.249204 1.189 13 28 8
0.27313 -0.249413 1.19 15 27 8
0.274978 -0.249413 1.19 17 29 10
0.276826 -0.249413 1.19 17 29 10
0.278674 -0.249413 1.19 15 27 8
0.280522 -0.249413 1.19 14 26 7
0.28237 -0.249413 1.19 15 27 8
0.28398 -0.249204 1.189 17 29 10
0.285826 -0.249204 1.189 17 29 10
0.287431 -0.248994 1.188 18 30 11
0.289276 -0.248994 1.188 17 29 10
0.291121 -0.248994 1.188 18 30 11
0.292966 -0.248994 1.188 18 30 11
0.294563 -0.248784 1.187 17 29 10
0.296406 -0.248784 1.187 17 29 10
0.29825 -0.248784 1.187 17 29 10
0.29984 -0.248575 1.186 17 29 10
0.301428 -0.248365 1.185 17 29 10
0.303268 -0.248365 1.185 17 29 10
0.305108 -0.248365 1.185 17 29 10
0.306949 -0.248365 1.185 19 31 12
0.308529 -0.248156 1.184 19 31 12
0.310105 -0.247946 1.183 19 31 12
0.311942 -0.247946 1.183 18 30 11
0.31378 -0.247946 1.183 18 30 11
0.315617 -0.247946 1.183 19 31 12
0.317723 -0.248156 1.184 18 30 11
0.319831 -0.248365 1.185 15 30 10
0.321672 -0.248365 1.185 15 30 10
0.324058 -0.248784 1.187 15 30 10
0.325901 -0.248784 1.187 15 30 10
0.328573 -0.249413 1.19 15 30 10
0.330977 -0.249832 1.192 17 32 12
0.333665 -0.250461 1.195 18 33 13
0.33766 -0.250671 1.196 18 33 13
0.339801 -0.25088 1.197 18 33 13
0.34166 -0.25088 1.197 17 32 12
0.343806 -0.25109 1.198 18 33 13
0.345666 -0.25109 1.198 18 33 13
0.347237 -0.25088 1.197 17 32 12
0.348512 -0.250461 1.195 16 31 11
0.350075 -0.250252 1.194 16 31 11
0.35134 -0.249832 1.192 16 31 11
0.352599 -0.249413 1.19 17 32 12
0.354149 -0.249204 1.189 17 32 12
0.355397 -0.248784 1.187 16 31 11
0.356638 -0.248365 1.185 16 31 11
0.357873 -0.247946 1.183 17 32 12
0.359407 -0.247736 1.182 17 31 14
0.360631 -0.247317 1.18 9 23 6
0.362156 -0.247108 1.179 24 35 27
0.363679 -0.246898 1.178 53 64 56
0.365508 -0.246898 1.178 6 17 9
0.366714 -0.246479 1.176 9 20 12
0.368227 -0.246269 1.175 13 24 16
0.369737 -0.24606 1.174 11 22 14
0.369978 -0.245012 1.169 10 21 20
0.369885 -0.243754 1.163 67 78 77
0.367395 -0.239772 1.144 79 90 89
0.367236 -0.238514 1.138 82 93 92
0.367706 -0.237676 1.134 80 91 90
-0.16602 -0.246523 1.185 22 42 13
-0.16418 -0.246523 1.185 21 41 12
-0.162613 -0.246939 1.187 22 42 13
-0.16077 -0.246939 1.187 23 43 14
-0.15906 -0.247147 1.188 22 42 13
-0.157348 -0.247355 1.189 21 41 12
-0.155632 -0.247563 1.19 21 41 12
-0.153784 -0.247563 1.19 22 42 13
-0.151808 -0.247355 1.189 26 44 15
-0.149961 -0.247355 1.189 27 45 16
-0.14799 -0.247147 1.188 30 48 19
-0.146145 -0.247147 1.188 32 50 21
-0.144179 -0.246939 1.187 31 49 20
-0.142335 -0.246939 1.187 32 50 21
-0.140492 -0.246939 1.187 32 50 21
-0.138648 -0.246939 1.187 31 49 20
-0.136805 -0.246939 1.187 31 49 20
-0.134961 -0.246939 1.187 32 50 21
-0.133118 -0.246939 1.187 31 50 18
-0.131275 -0.246939 1.187 30 49 17
-0.129431 -0.246939 1.187 30 49 17
-0.127588 -0.246939 1.187 30 49 17
-0.12585 -0.247147 1.188 29 48 16
-0.124005 -0.247147 1.188 29 48 16
-0.122263 -0.247355 1.189 30 50 16
-0.120416 -0.247355 1.189 29 49 15
-0.11867 -0.247563 1.19 31 51 17
-0.116821 -0.247563 1.19 30 50 16
-0.114973 -0.247563 1.19 31 51 17
-0.113125 -0.247563 1.19 31 51 17
-0.111277 -0.247563 1.19 32 51 19
-0.109429 -0.247563 1.19 33 52 20
-0.107581 -0.247563 1.19 33 52 20
-0.105733 -0.247563 1.19 32 51 19
-0.103885 -0.247563 1.19 31 50 18
-0.102122 -0.247771 1.191 30 49 17
-0.100357 -0.247979 1.192 29 48 16
-0.0985056 -0.247979 1.192 26 45 13
-0.0967355 -0.248187 1.193 29 48 16
-0.0949623 -0.248395 1.194 30 49 17
-0.093108 -0.248395 1.194 29 48 16
-0.0913301 -0.248603 1.195 29 48 16
-0.0894742 -0.248603 1.195 27 46 14
-0.0876183 -0.248603 1.195 26 45 13
-0.0857624 -0.248603 1.195 26 46 12
-0.0839066 -0.248603 1.195 27 47 13
-0.0820507 -0.248603 1.195 26 46 12
-0.0801277 -0.248395 1.194 25 45 11
-0.0782734 -0.248395 1.194 26 46 12
-0.0763551 -0.248187 1.193 27 47 13
-0.0745023 -0.248187 1.193 27 47 13
-0.0726495 -0.248187 1.193 29 49 15
-0.0707967 -0.248187 1.193 27 47 13
-0.0688862 -0.247979 1.192 29 49 15
-0.067035 -0.247979 1.192 24 46 12
-0.0651838 -0.247979 1.192 23 45 11
-0.0633325 -0.247979 1.192 23 45 11
-0.0614813 -0.247979 1.192 23 45 11
-0.0596301 -0.247979 1.192 24 46 12
-0.0577304 -0.247771 1.191 24 46 12
-0.0558807 -0.247771 1.191 23 45 11
-0.0539857 -0.247563 1.19 22 44 10
-0.0521376 -0.247563 1.19 23 45 11
-0.0502895 -0.247563 1.19 23 45 11
-0.0484821 -0.247771 1.191 24 46 12
-0.0466324 -0.247771 1.191 22 44 10
-0.0447828 -0.247771 1.191 23 45 11
-0.0429331 -0.247771 1.191 22 44 10
-0.0410834 -0.247771 1.191 22 44 10
-0.0392338 -0.247771 1.191 22 44 10
-0.0374155 -0.247979 1.192 24 46 12
-0.0355344 -0.247771 1.191 24 46 12
-0.0336565 -0.247563 1.19 25 47 13
-0.0318084 -0.247563 1.19 25 47 13
-0.0299351 -0.247355 1.189 23 45 11
-0.0280413 -0.246939 1.187 22 44 10
-0.0261978 -0.246939 1.187 23 45 11
-0.0243339 -0.246731 1.186 23 45 11
-0.022473 -0.246523 1.185 24 46 12
-0.0206327 -0.246523 1.185 22 44 10
-0.0187606 -0.246107 1.183 22 44 10
-0.0169234 -0.246107 1.183 22 44 10
-0.0150734 -0.245899 1.182 22 44 10
-0.0132377 -0.245899 1.182 21 43 9
-0.011402 -0.245899 1.182 21 43 9
-0.00956632 -0.245899 1.182 22 44 10
-0.00773717 -0.246107 1.183 21 43 9
-0.00590492 -0.246315 1.184 22 44 10
-0.00406956 -0.246523 1.185 19 43 9
-0.00222922 -0.246523 1.185 21 45 11
-0.0003892 -0.246731 1.186 21 45 11
0.00145392 -0.246939 1.187 23 47 13
0.00330015 -0.247147 1.188 22 46 12
0.00514949 -0.247355 1.189 22 46 12
0.00700193 -0.247563 1.19 22 44 10
0.00885748 -0.247771 1.191 22 44 10
0.0107161 -0.247979 1.192 22 44 10
0.0125673 -0.247979 1.192 23 45 11
0.0144186 -0.247979 1.192 22 44 10
0.0162698 -0.247979 1.192 24 46 12
0.018121 -0.247979 1.192 21 45 11
0.0199555 -0.247771 1.191 22 46 12
0.0217868 -0.247563 1.19 23 47 13
0.0236349 -0.247563 1.19 23 47 13
0.025483 -0.247563 1.19 22 46 12
0.0273082 -0.247355 1.189 25 49 15
0.0291547 -0.247355 1.189 23 45 11
0.0309752 -0.247147 1.188 22 44 10
0.0328202 -0.247147 1.188 22 44 10
0.034636 -0.246939 1.187 23 45 11
0.0364795 -0.246939 1.187 23 45 11
0.038323 -0.246939 1.187 23 45 11
0.0401664 -0.246939 1.187 24 45 13
0.0420099 -0.246939 1.187 24 45 13
0.0438903 -0.247147 1.188 24 45 13
0.0457353 -0.247147 1.188 25 46 14
0.0476203 -0.247355 1.189 24 45 13
0.0494669 -0.247355 1.189 23 44 12
0.0513134 -0.247355 1.189 23 44 12
0.05316 -0.247355 1.189 24 45 13
0.0550065 -0.247355 1.189 27 48 16
0.0569009 -0.247563 1.19 27 48 16
0.058749 -0.247563 1.19 23 44 12
0.0605971 -0.247563 1.19 23 44 12
0.0624452 -0.247563 1.19 23 44 12
0.0642393 -0.247355 1.189 23 44 12
0.0660303 -0.247147 1.188 23 44 12
