ply
format ascii 1.0
comment Created by Open3D
element vertex 1358
property double x
property double y
property double z
property uchar red
property uchar green
property uchar blue
end_header
0.338098 -0.0681404 1.191 28 50 23
0.339947 -0.0681404 1.191 29 49 22
0.341797 -0.0681404 1.191 31 51 24
0.343935 -0.0681976 1.192 31 51 24
0.345786 -0.0681976 1.192 31 51 24
0.347346 -0.0681404 1.191 30 48 21
0.348902 -0.0680831 1.19 32 50 23
0.35075 -0.0680831 1.19 33 51 24
0.352302 -0.0680259 1.189 34 52 25
0.353553 -0.0679115 1.187 32 50 23
0.354798 -0.0677971 1.185 32 50 23
0.356337 -0.0677399 1.184 32 49 24
0.357571 -0.0676254 1.182 29 46 21
0.359103 -0.0675682 1.181 22 38 16
0.360325 -0.0674538 1.179 23 39 17
0.361235 -0.0672822 1.176 25 37 18
0.362135 -0.0671105 1.173 22 34 15
0.363336 -0.0669961 1.171 21 32 18
0.363284 -0.0666528 1.165 20 31 17
0.361959 -0.0660807 1.155 25 31 30
0.362178 -0.0657946 1.15 83 89 88
0.362382 -0.0655086 1.145 121 129 131
0.362888 -0.0652797 1.141 124 132 134
0.363701 -0.0651081 1.138 128 137 136
0.364505 -0.0649364 1.135 132 141 140
0.366591 -0.0649937 1.136 121 130 129
0.369652 -0.0652225 1.14 79 88 87
-0.16321 -0.0655649 1.178 4 12 5
-0.161654 -0.0656763 1.18 4 12 5
-0.160228 -0.0658432 1.183 4 12 5
-0.158659 -0.0659545 1.185 4 12 5
-0.157083 -0.0660659 1.187 4 12 5
-0.15537 -0.0661215 1.188 5 13 6
-0.153784 -0.0662328 1.19 12 20 13
-0.151936 -0.0662328 1.19 10 17 8
-0.150214 -0.0662885 1.191 10 17 8
-0.148488 -0.0663442 1.192 12 20 8
-0.146637 -0.0663442 1.192 13 21 9
-0.144786 -0.0663442 1.192 14 23 9
-0.143055 -0.0663998 1.193 15 24 10
-0.141202 -0.0663998 1.193 15 24 10
-0.139349 -0.0663998 1.193 14 23 9
-0.137496 -0.0663998 1.193 14 23 9
-0.135644 -0.0663998 1.193 14 23 9
-0.133791 -0.0663998 1.193 13 22 8
-0.131938 -0.0663998 1.193 14 23 9
-0.130085 -0.0663998 1.193 14 23 9
-0.128233 -0.0663998 1.193 13 22 8
-0.126486 -0.0664555 1.194 13 22 8
-0.124631 -0.0664555 1.194 12 21 7
-0.122777 -0.0664555 1.194 12 21 7
-0.120822 -0.0663998 1.193 13 22 8
-0.119068 -0.0664555 1.194 12 21 7
-0.117214 -0.0664555 1.194 12 21 7
-0.11536 -0.0664555 1.194 10 21 7
-0.113601 -0.0665111 1.195 8 19 5
-0.111745 -0.0665111 1.195 10 21 7
-0.109889 -0.0665111 1.195 10 21 7
-0.108033 -0.0665111 1.195 11 22 8
-0.106177 -0.0665111 1.195 11 22 8
-0.104234 -0.0664555 1.194 11 21 9
-0.102294 -0.0663998 1.193 10 20 8
-0.100357 -0.0663442 1.192 8 18 6
-0.098423 -0.0662885 1.191 8 18 6
-0.0964112 -0.0661772 1.189 7 17 5
-0.094326 -0.0660102 1.186 7 17 5
-0.0923282 -0.0658989 1.184 6 16 4
-0.0903365 -0.0657876 1.182 5 15 3
-0.0883511 -0.0656763 1.18 6 16 4
-0.0864452 -0.0656206 1.179 5 15 3
-0.0844706 -0.0655093 1.177 5 14 5
-0.0825725 -0.0654536 1.176 7 16 7
-0.0806775 -0.065398 1.175 6 15 6
-0.0787184 -0.0652867 1.173 7 16 7
-0.0768967 -0.0652867 1.173 7 16 7
-0.074947 -0.0651753 1.171 7 16 7
-0.0731284 -0.0651753 1.171 0 7 3
-0.0713098 -0.0651753 1.171 0 7 3
-0.0694318 -0.0651197 1.17 10 16 15
-0.067557 -0.065064 1.169 48 54 53
-0.0656853 -0.0650084 1.168 60 69 68
-0.063762 -0.064897 1.166 54 63 62
-0.0617917 -0.0647301 1.163 57 62 65
-0.0598824 -0.0646188 1.161 57 62 65
-0.0579793 -0.0645074 1.159 57 61 66
-0.0559369 -0.0642292 1.154 67 71 76
-0.054004 -0.0640622 1.151 65 68 71
-0.0521257 -0.0639509 1.149 99 102 105
-0.0502536 -0.0638395 1.147 117 117 118
-0.0484301 -0.0637839 1.146 125 125 126
-0.0466096 -0.0637282 1.145 127 131 130
-0.0447922 -0.0636726 1.144 122 126 125
-0.0430155 -0.0636726 1.144 106 104 104
-0.0411668 -0.0635613 1.142 105 103 103
-0.0393932 -0.0635613 1.142 134 133 130
-0.0376196 -0.0635613 1.142 161 160 157
-0.0358461 -0.0635613 1.142 164 162 156
-0.0340725 -0.0635613 1.142 180 178 172
-0.0322989 -0.0635613 1.142 232 233 225
-0.0305254 -0.0635613 1.142 254 255 247
-0.028777 -0.0636169 1.143 255 255 243
-0.0270255 -0.0636726 1.144 255 255 242
-0.025315 -0.0638395 1.147 255 255 235
-0.0236158 -0.0640622 1.151 245 242 220
-0.0218851 -0.0642292 1.154 190 178 156
-0.0201626 -0.0644518 1.158 69 57 35
-0.016623 -0.0646744 1.162 49 30 7
-0.0148566 -0.0648414 1.165 27 36 9
-0.0130921 -0.065064 1.169 41 50 23
-0.0113152 -0.0652867 1.173 41 57 26
-0.00951776 -0.0654536 1.176 49 65 34
-0.00770447 -0.0655649 1.178 51 71 37
-0.00587998 -0.0656206 1.179 52 72 38
-0.00405239 -0.0656763 1.18 50 70 36
-0.00221981 -0.0656763 1.18 46 66 32
-0.000387231 -0.0656763 1.18 41 64 27
0.00144412 -0.0656206 1.179 39 62 25
0.00327237 -0.0655649 1.178 41 64 27
0.00509752 -0.0655093 1.177 39 62 25
0.00691955 -0.0654536 1.176 39 64 27
0.00875336 -0.0655093 1.177 39 64 27
0.0105723 -0.0654536 1.176 40 65 28
0.0123987 -0.0654536 1.176 41 66 29
0.0142371 -0.0655093 1.177 40 65 28
0.016065 -0.0655093 1.177 41 66 29
0.0179082 -0.0655649 1.178 40 65 28
0.0197544 -0.0656206 1.179 37 62 25
0.0216037 -0.0656763 1.18 37 63 24
0.023476 -0.0657876 1.182 37 63 24
0.0253117 -0.0657876 1.182 37 63 24
0.0272163 -0.0659545 1.185 37 63 24
0.0290812 -0.0660102 1.186 36 62 23
0.0309491 -0.0660659 1.187 35 61 22
0.0328202 -0.0661215 1.188 36 62 23
0.0346944 -0.0661772 1.189 39 65 26
0.0365717 -0.0662328 1.19 39 65 26
0.0384198 -0.0662328 1.19 40 66 27
0.0402679 -0.0662328 1.19 40 66 25
0.0421514 -0.0662885 1.191 40 66 25
0.0440011 -0.0662885 1.191 40 66 25
0.0458507 -0.0662885 1.191 41 67 26
0.0477004 -0.0662885 1.191 40 66 25
0.0495501 -0.0662885 1.191 39 65 24
0.0514429 -0.0663442 1.192 39 65 24
0.0532941 -0.0663442 1.192 41 67 26
0.0551453 -0.0663442 1.192 41 67 26
0.0569965 -0.0663442 1.192 43 69 28
0.0588478 -0.0663442 1.192 43 69 28
0.060699 -0.0663442 1.192 43 69 28
0.0625502 -0.0663442 1.192 42 68 27
0.0644014 -0.0663442 1.192 43 69 28
0.066197 -0.0662885 1.191 43 69 28
0.0679896 -0.0662328 1.19 42 68 27
0.0698377 -0.0662328 1.19 41 67 28
0.0716858 -0.0662328 1.19 42 68 29
0.0735339 -0.0662328 1.19 41 67 28
0.075382 -0.0662328 1.19 41 67 28
0.0772301 -0.0662328 1.19 44 68 29
0.0790118 -0.0661772 1.189 43 67 28
0.0808583 -0.0661772 1.189 44 68 29
0.0827049 -0.0661772 1.189 45 69 30
0.0845515 -0.0661772 1.189 44 68 29
0.0863254 -0.0661215 1.188 44 68 29
0.0880961 -0.0660659 1.187 45 69 30
0.0899396 -0.0660659 1.187 46 70 31
0.091783 -0.0660659 1.187 46 70 31
0.0936265 -0.0660659 1.187 46 70 31
0.0954699 -0.0660659 1.187 45 69 30
0.0973134 -0.0660659 1.187 45 69 30
0.0992404 -0.0661215 1.188 45 68 31
0.10117 -0.0661772 1.189 45 68 31
0.103017 -0.0661772 1.189 44 67 30
0.104952 -0.0662328 1.19 43 66 29
0.1068 -0.0662328 1.19 44 67 30
0.108648 -0.0662328 1.19 44 67 30
0.110682 -0.0663442 1.192 44 67 30
0.112533 -0.0663442 1.192 44 67 30
0.11448 -0.0663998 1.193 44 67 30
0.116431 -0.0664555 1.194 44 67 30
0.118285 -0.0664555 1.194 46 69 32
0.12024 -0.0665111 1.195 45 68 31
0.122096 -0.0665111 1.195 45 69 30
0.123952 -0.0665111 1.195 44 68 29
0.125807 -0.0665111 1.195 44 68 29
0.127663 -0.0665111 1.195 45 69 30
0.129411 -0.0664555 1.194 46 70 31
0.131265 -0.0664555 1.194 48 72 33
0.133008 -0.0663998 1.193 48 72 31
0.134861 -0.0663998 1.193 48 72 31
0.136828 -0.0664555 1.194 46 70 29
0.138799 -0.0665111 1.195 45 69 28
0.140654 -0.0665111 1.195 46 71 27
0.14251 -0.0665111 1.195 46 71 27
0.144366 -0.0665111 1.195 51 76 32
0.146222 -0.0665111 1.195 55 80 36
0.148202 -0.0665668 1.196 46 71 27
0.149934 -0.0665111 1.195 45 70 26
0.151917 -0.0665668 1.196 48 73 29
0.153774 -0.0665668 1.196 50 75 31
0.155632 -0.0665668 1.196 49 74 30
0.157489 -0.0665668 1.196 50 75 31
0.159346 -0.0665668 1.196 49 74 30
0.161339 -0.0666224 1.197 49 74 30
0.163061 -0.0665668 1.196 48 73 29
0.164919 -0.0665668 1.196 46 71 27
0.166776 -0.0665668 1.196 48 73 29
0.168634 -0.0665668 1.196 50 75 31
0.170348 -0.0665111 1.195 50 75 31
0.172204 -0.0665111 1.195 51 76 32
0.173915 -0.0664555 1.194 50 75 31
0.175769 -0.0664555 1.194 50 75 31
0.177623 -0.0664555 1.194 50 75 31
0.179327 -0.0663998 1.193 50 75 31
0.181028 -0.0663442 1.192 50 76 30
0.182879 -0.0663442 1.192 52 78 32
0.18473 -0.0663442 1.192 51 77 31
0.186582 -0.0663442 1.192 52 78 32
0.188433 -0.0663442 1.192 54 79 30
0.190284 -0.0663442 1.192 54 79 30
0.192135 -0.0663442 1.192 52 77 28
0.193987 -0.0663442 1.192 52 77 28
0.195838 -0.0663442 1.192 51 76 27
0.197689 -0.0663442 1.192 53 78 29
0.199708 -0.0663998 1.193 52 77 28
0.20156 -0.0663998 1.193 52 77 28
0.203413 -0.0663998 1.193 52 77 28
0.205266 -0.0663998 1.193 51 76 27
0.207466 -0.0665111 1.195 53 78 29
0.209322 -0.0665111 1.195 53 78 29
0.211354 -0.0665668 1.196 55 80 31
0.21339 -0.0666224 1.197 57 82 33
0.215429 -0.0666781 1.198 54 78 32
0.217289 -0.0666781 1.198 53 77 31
0.219333 -0.0667338 1.199 53 76 32
0.221195 -0.0667338 1.199 53 76 32
0.223243 -0.0667894 1.2 54 77 33
0.224919 -0.0667338 1.199 52 75 31
0.226781 -0.0667338 1.199 52 74 33
0.228453 -0.0666781 1.198 52 74 33
0.230313 -0.0666781 1.198 50 72 31
0.23198 -0.0666224 1.197 51 73 32
0.233839 -0.0666224 1.197 48 70 29
0.235698 -0.0666224 1.197 47 69 28
0.237358 -0.0665668 1.196 41 63 22
0.239016 -0.0665111 1.195 41 63 22
0.240872 -0.0665111 1.195 40 62 23
0.242524 -0.0664555 1.194 44 66 27
0.244174 -0.0663998 1.193 33 54 17
0.245821 -0.0663442 1.192 32 53 16
0.247672 -0.0663442 1.192 31 50 18
0.249314 -0.0662885 1.191 30 49 17
0.251163 -0.0662885 1.191 26 44 17
0.252801 -0.0662328 1.19 25 43 16
0.254649 -0.0662328 1.19 22 42 15
0.256497 -0.0662328 1.19 23 43 16
0.258345 -0.0662328 1.19 23 43 16
0.260193 -0.0662328 1.19 21 41 14
0.262041 -0.0662328 1.19 21 41 14
0.263889 -0.0662328 1.19 21 41 14
0.265737 -0.0662328 1.19 21 41 14
0.267586 -0.0662328 1.19 22 42 15
0.269434 -0.0662328 1.19 22 42 15
0.271282 -0.0662328 1.19 22 42 15
0.27313 -0.0662328 1.19 22 42 15
0.274978 -0.0662328 1.19 21 41 14
0.276826 -0.0662328 1.19 21 41 14
0.27844 -0.0661772 1.189 20 40 13
0.280287 -0.0661772 1.189 20 40 13
0.282133 -0.0661772 1.189 20 40 13
0.28398 -0.0661772 1.189 21 41 14
0.286067 -0.0662328 1.19 23 43 16
0.287915 -0.0662328 1.19 23 43 16
0.289763 -0.0662328 1.19 22 42 15
0.291856 -0.0662885 1.191 20 40 13
0.293952 -0.0663442 1.192 18 38 11
0.295803 -0.0663442 1.192 21 41 14
0.298404 -0.0665111 1.195 23 43 16
0.300511 -0.0665668 1.196 22 42 15
0.302874 -0.0666781 1.198 23 43 16
0.304989 -0.0667338 1.199 20 40 13
0.307107 -0.0667894 1.2 20 40 13
0.308971 -0.0667894 1.2 23 43 16
0.311093 -0.0668451 1.201 23 43 16
0.312958 -0.0668451 1.201 21 41 14
0.314562 -0.0667894 1.2 20 40 13
0.316425 -0.0667894 1.2 20 39 14
0.318024 -0.0667338 1.199 21 40 15
0.319886 -0.0667338 1.199 21 40 15
0.321479 -0.0666781 1.198 23 42 17
0.32307 -0.0666224 1.197 23 42 17
0.324658 -0.0665668 1.196 22 41 16
0.326242 -0.0665111 1.195 21 42 17
0.328098 -0.0665111 1.195 20 41 16
0.329401 -0.0663998 1.193 22 43 18
0.330977 -0.0663442 1.192 26 47 22
0.332549 -0.0662885 1.191 26 47 22
0.334398 -0.0662885 1.191 26 47 22
0.336248 -0.0662885 1.191 27 48 23
0.338098 -0.0662885 1.191 29 50 25
0.339947 -0.0662885 1.191 30 50 23
0.341797 -0.0662885 1.191 31 51 24
0.343935 -0.0663442 1.192 31 51 24
0.345496 -0.0662885 1.191 30 50 23
0.347346 -0.0662885 1.191 31 49 22
0.348902 -0.0662328 1.19 32 50 23
0.35075 -0.0662328 1.19 34 52 25
0.352006 -0.0661215 1.188 34 52 25
0.353553 -0.0660659 1.187 34 52 25
0.355097 -0.0660102 1.186 34 52 25
0.356638 -0.0659545 1.185 34 52 25
0.357571 -0.0657876 1.182 36 54 27
0.359103 -0.0657319 1.181 37 54 29
0.360631 -0.0656763 1.18 41 58 33
0.361849 -0.0655649 1.178 35 48 27
0.362753 -0.065398 1.175 31 44 23
0.363957 -0.0652867 1.173 28 39 23
0.363908 -0.0649527 1.167 24 35 19
0.362273 -0.0643405 1.156 26 32 31
0.362382 -0.0637282 1.145 122 130 132
0.363206 -0.0635613 1.142 128 136 138
0.363701 -0.0633386 1.138 131 137 137
0.364826 -0.0632273 1.136 135 141 141
0.366591 -0.0632273 1.136 126 134 136
0.369652 -0.0634499 1.14 77 85 87
-0.16321 -0.0637333 1.178 4 12 5
-0.161928 -0.0639497 1.182 4 12 5
-0.160363 -0.0640579 1.184 4 12 5
-0.158792 -0.0641661 1.186 4 12 5
-0.157083 -0.0642202 1.187 4 12 5
-0.155501 -0.0643284 1.189 4 12 5
-0.153784 -0.0643825 1.19 5 13 6
-0.152063 -0.0644366 1.191 6 15 6
-0.15034 -0.0644907 1.192 8 17 8
-0.148488 -0.0644907 1.192 12 20 8
-0.146637 -0.0644907 1.192 13 21 9
-0.144786 -0.0644907 1.192 13 22 8
-0.143055 -0.0645448 1.193 14 23 9
-0.141202 -0.0645448 1.193 13 22 8
-0.139349 -0.0645448 1.193 14 23 9
-0.137496 -0.0645448 1.193 14 23 9
-0.135644 -0.0645448 1.193 13 22 8
-0.133791 -0.0645448 1.193 12 21 7
-0.131938 -0.0645448 1.193 12 21 7
-0.130085 -0.0645448 1.193 12 21 7
-0.128233 -0.0645448 1.193 12 21 7
-0.12638 -0.0645448 1.193 12 21 7
-0.124527 -0.0645448 1.193 12 21 7
-0.122674 -0.0645448 1.193 12 21 7
-0.120822 -0.0645448 1.193 12 21 7
-0.118969 -0.0645448 1.193 10 19 5
-0.117116 -0.0645448 1.193 10 19 5
-0.115263 -0.0645448 1.193 8 19 5
-0.11341 -0.0645448 1.193 8 19 5
-0.111558 -0.0645448 1.193 8 18 6
-0.109705 -0.0645448 1.193 7 17 5
-0.107852 -0.0645448 1.193 7 17 5
-0.105999 -0.0645448 1.193 7 17 5
-0.104059 -0.0644907 1.192 7 17 5
-0.102208 -0.0644907 1.192 7 17 5
-0.100188 -0.0643825 1.19 7 17 5
-0.0982577 -0.0643284 1.189 7 17 5
-0.0961679 -0.0641661 1.186 8 18 6
-0.094167 -0.0640579 1.184 7 17 5
-0.0921722 -0.0639497 1.182 6 16 4
-0.0901837 -0.0638415 1.18 6 16 4
-0.0882013 -0.0637333 1.178 6 15 6
-0.0862252 -0.0636251 1.176 5 14 5
-0.0843271 -0.063571 1.175 5 14 5
-0.0823618 -0.0634628 1.173 6 15 6
-0.0805401 -0.0634628 1.173 6 15 6
-0.0785842 -0.0633546 1.171 6 15 6
-0.0767656 -0.0633546 1.171 6 15 6
-0.074947 -0.0633546 1.171 7 16 7
-0.0730659 -0.0633005 1.17 7 15 8
-0.0712489 -0.0633005 1.17 1 9 2
-0.0694318 -0.0633005 1.17 0 6 5
-0.067557 -0.0632464 1.169 15 21 20
-0.0656853 -0.0631923 1.168 48 57 56
-0.0638166 -0.0631382 1.167 62 71 70
-0.061898 -0.06303 1.165 59 67 69
-0.0599855 -0.0629217 1.163 54 62 64
-0.0580293 -0.0627594 1.16 53 57 62
-0.0561308 -0.0626512 1.158 56 60 65
-0.0540978 -0.0623807 1.153 61 63 68
-0.0522164 -0.0622725 1.151 70 72 77
-0.0503413 -0.0621643 1.149 83 86 89
-0.0484723 -0.0620561 1.147 105 108 111
-0.0466503 -0.062002 1.146 122 126 126
-0.0448313 -0.0619479 1.145 120 124 124
-0.0430531 -0.0619479 1.145 116 116 117
-0.0412388 -0.0618938 1.144 97 97 98
-0.0394277 -0.0618397 1.143 109 107 107
-0.0376526 -0.0618397 1.143 126 124 124
-0.0358774 -0.0618397 1.143 131 129 129
-0.0341023 -0.0618397 1.143 148 146 146
-0.0323272 -0.0618397 1.143 207 204 201
-0.0305788 -0.0618938 1.144 226 223 220
-0.0288022 -0.0618938 1.144 243 242 234
-0.0270727 -0.062002 1.146 221 220 212
-0.0253592 -0.0621643 1.149 189 190 177
-0.0236158 -0.0622725 1.151 155 156 143
-0.0218851 -0.0624348 1.154 89 81 60
-0.0201626 -0.0626512 1.158 17 9 0
-0.0165943 -0.0627594 1.16 44 28 11
-0.0148311 -0.0629217 1.163 26 32 9
-0.0130585 -0.0630841 1.166 35 41 18
-0.0112766 -0.0632464 1.169 35 49 25
-0.00947729 -0.0633546 1.171 41 55 31
-0.00766523 -0.0634087 1.172 47 65 38
-0.00585006 -0.0634628 1.173 48 66 39
-0.00402835 -0.0634628 1.173 46 66 37
-0.00220664 -0.0634628 1.173 43 63 34
-0.000384934 -0.0634628 1.173 37 58 26
0.00143555 -0.0634087 1.172 39 60 28
0.00325571 -0.0634087 1.172 40 63 31
0.00507153 -0.0633546 1.171 39 62 30
0.00688425 -0.0633005 1.17 39 62 30
0.00870874 -0.0633546 1.171 39 62 30
0.0105273 -0.0633546 1.171 37 63 30
0.0123459 -0.0633546 1.171 37 63 30
0.0141645 -0.0633546 1.171 37 63 30
0.0159831 -0.0633546 1.171 39 65 32
0.017817 -0.0634087 1.172 39 62 30
0.0196539 -0.0634628 1.173 39 62 30
0.0215122 -0.063571 1.175 39 63 29
0.023337 -0.063571 1.175 40 64 30
0.0252046 -0.0636792 1.177 40 65 28
0.0270785 -0.0637874 1.179 40 65 28
0.0289586 -0.0638956 1.181 40 65 28
0.0308188 -0.0639497 1.182 37 62 25
0.0327097 -0.0640579 1.184 37 63 24
0.0345777 -0.064112 1.185 37 63 24
0.0364488 -0.0641661 1.186 39 65 24
0.038323 -0.0642202 1.187 37 63 22
0.0402002 -0.0642743 1.188 37 63 22
0.0420452 -0.0642743 1.188 37 63 22
0.0439272 -0.0643284 1.189 37 63 22
0.0457738 -0.0643284 1.189 40 66 25
0.0476203 -0.0643284 1.189 39 65 24
0.0495085 -0.0643825 1.19 39 65 24
0.0513566 -0.0643825 1.19 37 63 22
0.0532047 -0.0643825 1.19 40 66 25
0.0550991 -0.0644366 1.191 43 67 26
0.0569487 -0.0644366 1.191 44 68 27
0.0588478 -0.0644907 1.192 45 69 28
0.0606481 -0.0644366 1.191 45 69 28
0.0625502 -0.0644907 1.192 44 68 27
0.0643474 -0.0644366 1.191 44 68 27
0.0662526 -0.0644907 1.192 43 67 26
0.0680467 -0.0644366 1.191 43 67 26
0.0698964 -0.0644366 1.191 43 67 26
0.071746 -0.0644366 1.191 44 68 27
0.0735339 -0.0643825 1.19 43 67 26
0.075382 -0.0643825 1.19 44 68 27
0.0772301 -0.0643825 1.19 45 69 30
0.0790782 -0.0643825 1.19 45 69 30
0.0809264 -0.0643825 1.19 45 69 30
0.0827745 -0.0643825 1.19 45 69 30
0.0846226 -0.0643825 1.19 44 68 29
0.086398 -0.0643284 1.189 45 69 30
0.0882446 -0.0643284 1.189 46 70 31
0.0900154 -0.0642743 1.188 46 70 31
0.0918604 -0.0642743 1.188 46 70 31
0.0937054 -0.0642743 1.188 46 70 31
0.0955504 -0.0642743 1.188 45 69 30
0.0973954 -0.0642743 1.188 45 69 30
0.0993239 -0.0643284 1.189 45 68 31
0.10117 -0.0643284 1.189 46 69 32
0.103104 -0.0643825 1.19 44 67 30
0.104952 -0.0643825 1.19 45 68 31
0.1068 -0.0643825 1.19 48 70 36
0.108648 -0.0643825 1.19 44 66 32
0.110589 -0.0644366 1.191 45 67 33
0.112533 -0.0644907 1.192 49 71 37
0.114384 -0.0644907 1.192 52 75 38
0.116333 -0.0645448 1.193 46 69 32
0.118285 -0.0645989 1.194 46 69 32
0.120139 -0.0645989 1.194 45 68 31
0.122096 -0.064653 1.195 44 68 29
0.123848 -0.0645989 1.194 44 68 29
0.125807 -0.064653 1.195 43 67 28
0.127556 -0.0645989 1.194 44 68 29
0.129411 -0.0645989 1.194 45 69 28
0.131265 -0.0645989 1.194 45 69 28
0.133008 -0.0645448 1.193 45 69 28
0.134974 -0.0645989 1.194 48 72 31
0.136828 -0.0645989 1.194 48 72 31
0.138799 -0.064653 1.195 46 70 29
0.140654 -0.064653 1.195 45 70 26
0.14251 -0.064653 1.195 48 73 29
0.144366 -0.064653 1.195 56 81 37
0.146222 -0.064653 1.195 56 81 37
0.148202 -0.0647071 1.196 42 68 22
0.150059 -0.0647071 1.196 46 72 26
0.151917 -0.0647071 1.196 49 75 29
0.153774 -0.0647071 1.196 49 75 29
0.155632 -0.0647071 1.196 48 74 28
0.157489 -0.0647071 1.196 48 74 28
0.15948 -0.0647612 1.197 48 74 28
0.161339 -0.0647612 1.197 48 74 28
0.163198 -0.0647612 1.197 46 72 26
0.164919 -0.0647071 1.196 48 74 28
0.166776 -0.0647071 1.196 46 72 26
0.168493 -0.064653 1.195 49 75 29
0.170348 -0.064653 1.195 50 76 30
0.172204 -0.064653 1.195 50 76 30
0.17406 -0.064653 1.195 50 76 30
0.175769 -0.0645989 1.194 50 76 30
0.177474 -0.0645448 1.193 51 77 31
0.179327 -0.0645448 1.193 50 76 30
0.181028 -0.0644907 1.192 50 76 30
0.182879 -0.0644907 1.192 51 77 31
0.18473 -0.0644907 1.192 52 76 30
0.186582 -0.0644907 1.192 53 77 31
0.188433 -0.0644907 1.192 53 78 29
0.190125 -0.0644366 1.191 53 78 29
0.191974 -0.0644366 1.191 54 79 30
0.193824 -0.0644366 1.191 53 78 29
0.195838 -0.0644907 1.192 52 77 28
0.197689 -0.0644907 1.192 53 78 29
0.19954 -0.0644907 1.192 54 79 30
0.201391 -0.0644907 1.192 53 78 29
0.203413 -0.0645448 1.193 52 77 28
0.205438 -0.0645989 1.194 51 76 27
0.207466 -0.064653 1.195 53 78 29
0.209322 -0.064653 1.195 54 79 30
0.211354 -0.0647071 1.196 55 80 31
0.21339 -0.0647612 1.197 55 80 31
0.215429 -0.0648154 1.198 54 78 32
0.217289 -0.0648154 1.198 53 77 31
0.219333 -0.0648695 1.199 52 76 30
0.221195 -0.0648695 1.199 53 77 31
0.223057 -0.0648695 1.199 54 77 33
0.224919 -0.0648695 1.199 52 75 31
0.226781 -0.0648695 1.199 49 74 30
0.228643 -0.0648695 1.199 49 74 30
0.230313 -0.0648154 1.198 49 74 30
0.232174 -0.0648154 1.198 45 70 26
0.233839 -0.0647612 1.197 39 63 22
0.235698 -0.0647612 1.197 39 63 22
0.237557 -0.0647612 1.197 39 63 22
0.239016 -0.064653 1.195 38 62 21
0.240872 -0.064653 1.195 38 62 23
0.242524 -0.0645989 1.194 38 62 23
0.244174 -0.0645448 1.193 30 50 16
0.245821 -0.0644907 1.192 33 53 19
0.247464 -0.0644366 1.191 32 51 19
0.249104 -0.0643825 1.19 31 50 18
0.250953 -0.0643825 1.19 25 43 14
0.252588 -0.0643284 1.189 25 43 14
0.254435 -0.0643284 1.189 22 42 15
0.256281 -0.0643284 1.189 23 43 16
0.258128 -0.0643284 1.189 23 43 16
0.259974 -0.0643284 1.189 23 43 16
0.261821 -0.0643284 1.189 22 42 15
0.263668 -0.0643284 1.189 21 41 14
0.265514 -0.0643284 1.189 21 41 14
0.267361 -0.0643284 1.189 22 42 15
0.269207 -0.0643284 1.189 22 42 15
0.271054 -0.0643284 1.189 22 42 15
0.2729 -0.0643284 1.189 22 42 15
0.274747 -0.0643284 1.189 22 42 15
0.276593 -0.0643284 1.189 23 43 16
0.27844 -0.0643284 1.189 21 41 14
0.280287 -0.0643284 1.189 21 41 14
0.282133 -0.0643284 1.189 20 40 13
0.284219 -0.0643825 1.19 21 41 14
0.286067 -0.0643825 1.19 22 42 15
0.288157 -0.0644366 1.191 23 43 16
0.290006 -0.0644366 1.191 22 42 15
0.292101 -0.0644907 1.192 20 40 13
0.294199 -0.0645448 1.193 21 41 14
0.2963 -0.0645989 1.194 23 43 16
0.298654 -0.0647071 1.196 22 42 15
0.300762 -0.0647612 1.197 22 42 15
0.302874 -0.0648154 1.198 22 42 15
0.305243 -0.0649236 1.2 21 41 14
0.307107 -0.0649236 1.2 21 41 14
0.309228 -0.0649777 1.201 23 43 16
0.311093 -0.0649777 1.201 22 42 15
0.312958 -0.0649777 1.201 22 42 15
0.314824 -0.0649777 1.201 22 42 15
0.316425 -0.0649236 1.2 22 42 15
0.318289 -0.0649236 1.2 22 42 15
0.319886 -0.0648695 1.199 21 41 14
0.321479 -0.0648154 1.198 21 41 14
0.32307 -0.0647612 1.197 22 41 16
0.324658 -0.0647071 1.196 22 41 16
0.326242 -0.064653 1.195 23 42 17
0.327823 -0.0645989 1.194 23 42 17
0.329401 -0.0645448 1.193 22 43 18
0.330977 -0.0644907 1.192 25 46 21
0.332549 -0.0644366 1.191 27 48 23
0.334398 -0.0644366 1.191 26 47 22
0.335966 -0.0643825 1.19 26 47 22
0.337814 -0.0643825 1.19 29 50 25
0.339662 -0.0643825 1.19 31 51 24
0.341797 -0.0644366 1.191 31 51 24
0.343647 -0.0644366 1.191 31 51 24
0.345496 -0.0644366 1.191 31 51 24
0.347054 -0.0643825 1.19 32 50 23
0.348902 -0.0643825 1.19 32 50 23
0.350456 -0.0643284 1.189 36 54 27
0.352006 -0.0642743 1.188 36 54 27
0.353553 -0.0642202 1.187 36 54 27
0.355097 -0.0641661 1.186 36 54 27
0.356638 -0.064112 1.185 34 52 25
0.357873 -0.0640038 1.183 45 63 36
0.359407 -0.0639497 1.182 50 67 42
0.360631 -0.0638415 1.18 47 64 39
0.362156 -0.0637874 1.179 49 62 41
0.363061 -0.0636251 1.176 46 59 38
0.363957 -0.0634628 1.173 41 52 36
0.364219 -0.0631923 1.168 22 33 17
0.362586 -0.0625971 1.157 26 32 31
0.362698 -0.062002 1.146 124 132 134
0.363206 -0.0617856 1.142 126 134 136
0.363701 -0.0615692 1.138 137 143 143
0.364826 -0.061461 1.136 144 150 150
0.366591 -0.061461 1.136 131 140 139
0.369652 -0.0616774 1.14 79 88 87
-0.164899 -0.0618491 1.177 3 11 4
-0.163487 -0.0620067 1.18 6 14 7
-0.161928 -0.0621118 1.182 5 13 6
-0.160499 -0.0622695 1.185 3 11 4
-0.158926 -0.0623746 1.187 4 12 5
-0.157215 -0.0624271 1.188 4 12 5
-0.155632 -0.0625322 1.19 4 12 5
-0.153784 -0.0625322 1.19 4 12 5
-0.152063 -0.0625848 1.191 5 14 5
-0.15034 -0.0626373 1.192 7 16 7
-0.148488 -0.0626373 1.192 12 20 8
-0.146637 -0.0626373 1.192 13 21 9
-0.144908 -0.0626899 1.193 13 22 8
-0.143055 -0.0626899 1.193 13 22 8
-0.141202 -0.0626899 1.193 13 22 8
-0.139349 -0.0626899 1.193 14 23 9
-0.137496 -0.0626899 1.193 14 23 9
-0.135644 -0.0626899 1.193 13 22 8
-0.133679 -0.0626373 1.192 13 22 8
-0.131828 -0.0626373 1.192 12 21 7
-0.129976 -0.0626373 1.192 12 21 7
-0.128125 -0.0626373 1.192 12 21 7
-0.126274 -0.0626373 1.192 10 19 5
-0.124423 -0.0626373 1.192 9 18 4
-0.122571 -0.0626373 1.192 10 19 5
-0.12072 -0.0626373 1.192 10 19 5
-0.118869 -0.0626373 1.192 10 19 5
-0.117018 -0.0626373 1.192 10 19 5
-0.115167 -0.0626373 1.192 10 18 6
-0.113315 -0.0626373 1.192 9 17 5
-0.111464 -0.0626373 1.192 7 17 5
-0.109613 -0.0626373 1.192 6 16 4
-0.107762 -0.0626373 1.192 6 16 4
-0.105911 -0.0626373 1.192 7 17 5
-0.103972 -0.0625848 1.191 7 17 5
-0.102037 -0.0625322 1.19 7 17 5
-0.100104 -0.0624797 1.189 6 16 4
-0.0979272 -0.0622695 1.185 5 15 3
-0.0960057 -0.0622169 1.184 6 16 4
-0.0940079 -0.0621118 1.182 6 16 4
-0.0920162 -0.0620067 1.18 6 15 6
-0.0900308 -0.0619016 1.178 7 16 7
-0.0880516 -0.0617965 1.176 7 16 7
-0.0860786 -0.0616915 1.174 6 15 6
-0.0841835 -0.0616389 1.173 6 15 6
-0.0822214 -0.0615338 1.171 6 15 6
-0.0803341 -0.0614813 1.17 6 15 6
-0.07845 -0.0614287 1.169 6 15 6
-0.0765689 -0.0613762 1.168 7 16 7
-0.074755 -0.0613762 1.168 7 16 7
-0.072941 -0.0613762 1.168 7 15 8
-0.0711271 -0.0613762 1.168 6 14 7
-0.0693725 -0.0614287 1.169 1 7 6
-0.067557 -0.0614287 1.169 0 5 4
-0.0656853 -0.0613762 1.168 18 27 26
-0.0638166 -0.0613236 1.167 59 68 67
-0.0619511 -0.0612711 1.166 66 71 74
-0.0600371 -0.061166 1.164 64 69 72
-0.0581293 -0.0610609 1.162 57 61 66
-0.0561793 -0.0609032 1.159 55 59 64
-0.0541917 -0.060693 1.155 56 61 64
-0.0522618 -0.0605354 1.152 59 64 67
-0.0503851 -0.0604303 1.15 69 72 75
-0.0485568 -0.0603777 1.149 79 82 85
-0.046691 -0.0602727 1.147 93 97 97
-0.0449097 -0.0602727 1.147 105 109 109
-0.0430907 -0.0602201 1.146 108 112 111
-0.0412749 -0.0601676 1.145 104 108 107
-0.0394967 -0.0601676 1.145 93 93 93
-0.0376855 -0.060115 1.144 88 88 88
-0.0359088 -0.060115 1.144 88 87 84
-0.0341322 -0.060115 1.144 105 104 101
-0.0323555 -0.060115 1.144 133 131 125
-0.0305788 -0.060115 1.144 162 160 154
-0.0288273 -0.0601676 1.145 188 184 177
-0.0270727 -0.0602201 1.146 150 146 139
-0.0253371 -0.0603252 1.148 101 96 86
-0.0236158 -0.0604828 1.151 65 60 50
-0.0218851 -0.0606405 1.154 62 32 24
-0.0201277 -0.0607456 1.156 40 10 2
-0.0183641 -0.0608507 1.158 28 27 10
-0.0147928 -0.0609558 1.16 15 26 10
-0.0130137 -0.0610609 1.162 14 25 9
-0.0112284 -0.061166 1.164 15 30 10
-0.00943683 -0.0612711 1.166 16 31 11
-0.00762599 -0.0612711 1.166 17 33 16
-0.00581515 -0.0612711 1.166 28 44 27
-0.00400431 -0.0612711 1.166 33 53 31
-0.00219347 -0.0612711 1.166 37 57 35
-0.000382637 -0.0612711 1.166 32 56 30
0.0014282 -0.0612711 1.166 30 54 28
0.00323626 -0.0612185 1.165 35 59 33
0.00504121 -0.061166 1.164 37 61 35
0.00684895 -0.061166 1.164 31 57 31
0.00865668 -0.061166 1.164 32 58 32
0.0104644 -0.061166 1.164 28 57 30
0.0122721 -0.061166 1.164 26 55 28
0.0140799 -0.061166 1.164 30 56 30
0.0158876 -0.061166 1.164 38 64 38
0.0177257 -0.0612711 1.166 33 59 33
0.0195366 -0.0612711 1.166 29 55 29
0.021384 -0.0613762 1.168 32 57 29
0.0232377 -0.0614813 1.17 37 62 34
0.0250762 -0.0615338 1.171 33 59 26
0.0269407 -0.0616389 1.173 30 56 23
0.0288115 -0.061744 1.175 34 62 24
0.0307145 -0.0619016 1.178 34 62 24
0.0325992 -0.0620067 1.18 37 63 24
0.034461 -0.0620593 1.181 37 63 24
0.0363258 -0.0621118 1.182 37 63 24
0.0382261 -0.0622169 1.184 36 62 23
0.0400987 -0.0622695 1.185 37 63 24
0.0419745 -0.062322 1.186 37 63 24
0.0438164 -0.062322 1.186 39 65 26
0.0456968 -0.0623746 1.187 41 67 28
0.0475402 -0.0623746 1.187 41 67 26
0.0493837 -0.0623746 1.187 41 67 26
0.0512703 -0.0624271 1.188 39 65 24
0.0531153 -0.0624271 1.188 39 65 24
0.0550528 -0.0625322 1.19 39 65 24
0.0569009 -0.0625322 1.19 40 66 25
0.058749 -0.0625322 1.19 41 67 26
0.0606481 -0.0625848 1.191 40 66 25
0.0624977 -0.0625848 1.191 42 68 27
0.0644014 -0.0626373 1.192 42 68 27
0.0662526 -0.0626373 1.192 42 68 27
0.0680467 -0.0625848 1.191 41 67 26
0.0699551 -0.0626373 1.192 42 68 27
0.0718063 -0.0626373 1.192 42 68 27
0.0736575 -0.0626373 1.192 44 68 27
0.0754454 -0.0625848 1.191 45 69 28
0.077295 -0.0625848 1.191 45 69 28
0.0791447 -0.0625848 1.191 45 69 28
0.0809944 -0.0625848 1.191 45 69 30
0.082844 -0.0625848 1.191 46 70 31
0.0846226 -0.0625322 1.19 45 69 30
0.0864707 -0.0625322 1.19 45 69 30
0.0883188 -0.0625322 1.19 45 69 30
0.0901669 -0.0625322 1.19 44 68 29
0.0919377 -0.0624797 1.189 45 69 30
0.0937842 -0.0624797 1.189 46 70 31
0.0956308 -0.0624797 1.189 45 69 30
0.0973954 -0.0624271 1.188 45 69 30
0.0993239 -0.0624797 1.189 45 69 30
0.10117 -0.0624797 1.189 45 69 30
0.103104 -0.0625322 1.19 45 68 31
0.104952 -0.0625322 1.19 48 71 34
0.1068 -0.0625322 1.19 48 71 34
0.108648 -0.0625322 1.19 44 67 30
0.110496 -0.0625322 1.19 45 68 31
0.112533 -0.0626373 1.192 49 72 35
0.114384 -0.0626373 1.192 49 72 35
0.116235 -0.0626373 1.192 48 71 34
0.118186 -0.0626899 1.193 46 69 32
0.120039 -0.0626899 1.193 45 68 31
0.121789 -0.0626373 1.192 45 68 31
0.123744 -0.0626899 1.193 45 68 31
0.125597 -0.0626899 1.193 44 68 29
0.12745 -0.0626899 1.193 44 68 29
0.129302 -0.0626899 1.193 44 68 29
0.131155 -0.0626899 1.193 44 68 29
0.133008 -0.0626899 1.193 46 70 29
0.134974 -0.0627424 1.194 48 72 31
0.136828 -0.0627424 1.194 48 72 31
0.138799 -0.062795 1.195 46 70 29
0.140654 -0.062795 1.195 46 71 27
0.14251 -0.062795 1.195 46 71 27
0.144366 -0.062795 1.195 50 75 31
0.146222 -0.062795 1.195 50 75 31
0.148202 -0.0628475 1.196 49 74 30
0.150059 -0.0628475 1.196 53 78 34
0.151917 -0.0628475 1.196 51 76 32
0.153774 -0.0628475 1.196 50 75 31
0.155762 -0.0629001 1.197 49 74 30
0.157621 -0.0629001 1.197 49 74 30
0.15948 -0.0629001 1.197 48 73 29
0.161339 -0.0629001 1.197 49 74 30
0.163198 -0.0629001 1.197 49 74 30
0.164919 -0.0628475 1.196 50 75 31
0.166776 -0.0628475 1.196 48 73 29
0.168493 -0.062795 1.195 48 73 29
0.170348 -0.062795 1.195 49 74 30
0.172204 -0.062795 1.195 48 73 29
0.173915 -0.0627424 1.194 50 75 31
0.175622 -0.0626899 1.193 51 76 32
0.177474 -0.0626899 1.193 50 75 31
0.179177 -0.0626373 1.192 50 75 31
0.181028 -0.0626373 1.192 50 76 30
0.182879 -0.0626373 1.192 52 78 32
0.18473 -0.0626373 1.192 52 76 30
0.186582 -0.0626373 1.192 51 75 29
0.188275 -0.0625848 1.191 52 77 28
0.190125 -0.0625848 1.191 50 75 26
0.191974 -0.0625848 1.191 53 78 29
0.193824 -0.0625848 1.191 54 79 30
0.195838 -0.0626373 1.192 55 80 31
0.197689 -0.0626373 1.192 55 80 31
0.19954 -0.0626373 1.192 54 79 30
0.20156 -0.0626899 1.193 53 78 29
0.203584 -0.0627424 1.194 53 78 29
0.205438 -0.0627424 1.194 52 77 28
0.207466 -0.062795 1.195 53 77 31
0.209322 -0.062795 1.195 55 79 33
0.211531 -0.0629001 1.197 55 79 33
0.21339 -0.0629001 1.197 55 79 33
0.215249 -0.0629001 1.197 54 77 33
0.217289 -0.0629526 1.198 53 76 32
0.219333 -0.0630052 1.199 53 76 32
0.221195 -0.0630052 1.199 52 75 31
0.223243 -0.0630577 1.2 53 76 32
0.225107 -0.0630577 1.2 52 75 31
0.22697 -0.0630577 1.2 52 75 31
0.228834 -0.0630577 1.2 51 74 30
0.230313 -0.0629526 1.198 48 71 27
0.232174 -0.0629526 1.198 43 66 22
0.233839 -0.0629001 1.197 41 64 20
0.235698 -0.0629001 1.197 43 66 22
0.237358 -0.0628475 1.196 41 63 22
0.239016 -0.062795 1.195 39 61 20
0.240872 -0.062795 1.195 39 61 22
0.242321 -0.0626899 1.193 36 58 19
0.243969 -0.0626373 1.192 36 56 22
0.245614 -0.0625848 1.191 33 53 19
0.247256 -0.0625322 1.19 33 51 22
0.248895 -0.0624797 1.189 30 48 19
0.250742 -0.0624797 1.189 23 43 16
0.252376 -0.0624271 1.188 23 43 16
0.254007 -0.0623746 1.187 23 43 16
0.25585 -0.0623746 1.187 23 43 16
0.257694 -0.0623746 1.187 24 44 17
0.259537 -0.0623746 1.187 24 44 17
0.261381 -0.0623746 1.187 24 44 17
0.263224 -0.0623746 1.187 24 44 17
0.265291 -0.0624271 1.188 23 43 16
0.267136 -0.0624271 1.188 23 43 16
0.268981 -0.0624271 1.188 23 43 16
0.270826 -0.0624271 1.188 23 43 16
0.2729 -0.0624797 1.189 22 42 15
0.274747 -0.0624797 1.189 21 41 14
0.276593 -0.0624797 1.189 22 42 15
0.278674 -0.0625322 1.19 21 41 14
0.280522 -0.0625322 1.19 21 41 14
0.28237 -0.0625322 1.19 20 40 13
0.284219 -0.0625322 1.19 22 42 15
0.286307 -0.0625848 1.191 22 42 15
0.288399 -0.0626373 1.192 22 42 15
0.29025 -0.0626373 1.192 21 41 14
0.292346 -0.0626899 1.193 21 41 14
0.294445 -0.0627424 1.194 21 41 14
0.296548 -0.062795 1.195 22 42 15
0.298903 -0.0629001 1.197 21 41 14
0.301014 -0.0629526 1.198 21 41 14
0.30338 -0.0630577 1.2 21 41 14
0.305243 -0.0630577 1.2 21 41 14
0.307363 -0.0631102 1.201 22 42 15
0.309228 -0.0631102 1.201 23 43 16
0.311352 -0.0631628 1.202 22 42 15
0.312958 -0.0631102 1.201 22 42 15
0.314824 -0.0631102 1.201 23 43 16
0.316425 -0.0630577 1.2 23 43 16
0.318289 -0.0630577 1.2 23 43 16
0.319886 -0.0630052 1.199 23 43 16
0.321479 -0.0629526 1.198 24 44 17
0.32307 -0.0629001 1.197 23 43 16
0.324658 -0.0628475 1.196 23 43 16
0.326242 -0.062795 1.195 21 42 17
0.327823 -0.0627424 1.194 22 43 18
0.329401 -0.0626899 1.193 23 44 19
0.330699 -0.0625848 1.191 26 47 22
0.332549 -0.0625848 1.191 26 47 22
0.334117 -0.0625322 1.19 27 48 23
0.335966 -0.0625322 1.19 26 47 22
0.337814 -0.0625322 1.19 29 50 25
0.339662 -0.0625322 1.19 28 50 23
0.34151 -0.0625322 1.19 29 51 24
0.343358 -0.0625322 1.19 31 51 24
0.345206 -0.0625322 1.19 32 52 25
0.347054 -0.0625322 1.19 30 50 23
0.348902 -0.0625322 1.19 31 51 24
0.350456 -0.0624797 1.189 35 55 28
0.35171 -0.0623746 1.187 32 52 25
0.353553 -0.0623746 1.187 32 52 25
0.354798 -0.0622695 1.185 29 49 22
0.356638 -0.0622695 1.185 34 54 27
0.357873 -0.0621644 1.183 45 65 38
0.359407 -0.0621118 1.182 45 63 36
0.360937 -0.0620593 1.181 33 51 24
0.362156 -0.0619542 1.179 45 59 35
0.363061 -0.0617965 1.176 48 62 38
0.364577 -0.061744 1.175 35 46 30
0.364531 -0.0614287 1.169 20 31 15
0.36478 -0.061166 1.164 27 33 32
0.364698 -0.0608507 1.158 90 96 95
0.363015 -0.0602727 1.147 123 131 133
0.363206 -0.0600099 1.142 124 132 134
0.363701 -0.0597997 1.138 140 145 148
0.364505 -0.0596421 1.135 148 153 156
0.366591 -0.0596946 1.136 131 136 139
0.369652 -0.0599048 1.14 81 86 89
-0.165039 -0.06007 1.178 4 12 5
-0.163625 -0.060223 1.181 11 19 12
-0.162202 -0.060376 1.184 8 14 7
-0.160634 -0.0604779 1.186 6 12 5
-0.158926 -0.0605289 1.187 6 12 5
-0.157348 -0.0606309 1.189 7 13 6
-0.155632 -0.0606819 1.19 8 14 7
-0.153784 -0.0606819 1.19 6 12 5
-0.152063 -0.0607329 1.191 7 14 5
-0.15034 -0.0607839 1.192 9 16 7
-0.148488 -0.0607839 1.192 12 20 8
-0.146637 -0.0607839 1.192 14 22 10
-0.144908 -0.0608349 1.193 12 20 8
-0.142935 -0.0607839 1.192 13 21 9
-0.141084 -0.0607839 1.192 14 23 9
-0.139232 -0.0607839 1.192 15 24 10
-0.137381 -0.0607839 1.192 15 24 10
-0.13553 -0.0607839 1.192 13 22 8
-0.133679 -0.0607839 1.192 13 22 8
-0.131828 -0.0607839 1.192 12 21 7
-0.129867 -0.0607329 1.191 12 21 7
-0.128018 -0.0607329 1.191 10 19 5
-0.126168 -0.0607329 1.191 10 19 5
-0.124214 -0.0606819 1.19 9 18 4
-0.122366 -0.0606819 1.19 9 18 4
-0.120518 -0.0606819 1.19 9 18 4
-0.11867 -0.0606819 1.19 9 17 5
-0.116821 -0.0606819 1.19 9 17 5
-0.114973 -0.0606819 1.19 8 16 4
-0.113125 -0.0606819 1.19 8 16 4
-0.111277 -0.0606819 1.19 5 15 3
-0.109429 -0.0606819 1.19 5 15 3
-0.107581 -0.0606819 1.19 5 15 3
-0.105733 -0.0606819 1.19 6 16 4
-0.103885 -0.0606819 1.19 6 16 4
-0.101865 -0.0605799 1.188 6 16 4
-0.0997675 -0.0604269 1.185 5 14 5
-0.0977619 -0.060325 1.183 5 14 5
-0.0958436 -0.060274 1.182 6 15 6
-0.0938488 -0.060172 1.18 6 15 6
-0.0918603 -0.06007 1.178 6 15 6
-0.0898015 -0.059917 1.175 7 16 7
-0.0879018 -0.059866 1.174 7 16 7
-0.0859319 -0.059764 1.172 6 15 6
-0.08404 -0.059713 1.171 6 15 6
-0.082081 -0.0596111 1.169 5 14 5
-0.0801968 -0.0595601 1.168 5 14 5
-0.0783829 -0.0595601 1.168 6 15 6
-0.0765034 -0.0595091 1.167 7 16 7
-0.074691 -0.0595091 1.167 7 16 7
-0.0728786 -0.0595091 1.167 7 16 7
-0.0711271 -0.0595601 1.168 7 16 7
-0.0693132 -0.0595601 1.168 1 8 4
-0.0674992 -0.0595601 1.168 0 7 3
-0.0656853 -0.0595601 1.168 0 6 6
-0.0638713 -0.0595601 1.168 21 27 27
-0.0619511 -0.0594581 1.166 49 54 57
-0.0600887 -0.0594071 1.165 67 72 75
-0.0581794 -0.0593051 1.163 67 71 76
-0.0562762 -0.0592031 1.161 66 70 75
-0.0543324 -0.0590501 1.158 63 68 71
-0.0523525 -0.0588462 1.154 70 75 78
-0.0504289 -0.0586932 1.151 76 79 82
-0.0485991 -0.0586422 1.15 71 74 77
-0.0467724 -0.0585912 1.149 67 72 75
-0.0449488 -0.0585402 1.148 70 75 78
-0.0431283 -0.0584892 1.147 83 89 89
-0.0412749 -0.0583872 1.145 90 96 96
-0.0394967 -0.0583872 1.145 83 87 87
-0.0377184 -0.0583872 1.145 79 83 83
-0.0359402 -0.0583872 1.145 76 76 76
-0.034162 -0.0583872 1.145 80 80 80
-0.0323555 -0.0583362 1.144 93 91 92
-0.0305788 -0.0583362 1.144 105 103 104
-0.0288273 -0.0583872 1.145 117 114 118
-0.0270727 -0.0584382 1.146 83 80 84
-0.0253371 -0.0585402 1.148 51 50 54
-0.0235747 -0.0585912 1.149 34 33 37
-0.0218282 -0.0586932 1.151 17 13 19
-0.0200929 -0.0588462 1.154 14 10 16
-0.0183166 -0.0588972 1.155 16 21 17
-0.0165514 -0.0589991 1.157 14 19 15
-0.0147673 -0.0590501 1.158 11 19 12
-0.0129801 -0.0591011 1.159 11 19 12
-0.0111898 -0.0591521 1.16 5 20 12
-0.00938827 -0.0591521 1.16 7 22 14
-0.00758675 -0.0591521 1.16 5 26 22
-0.00578523 -0.0591521 1.16 7 28 24
-0.00398027 -0.0591011 1.159 10 33 23
-0.00218031 -0.0591011 1.159 17 40 30
-0.00038034 -0.0591011 1.159 22 49 34
0.0014184 -0.0590501 1.158 24 51 36
0.00321682 -0.0590501 1.158 26 53 38
0.00501523 -0.0590501 1.158 27 54 39
0.00681364 -0.0590501 1.158 25 53 41
0.00861206 -0.0590501 1.158 27 55 43
0.0104105 -0.0590501 1.158 27 57 46
0.0122194 -0.0591011 1.159 27 57 46
0.0140073 -0.0590501 1.158 25 52 42
0.0158194 -0.0591011 1.159 33 60 50
0.0176497 -0.0592031 1.161 36 62 50
0.0194696 -0.0592541 1.162 28 54 42
0.0213108 -0.0593561 1.164 29 52 36
0.0249691 -0.0594581 1.166 30 53 30
0.0268029 -0.0595091 1.167 30 53 30
0.0286643 -0.0596111 1.169 30 54 20
0.030558 -0.059764 1.172 33 57 23
0.0324335 -0.059866 1.174 37 61 27
0.0343443 -0.060019 1.177 39 63 29
0.0362029 -0.06007 1.178 39 65 26
0.038097 -0.060172 1.18 37 63 24
0.0399972 -0.060274 1.182 37 63 24
0.0418329 -0.060274 1.182 39 65 26
0.0437055 -0.060325 1.183 42 68 29
0.0456198 -0.0604269 1.185 47 73 34
0.0474601 -0.0604269 1.185 43 69 28
0.0493421 -0.0604779 1.186 42 68 27
0.0512271 -0.0605289 1.187 39 65 24
0.0530706 -0.0605289 1.187 39 65 24
0.0549603 -0.0605799 1.188 41 65 24
0.0568531 -0.0606309 1.189 42 66 25
0.058749 -0.0606819 1.19 44 68 27
0.0605971 -0.0606819 1.19 43 67 26
0.0624452 -0.0606819 1.19 45 69 28
0.0643474 -0.0607329 1.191 45 69 28
0.066197 -0.0607329 1.191 45 69 28
0.0681038 -0.0607839 1.192 45 69 28
0.0699551 -0.0607839 1.192 48 72 31
0.0718063 -0.0607839 1.192 46 70 29
0.0736575 -0.0607839 1.192 45 69 28
0.0755087 -0.0607839 1.192 44 68 27
0.0773599 -0.0607839 1.192 44 68 27
0.0792111 -0.0607839 1.192 45 69 28
0.0810624 -0.0607839 1.192 45 69 30
0.082844 -0.0607329 1.191 46 70 31
0.0846937 -0.0607329 1.191 45 69 30
0.0864707 -0.0606819 1.19 45 69 30
0.0883188 -0.0606819 1.19 44 68 29
0.0901669 -0.0606819 1.19 43 67 28
0.092015 -0.0606819 1.19 43 67 28
0.0938631 -0.0606819 1.19 45 69 30
0.0956308 -0.0606309 1.189 45 69 30
0.0974774 -0.0606309 1.189 45 69 30
0.0993239 -0.0606309 1.189 45 69 30
0.101256 -0.0606819 1.19 45 69 30
0.103104 -0.0606819 1.19 45 68 31
0.104952 -0.0606819 1.19 48 71 34
0.1068 -0.0606819 1.19 48 70 36
0.108648 -0.0606819 1.19 45 67 33
0.110496 -0.0606819 1.19 45 67 33
0.112344 -0.0606819 1.19 48 70 36
0.114288 -0.0607329 1.191 45 67 33
0.116235 -0.0607839 1.192 46 68 34
0.118087 -0.0607839 1.192 46 69 32
0.119938 -0.0607839 1.192 45 68 31
0.121789 -0.0607839 1.192 45 68 31
0.12364 -0.0607839 1.192 44 67 30
0.125492 -0.0607839 1.192 43 67 28
0.127343 -0.0607839 1.192 44 68 29
0.129194 -0.0607839 1.192 45 69 30
0.131045 -0.0607839 1.192 45 69 30
0.133008 -0.0608349 1.193 46 70 29
0.134861 -0.0608349 1.193 48 72 31
0.136828 -0.0608859 1.194 46 70 29
0.138682 -0.0608859 1.194 46 70 29
0.140537 -0.0608859 1.194 46 71 27
0.14251 -0.0609369 1.195 48 73 29
0.144366 -0.0609369 1.195 49 74 30
0.146222 -0.0609369 1.195 49 74 30
0.148078 -0.0609369 1.195 49 74 30
0.150059 -0.0609879 1.196 51 76 32
0.151917 -0.0609879 1.196 52 77 33
0.153774 -0.0609879 1.196 52 77 33
0.155632 -0.0609879 1.196 51 76 32
0.157621 -0.0610389 1.197 50 75 31
0.15948 -0.0610389 1.197 48 73 29
0.161339 -0.0610389 1.197 48 73 29
0.163061 -0.0609879 1.196 48 73 29
0.164919 -0.0609879 1.196 52 77 33
0.166776 -0.0609879 1.196 49 74 30
0.168493 -0.0609369 1.195 49 74 30
0.170348 -0.0609369 1.195 49 74 30
0.172204 -0.0609369 1.195 50 75 31
0.173915 -0.0608859 1.194 52 77 33
0.175622 -0.0608349 1.193 50 75 31
0.177474 -0.0608349 1.193 49 74 30
0.179177 -0.0607839 1.192 49 74 30
0.181028 -0.0607839 1.192 49 75 29
0.182879 -0.0607839 1.192 51 77 31
0.18473 -0.0607839 1.192 52 76 30
0.186582 -0.0607839 1.192 52 76 30
0.188433 -0.0607839 1.192 51 76 27
0.190284 -0.0607839 1.192 50 75 26
0.192135 -0.0607839 1.192 54 79 30
0.193987 -0.0607839 1.192 55 80 31
0.195838 -0.0607839 1.192 55 80 31
0.197689 -0.0607839 1.192 55 80 31
0.19954 -0.0607839 1.192 54 79 30
0.201391 -0.0607839 1.192 53 78 29
0.203413 -0.0608349 1.193 52 77 28
0.205438 -0.0608859 1.194 52 77 28
0.207466 -0.0609369 1.195 52 76 30
0.209322 -0.0609369 1.195 52 76 30
0.211354 -0.0609879 1.196 53 77 31
0.21339 -0.0610389 1.197 53 77 31
0.215429 -0.0610899 1.198 53 76 32
0.217289 -0.0610899 1.198 54 77 33
0.21915 -0.0610899 1.198 54 77 33
0.221195 -0.0611409 1.199 54 77 33
0.223057 -0.0611409 1.199 53 76 32
0.225107 -0.0611918 1.2 53 76 32
0.22697 -0.0611918 1.2 52 75 31
0.228834 -0.0611918 1.2 51 74 30
0.230505 -0.0611409 1.199 50 73 29
0.232174 -0.0610899 1.198 48 71 27
0.233839 -0.0610389 1.197 47 70 26
0.235698 -0.0610389 1.197 43 66 22
0.237358 -0.0609879 1.196 43 65 24
0.239016 -0.0609369 1.195 40 62 21
0.24067 -0.0608859 1.194 39 61 22
0.242118 -0.0607839 1.192 39 61 22
0.243969 -0.0607839 1.192 40 60 26
0.245408 -0.0606819 1.19 32 52 18
0.247049 -0.0606309 1.189 27 45 18
0.248686 -0.0605799 1.188 27 45 18
0.25032 -0.0605289 1.187 20 38 11
0.252163 -0.0605289 1.187 25 43 16
0.253793 -0.0604779 1.186 24 41 16
0.255635 -0.0604779 1.186 24 41 16
0.257477 -0.0604779 1.186 21 41 14
0.259318 -0.0604779 1.186 22 42 15
0.263224 -0.0605289 1.187 22 42 15
0.265067 -0.0605289 1.187 24 42 15
0.266911 -0.0605289 1.187 25 43 16
0.268981 -0.0605799 1.188 25 43 16
0.270826 -0.0605799 1.188 24 42 15
0.2729 -0.0606309 1.189 22 40 13
0.274747 -0.0606309 1.189 22 40 13
0.276826 -0.0606819 1.19 26 44 17
0.278674 -0.0606819 1.19 24 42 15
0.280522 -0.0606819 1.19 24 42 15
0.282608 -0.0607329 1.191 24 42 15
0.284696 -0.0607839 1.192 24 42 15
0.286788 -0.0608349 1.193 24 42 15
0.288641 -0.0608349 1.193 22 42 15
0.290737 -0.0608859 1.194 22 42 15
0.292836 -0.0609369 1.195 23 43 16
0.294692 -0.0609369 1.195 23 43 16
0.296796 -0.0609879 1.196 23 43 16
0.298903 -0.0610389 1.197 21 41 14
0.301265 -0.0611409 1.199 24 44 17
0.30338 -0.0611918 1.2 23 43 16
0.305243 -0.0611918 1.2 22 42 15
0.307363 -0.0612428 1.201 23 43 16
0.309486 -0.0612938 1.202 23 43 16
0.311352 -0.0612938 1.202 22 42 15
0.313219 -0.0612938 1.202 22 42 15
0.315086 -0.0612938 1.202 22 42 15
0.316689 -0.0612428 1.201 22 42 15
0.318289 -0.0611918 1.2 23 43 16
0.319886 -0.0611409 1.199 24 44 17
0.321479 -0.0610899 1.198 24 44 17
0.32307 -0.0610389 1.197 24 44 17
0.324658 -0.0609879 1.196 24 44 17
0.326242 -0.0609369 1.195 22 43 18
0.327823 -0.0608859 1.194 23 44 19
0.329125 -0.0607839 1.192 25 46 21
0.330699 -0.0607329 1.191 26 47 22
0.332269 -0.0606819 1.19 26 47 22
0.334117 -0.0606819 1.19 27 48 23
0.335966 -0.0606819 1.19 26 47 22
0.337814 -0.0606819 1.19 28 49 24
0.339662 -0.0606819 1.19 28 50 23
0.34151 -0.0606819 1.19 29 51 24
0.343358 -0.0606819 1.19 32 52 25
0.345206 -0.0606819 1.19 32 52 25
0.347054 -0.0606819 1.19 31 51 24
0.348609 -0.0606309 1.189 30 50 23
0.350161 -0.0605799 1.188 38 56 29
0.35171 -0.0605289 1.187 37 55 28
0.353553 -0.0605289 1.187 41 59 32
0.355097 -0.0604779 1.186 39 57 30
0.356638 -0.0604269 1.185 33 51 24
0.357873 -0.060325 1.183 40 58 31
0.359407 -0.060274 1.182 36 51 25
0.360937 -0.060223 1.181 26 41 15
0.362464 -0.060172 1.18 32 46 22
0.363679 -0.06007 1.178 32 46 22
0.364888 -0.059968 1.176 22 33 17
0.365155 -0.059713 1.171 20 31 15
0.36478 -0.0593561 1.164 29 35 34
0.364698 -0.0590501 1.158 92 98 97
0.363015 -0.0584892 1.147 125 134 133
0.363206 -0.0582342 1.142 130 139 138
0.363382 -0.0579793 1.137 142 148 148
0.364505 -0.0578773 1.135 149 155 155
0.366591 -0.0579283 1.136 130 136 136
0.369976 -0.0581832 1.141 81 87 87
-0.165039 -0.0582383 1.178 7 13 6
-0.163625 -0.0583867 1.181 14 20 13
-0.162202 -0.058535 1.184 8 14 7
-0.160634 -0.0586339 1.186 7 13 6
-0.15906 -0.0587327 1.188 6 12 5
-0.15748 -0.0588316 1.19 8 14 7
-0.155632 -0.0588316 1.19 8 14 7
-0.153784 -0.0588316 1.19 6 12 5
-0.152063 -0.058881 1.191 7 14 5
-0.15034 -0.0589305 1.192 9 16 7
-0.148488 -0.0589305 1.192 12 20 8
-0.146637 -0.0589305 1.192 14 22 10
-0.144786 -0.0589305 1.192 14 22 10
-0.142935 -0.0589305 1.192 14 22 10
-0.141084 -0.0589305 1.192 14 23 9
-0.139232 -0.0589305 1.192 13 22 8
-0.137381 -0.0589305 1.192 13 22 8
-0.135416 -0.058881 1.191 12 21 7
-0.133454 -0.0588316 1.19 12 21 7
-0.131606 -0.0588316 1.19 10 19 5
-0.129758 -0.0588316 1.19 10 19 5
-0.12791 -0.0588316 1.19 9 18 4
-0.126062 -0.0588316 1.19 9 17 5
-0.12411 -0.0587822 1.189 9 17 5
-0.122263 -0.0587822 1.189 9 17 5
-0.120315 -0.0587327 1.188 9 17 5
-0.11847 -0.0587327 1.188 9 17 5
-0.116625 -0.0587327 1.188 9 17 5
-0.11478 -0.0587327 1.188 8 16 4
-0.112935 -0.0587327 1.188 6 14 2
-0.11109 -0.0587327 1.188 7 15 3
-0.109245 -0.0587327 1.188 7 15 3
-0.1074 -0.0587327 1.188 7 14 5
-0.105555 -0.0587327 1.188 8 15 6
-0.103623 -0.0586833 1.187 6 15 6
-0.101608 -0.0585844 1.185 6 15 6
-0.0995991 -0.0584855 1.183 5 14 5
-0.0975966 -0.0583867 1.181 5 14 5
-0.0956814 -0.0583372 1.18 5 14 5
-0.0936898 -0.0582383 1.178 6 15 6
-0.0916263 -0.05809 1.175 5 14 5
-0.0896487 -0.0579912 1.173 5 14 5
-0.0877521 -0.0579417 1.172 5 14 5
-0.0858586 -0.0578923 1.171 5 14 5
-0.0838965 -0.0577934 1.169 5 14 5
-0.0820108 -0.057744 1.168 5 14 5
-0.0801282 -0.0576945 1.167 5 14 5
-0.0782487 -0.0576451 1.166 6 15 6
-0.0764378 -0.0576451 1.166 7 16 7
-0.074627 -0.0576451 1.166 7 16 7
-0.0728161 -0.0576451 1.166 7 15 8
-0.0710662 -0.0576945 1.167 7 15 8
-0.0693132 -0.057744 1.168 7 14 10
-0.0674992 -0.057744 1.168 4 11 7
-0.0656853 -0.057744 1.168 1 7 7
-0.0638713 -0.057744 1.168 1 7 7
-0.0620043 -0.0576945 1.167 15 20 23
-0.0601403 -0.0576451 1.166 54 59 62
-0.0582294 -0.0575462 1.164 67 72 75
-0.0563247 -0.0574473 1.162 66 71 74
-0.0544263 -0.0573485 1.16 63 68 71
-0.0523979 -0.0571013 1.155 71 76 79
-0.0504727 -0.056953 1.152 83 88 91
-0.0485991 -0.0568541 1.15 82 87 90
-0.0467724 -0.0568046 1.149 68 73 76
-0.0449488 -0.0567552 1.148 61 66 69
-0.0431283 -0.0567058 1.147 68 74 74
-0.0413109 -0.0566563 1.146 95 101 101
-0.0394967 -0.0566069 1.145 93 99 98
-0.0377184 -0.0566069 1.145 91 97 96
-0.0359402 -0.0566069 1.145 77 81 80
-0.034162 -0.0566069 1.145 68 72 71
-0.0323838 -0.0566069 1.145 64 64 64
-0.0305788 -0.0565574 1.144 58 58 58
-0.0288273 -0.0566069 1.145 47 43 43
-0.0270491 -0.0566069 1.145 33 29 29
-0.025315 -0.0567058 1.147 31 29 30
-0.0235542 -0.0567552 1.148 33 31 32
-0.0217903 -0.0568046 1.149 18 17 14
-0.0200233 -0.0568541 1.15 17 16 13
-0.0182531 -0.0569035 1.151 11 17 16
-0.0164656 -0.0569035 1.151 8 14 13
-0.0146908 -0.056953 1.152 4 16 18
-0.0129129 -0.0570024 1.153 8 20 22
-0.0111223 -0.0570024 1.153 6 25 27
-0.00933161 -0.0570024 1.153 9 28 30
-0.00754096 -0.0570024 1.153 9 31 36
-0.00575032 -0.0570024 1.153 10 32 37
-0.00395623 -0.056953 1.152 9 36 40
-0.00216526 -0.0569035 1.151 14 41 45
-0.000378042 -0.056953 1.152 26 54 55
0.00141105 -0.056953 1.152 37 65 66
0.00319737 -0.0569035 1.151 46 77 77
0.00498491 -0.0569035 1.151 49 80 80
0.00677834 -0.056953 1.152 36 73 75
0.00856743 -0.056953 1.152 36 73 75
0.0103565 -0.056953 1.152 44 80 84
0.0121456 -0.056953 1.152 49 85 89
0.0139347 -0.056953 1.152 48 79 86
0.0157375 -0.0570024 1.153 44 75 82
0.0175433 -0.0570518 1.154 50 76 82
0.019369 -0.0571507 1.156 49 75 81
0.0212009 -0.0572496 1.158 47 74 64
0.0230391 -0.0573485 1.16 44 71 61
0.0248834 -0.0574473 1.162 38 63 48
0.026734 -0.0575462 1.164 30 55 40
0.0304016 -0.0576451 1.166 24 48 22
0.0322953 -0.0577934 1.169 29 52 20
0.0341984 -0.0579417 1.172 33 56 24
0.03608 -0.0580406 1.174 36 61 24
0.0379678 -0.0581395 1.176 37 62 25
0.0398619 -0.0582383 1.178 37 63 24
0.0417621 -0.0583372 1.18 37 63 24
0.0436316 -0.0583867 1.181 42 68 29
0.0455043 -0.0584361 1.182 44 70 31
0.0474201 -0.058535 1.184 43 69 30
0.0493005 -0.0585844 1.185 42 68 29
0.0511408 -0.0585844 1.185 41 67 26
0.0530259 -0.0586339 1.186 41 67 26
0.054914 -0.0586833 1.187 40 66 25
0.0567575 -0.0586833 1.187 40 66 25
0.0586503 -0.0587327 1.188 42 68 27
0.0605462 -0.0587822 1.189 42 68 27
0.0624452 -0.0588316 1.19 43 69 28
0.0642934 -0.0588316 1.19 42 68 27
0.066197 -0.058881 1.191 43 69 28
0.0680467 -0.058881 1.191 42 68 27
0.0699551 -0.0589305 1.192 44 70 29
0.0718063 -0.0589305 1.192 46 72 31
0.0736575 -0.0589305 1.192 44 70 29
0.0755087 -0.0589305 1.192 42 68 27
0.0773599 -0.0589305 1.192 44 68 27
0.0792111 -0.0589305 1.192 45 69 28
0.0810624 -0.0589305 1.192 45 69 30
0.0829136 -0.0589305 1.192 46 70 31
0.0846937 -0.058881 1.191 45 69 30
0.0864707 -0.0588316 1.19 49 73 34
0.0883188 -0.0588316 1.19 46 70 31
0.0901669 -0.0588316 1.19 49 73 34
0.092015 -0.0588316 1.19 48 72 33
