ply
format ascii 1.0
comment Created by Open3D
element vertex 1385
property double x
property double y
property double z
property uchar red
property uchar green
property uchar blue
end_header
0.11096 0.097 1.195 40 58 29
0.112816 0.097 1.195 38 56 27
0.114672 0.097 1.195 39 57 28
0.116528 0.097 1.195 40 58 29
0.118384 0.097 1.195 40 58 29
0.12024 0.097 1.195 38 56 27
0.121993 0.0969189 1.194 38 56 27
0.123848 0.0969189 1.194 43 61 32
0.125702 0.0969189 1.194 41 59 30
0.127556 0.0969189 1.194 33 51 22
0.129302 0.0968377 1.193 32 50 21
0.131155 0.0968377 1.193 32 50 21
0.132896 0.0967565 1.192 34 52 23
0.134748 0.0967565 1.192 39 57 28
0.136599 0.0967565 1.192 43 61 32
0.13845 0.0967565 1.192 44 62 33
0.140184 0.0966753 1.191 41 60 28
0.141914 0.0965942 1.19 43 62 30
0.143762 0.0965942 1.19 43 62 30
0.145488 0.096513 1.189 48 67 35
0.147211 0.0964318 1.188 44 63 31
0.149056 0.0964318 1.188 43 62 30
0.150773 0.0963507 1.187 43 62 30
0.152617 0.0963507 1.187 43 62 30
0.15433 0.0962695 1.186 41 60 28
0.156172 0.0962695 1.186 41 60 28
0.158014 0.0962695 1.186 43 62 30
0.159856 0.0962695 1.186 43 62 30
0.161698 0.0962695 1.186 41 60 28
0.16354 0.0962695 1.186 41 60 28
0.165382 0.0962695 1.186 41 60 28
0.167365 0.0963507 1.187 43 62 30
0.169208 0.0963507 1.187 41 60 28
0.171196 0.0964318 1.188 41 60 28
0.173186 0.096513 1.189 43 62 30
0.17518 0.0965942 1.19 43 62 30
0.177177 0.0966753 1.191 41 60 28
0.179177 0.0967565 1.192 41 60 28
0.181332 0.0969189 1.194 43 62 30
0.18334 0.097 1.195 40 59 27
0.18535 0.0970812 1.196 41 60 28
0.187364 0.0971624 1.197 41 60 28
0.189223 0.0971624 1.197 43 62 30
0.191242 0.0972435 1.198 44 63 31
0.193102 0.0972435 1.198 46 63 30
0.194963 0.0972435 1.198 46 63 30
0.196824 0.0972435 1.198 46 63 30
0.198684 0.0972435 1.198 46 63 30
0.200377 0.0971624 1.197 47 64 31
0.202236 0.0971624 1.197 50 67 34
0.203925 0.0970812 1.196 48 68 34
0.205782 0.0970812 1.196 50 70 36
0.207466 0.097 1.195 50 70 36
0.209147 0.0969189 1.194 51 71 37
0.210824 0.0968377 1.193 55 75 41
0.212499 0.0967565 1.192 54 74 40
0.21435 0.0967565 1.192 53 73 39
0.21602 0.0966753 1.191 54 74 40
0.217687 0.0965942 1.19 58 78 44
0.219535 0.0965942 1.19 59 79 45
0.221383 0.0965942 1.19 59 80 43
0.223043 0.096513 1.189 57 78 41
0.224701 0.0964318 1.188 54 75 38
0.226355 0.0963507 1.187 54 75 38
0.228198 0.0963507 1.187 53 74 37
0.230042 0.0963507 1.187 50 71 34
0.231885 0.0963507 1.187 51 72 35
0.233729 0.0963507 1.187 51 72 35
0.235572 0.0963507 1.187 50 71 34
0.237416 0.0963507 1.187 48 69 32
0.239259 0.0963507 1.187 48 69 32
0.241103 0.0963507 1.187 46 67 30
0.242946 0.0963507 1.187 46 67 30
0.244996 0.0964318 1.188 45 66 29
0.247049 0.096513 1.189 44 64 30
0.249104 0.0965942 1.19 45 65 31
0.251163 0.0966753 1.191 43 63 29
0.253226 0.0967565 1.192 43 63 29
0.255077 0.0967565 1.192 45 64 32
0.257143 0.0968377 1.193 46 65 33
0.258996 0.0968377 1.193 45 64 32
0.261068 0.0969189 1.194 46 65 33
0.262702 0.0968377 1.193 44 63 31
0.264333 0.0967565 1.192 45 64 32
0.266184 0.0967565 1.192 45 64 32
0.268035 0.0967565 1.192 44 63 31
0.269886 0.0967565 1.192 44 63 31
0.271738 0.0967565 1.192 44 63 31
0.273589 0.0967565 1.192 45 64 32
0.274978 0.0965942 1.19 43 62 30
0.277059 0.0966753 1.191 44 63 31
0.278674 0.0965942 1.19 45 64 32
0.280522 0.0965942 1.19 46 65 33
0.282133 0.096513 1.189 45 64 32
0.28398 0.096513 1.189 46 65 33
0.285345 0.0963507 1.187 47 66 34
0.287189 0.0963507 1.187 46 66 32
0.289032 0.0963507 1.187 44 64 30
0.291121 0.0964318 1.188 45 65 31
0.292966 0.0964318 1.188 43 63 29
0.295059 0.096513 1.189 44 64 30
0.296906 0.096513 1.189 44 64 30
0.299003 0.0965942 1.19 45 65 31
0.300599 0.096513 1.189 44 64 30
0.302445 0.096513 1.189 47 67 33
0.304292 0.096513 1.189 50 70 36
0.305881 0.0964318 1.188 50 70 36
0.307985 0.096513 1.189 50 70 36
0.309571 0.0964318 1.188 48 68 34
0.311416 0.0964318 1.188 47 67 33
0.313261 0.0964318 1.188 48 68 34
0.315106 0.0964318 1.188 50 70 36
0.317218 0.096513 1.189 50 70 36
0.319064 0.096513 1.189 50 70 36
0.320911 0.096513 1.189 55 73 37
0.322486 0.0964318 1.188 49 67 31
0.324331 0.0964318 1.188 61 77 41
0.32645 0.096513 1.189 65 81 45
0.328573 0.0965942 1.19 64 83 45
0.330421 0.0965942 1.19 62 81 43
0.332549 0.0966753 1.191 72 91 51
0.334679 0.0967565 1.192 75 94 54
0.33653 0.0967565 1.192 76 95 55
0.338381 0.0967565 1.192 75 94 54
0.340518 0.0968377 1.193 71 90 50
0.342371 0.0968377 1.193 64 83 43
0.344224 0.0968377 1.193 69 88 48
0.346076 0.0968377 1.193 68 87 47
0.347929 0.0968377 1.193 70 89 51
0.349782 0.0968377 1.193 72 91 53
0.351635 0.0968377 1.193 72 90 54
0.353488 0.0968377 1.193 72 90 54
0.355042 0.0967565 1.192 74 91 58
0.356894 0.0967565 1.192 72 89 56
0.358444 0.0966753 1.191 69 87 60
0.359386 0.0964318 1.188 58 76 49
0.360623 0.0962695 1.186 73 88 80
0.361242 0.0959448 1.182 124 139 131
0.362464 0.0957825 1.18 42 55 54
0.363679 0.0956201 1.178 44 57 56
0.363336 0.0950519 1.171 38 53 59
0.36266 0.0944025 1.163 47 62 68
0.361333 0.0935908 1.153 126 140 143
0.361234 0.0931038 1.147 209 223 226
0.361432 0.0926979 1.142 189 203 206
0.362252 0.0924544 1.139 201 215 218
0.363382 0.0922921 1.137 232 245 251
0.364826 0.0922109 1.136 217 230 236
0.366913 0.0922921 1.137 108 115 124
0.371273 0.0929415 1.145 105 112 121
-0.158174 0.0933982 1.129 159 149 172
-0.156144 0.0932327 1.127 166 156 179
-0.15412 0.0930673 1.125 171 162 190
-0.152237 0.0929845 1.124 171 162 190
-0.150224 0.0928191 1.122 172 160 195
-0.148216 0.0926536 1.12 172 160 195
-0.146346 0.0925709 1.119 169 154 199
-0.144479 0.0924882 1.118 136 121 166
-0.142615 0.0924055 1.117 94 69 143
-0.140754 0.0923227 1.116 82 57 131
-0.138897 0.09224 1.115 75 48 129
-0.136919 0.0920745 1.113 82 55 136
-0.135069 0.0919918 1.112 90 73 123
-0.133222 0.0919091 1.111 147 130 180
-0.131497 0.0919091 1.111 182 169 207
-0.129654 0.0918264 1.11 206 193 231
-0.12793 0.0918264 1.11 233 224 252
-0.126207 0.0918264 1.11 245 236 255
-0.124483 0.0918264 1.11 250 243 255
-0.122759 0.0918264 1.11 204 197 218
-0.121035 0.0918264 1.11 209 205 216
-0.119311 0.0918264 1.11 253 249 255
-0.117587 0.0918264 1.11 254 251 255
-0.115863 0.0918264 1.11 254 251 255
-0.11414 0.0918264 1.11 251 255 254
-0.112416 0.0918264 1.11 251 255 254
-0.110592 0.0917436 1.109 251 255 254
-0.10887 0.0917436 1.109 251 255 254
-0.107244 0.0918264 1.11 251 255 254
-0.105425 0.0917436 1.109 251 255 254
-0.103703 0.0917436 1.109 251 255 254
-0.101981 0.0917436 1.109 251 255 254
-0.100349 0.0918264 1.11 251 255 254
-0.0987136 0.0919091 1.111 251 255 254
-0.0970755 0.0919918 1.112 251 255 254
-0.0954342 0.0920745 1.113 251 255 254
-0.0937057 0.0920745 1.113 251 255 254
-0.0920598 0.0921573 1.114 251 255 254
-0.0904108 0.09224 1.115 254 254 254
-0.0886792 0.09224 1.115 254 254 254
-0.0870255 0.0923227 1.116 254 254 254
-0.0837089 0.0924882 1.118 251 255 254
-0.0821193 0.0926536 1.12 251 255 254
-0.0805952 0.0929018 1.123 251 255 254
-0.079132 0.0932327 1.127 251 255 254
-0.077725 0.0936463 1.132 251 255 254
-0.0763025 0.09406 1.137 251 255 254
-0.0748645 0.0944736 1.142 251 255 254
-0.0734109 0.0948872 1.147 251 255 254
-0.071817 0.0951354 1.15 251 255 252
-0.0684823 0.0954663 1.154 251 255 252
-0.0669213 0.0957972 1.158 251 255 252
-0.0652354 0.0959627 1.16 253 255 249
-0.0635979 0.0962109 1.163 226 228 222
-0.061898 0.0963763 1.165 95 100 87
-0.0602434 0.0966245 1.168 66 71 58
-0.0585796 0.0968727 1.171 61 67 44
-0.0569064 0.0971209 1.174 67 73 50
-0.055177 0.0972863 1.176 61 74 48
-0.0534867 0.0975345 1.179 57 70 44
-0.0517871 0.0977827 1.182 53 68 42
-0.0499514 0.0977827 1.182 53 68 42
-0.0481157 0.0977827 1.182 48 66 39
-0.04628 0.0977827 1.182 50 68 41
-0.0444444 0.0977827 1.182 48 66 39
-0.0426087 0.0977827 1.182 48 66 39
-0.040773 0.0977827 1.182 47 65 36
-0.0389373 0.0977827 1.182 46 64 35
-0.0371016 0.0977827 1.182 47 65 36
-0.0352659 0.0977827 1.182 47 65 36
-0.0334585 0.0978654 1.183 46 65 33
-0.0316213 0.0978654 1.183 48 67 35
-0.0298092 0.0979481 1.184 45 64 32
-0.0279704 0.0979481 1.184 46 65 33
-0.0261316 0.0979481 1.184 48 67 35
-0.0243134 0.0980309 1.185 45 64 32
-0.022473 0.0980309 1.185 46 65 33
-0.0206327 0.0980309 1.185 45 64 32
-0.0187923 0.0980309 1.185 41 60 28
-0.016952 0.0980309 1.185 43 62 30
-0.0150989 0.0979481 1.184 44 63 31
-0.0132601 0.0979481 1.184 43 62 30
-0.0114117 0.0978654 1.183 40 59 27
-0.00956632 0.0977827 1.182 40 59 27
-0.00773063 0.0977827 1.182 39 55 24
-0.00589495 0.0977827 1.182 39 55 24
-0.00405926 0.0977827 1.182 39 55 24
-0.00222357 0.0977827 1.182 40 56 25
-0.000387887 0.0977827 1.182 41 57 26
0.00144902 0.0978654 1.183 41 57 26
0.00328626 0.0978654 1.183 40 56 25
0.00512783 0.0979481 1.184 41 57 26
0.00697251 0.0980309 1.185 41 57 26
0.00882029 0.0981136 1.186 41 57 26
0.0106712 0.0981963 1.187 39 58 26
0.0125252 0.098279 1.188 39 58 26
0.0143823 0.0983618 1.189 39 57 28
0.0162425 0.0984445 1.19 38 56 27
0.0180906 0.0984445 1.19 38 56 27
0.0199387 0.0984445 1.19 37 55 26
0.0218051 0.0985272 1.191 37 55 26
0.0236548 0.0985272 1.191 38 56 27
0.0255044 0.0985272 1.191 38 56 27
0.0273541 0.0985272 1.191 38 56 27
0.0292038 0.0985272 1.191 38 56 27
0.0310534 0.0985272 1.191 38 56 27
0.0328755 0.0984445 1.19 38 56 27
0.0347236 0.0984445 1.19 38 56 27
0.0365717 0.0984445 1.19 38 56 27
0.0384521 0.0985272 1.191 38 56 27
0.0402679 0.0984445 1.19 37 55 26
0.0421514 0.0985272 1.191 37 55 26
0.0440011 0.0985272 1.191 38 56 27
0.0458507 0.0985272 1.191 38 56 27
0.0477004 0.0985272 1.191 39 57 28
0.0495917 0.0986099 1.192 38 56 27
0.0513997 0.0985272 1.191 39 57 28
0.0532494 0.0985272 1.191 39 57 28
0.0550991 0.0985272 1.191 39 57 28
0.0569009 0.0984445 1.19 38 56 27
0.058749 0.0984445 1.19 40 58 31
0.0605462 0.0983618 1.189 39 57 30
0.0623928 0.0983618 1.189 40 58 31
0.0641853 0.098279 1.188 39 57 30
0.0660303 0.098279 1.188 40 58 31
0.0678182 0.0981963 1.187 40 58 31
0.0696616 0.0981963 1.187 40 58 31
0.0714448 0.0981136 1.186 40 58 31
0.0732867 0.0981136 1.186 40 58 31
0.0751286 0.0981136 1.186 39 57 30
0.0770354 0.0981963 1.187 39 57 30
0.0788789 0.0981963 1.187 40 58 31
0.0807223 0.0981963 1.187 40 58 31
0.0826353 0.098279 1.188 40 58 31
0.0845515 0.0983618 1.189 40 58 31
0.0864707 0.0984445 1.19 40 58 31
0.088393 0.0985272 1.191 39 57 28
0.0903184 0.0986099 1.192 40 58 29
0.0921697 0.0986099 1.192 40 58 29
0.0941786 0.0987754 1.194 40 58 29
0.0961134 0.0988581 1.195 40 58 29
0.0979693 0.0988581 1.195 39 57 28
0.0999087 0.0989408 1.196 39 57 28
0.101766 0.0989408 1.196 38 56 27
0.103624 0.0989408 1.196 38 56 27
0.105481 0.0989408 1.196 40 58 29
0.107338 0.0989408 1.196 41 59 30
0.109287 0.0990236 1.197 41 59 30
0.111053 0.0989408 1.196 40 58 29
0.112911 0.0989408 1.196 40 58 29
0.114768 0.0989408 1.196 40 58 29
0.116626 0.0989408 1.196 41 59 30
0.118483 0.0989408 1.196 40 58 29
0.12024 0.0988581 1.195 39 57 28
0.122096 0.0988581 1.195 39 57 28
0.123952 0.0988581 1.195 41 59 30
0.125807 0.0988581 1.195 43 61 32
0.127663 0.0988581 1.195 40 58 29
0.129519 0.0988581 1.195 40 58 29
0.131265 0.0987754 1.194 39 57 28
0.133119 0.0987754 1.194 39 57 28
0.134861 0.0986927 1.193 40 58 29
0.136599 0.0986099 1.192 44 62 33
0.13845 0.0986099 1.192 43 61 32
0.140184 0.0985272 1.191 41 59 30
0.141914 0.0984445 1.19 43 61 32
0.143641 0.0983618 1.189 44 62 33
0.145365 0.098279 1.188 45 63 34
0.147087 0.0981963 1.187 45 63 34
0.14893 0.0981963 1.187 44 62 33
0.150646 0.0981136 1.186 44 62 33
0.15236 0.0980309 1.185 43 61 32
0.1542 0.0980309 1.185 43 61 32
0.15604 0.0980309 1.185 41 59 30
0.157881 0.0980309 1.185 43 61 32
0.159721 0.0980309 1.185 43 61 32
0.161562 0.0980309 1.185 41 60 28
0.163402 0.0980309 1.185 41 60 28
0.165242 0.0980309 1.185 41 60 28
0.167083 0.0980309 1.185 41 60 28
0.169065 0.0981136 1.186 41 60 28
0.171051 0.0981963 1.187 41 60 28
0.172895 0.0981963 1.187 43 62 30
0.17518 0.0984445 1.19 41 60 28
0.177028 0.0984445 1.19 40 59 27
0.179177 0.0986099 1.192 41 60 28
0.18118 0.0986927 1.193 40 59 27
0.18334 0.0988581 1.195 40 59 27
0.185195 0.0988581 1.195 40 59 27
0.187364 0.0990236 1.197 41 60 28
0.189223 0.0990236 1.197 43 62 30
0.191242 0.0991063 1.198 44 63 31
0.193102 0.0991063 1.198 45 62 29
0.195126 0.099189 1.199 45 62 29
0.196824 0.0991063 1.198 46 63 30
0.198684 0.0991063 1.198 45 62 29
0.200545 0.0991063 1.198 46 63 30
0.202236 0.0990236 1.197 48 65 32
0.204095 0.0990236 1.197 46 66 32
0.205782 0.0989408 1.196 47 67 33
0.207466 0.0988581 1.195 48 68 34
0.209322 0.0988581 1.195 50 70 36
0.211001 0.0987754 1.194 52 72 38
0.212677 0.0986927 1.193 52 72 38
0.21435 0.0986099 1.192 51 71 37
0.216201 0.0986099 1.192 48 68 34
0.217869 0.0985272 1.191 48 68 34
0.219535 0.0984445 1.19 51 71 37
0.221383 0.0984445 1.19 53 74 37
0.223231 0.0984445 1.19 53 74 37
0.22489 0.0983618 1.189 52 73 36
0.226546 0.098279 1.188 52 73 36
0.228198 0.0981963 1.187 52 73 36
0.230042 0.0981963 1.187 50 71 34
0.231885 0.0981963 1.187 50 71 34
0.233729 0.0981963 1.187 50 71 34
0.235374 0.0981136 1.186 48 69 32
0.237216 0.0981136 1.186 48 69 32
0.239058 0.0981136 1.186 47 68 31
0.240899 0.0981136 1.186 45 66 29
0.242946 0.0981963 1.187 46 67 30
0.24479 0.0981963 1.187 46 67 30
0.246841 0.098279 1.188 48 68 34
0.248895 0.0983618 1.189 54 74 40
0.250953 0.0984445 1.19 52 72 38
0.253013 0.0985272 1.191 43 63 29
0.255077 0.0986099 1.192 45 64 32
0.256928 0.0986099 1.192 46 65 33
0.258996 0.0986927 1.193 46 65 33
0.260849 0.0986927 1.193 44 63 31
0.262482 0.0986099 1.192 41 60 28
0.264333 0.0986099 1.192 44 63 31
0.266184 0.0986099 1.192 44 63 31
0.268035 0.0986099 1.192 44 63 31
0.269886 0.0986099 1.192 43 62 30
0.271738 0.0986099 1.192 44 63 31
0.273589 0.0986099 1.192 45 64 32
0.275209 0.0985272 1.191 43 62 30
0.277059 0.0985272 1.191 41 60 28
0.278908 0.0985272 1.191 44 63 31
0.280758 0.0985272 1.191 46 65 33
0.28237 0.0984445 1.19 44 63 31
0.284219 0.0984445 1.19 44 63 31
0.286067 0.0984445 1.19 46 65 33
0.287431 0.098279 1.188 47 67 33
0.289519 0.0983618 1.189 46 66 32
0.291611 0.0984445 1.19 46 66 32
0.293459 0.0984445 1.19 45 65 31
0.295307 0.0984445 1.19 44 64 30
0.297155 0.0984445 1.19 45 65 31
0.298752 0.0983618 1.189 46 66 32
0.300599 0.0983618 1.189 46 66 32
0.302445 0.0983618 1.189 48 68 34
0.304292 0.0983618 1.189 48 68 34
0.305881 0.098279 1.188 48 68 34
0.307726 0.098279 1.188 50 70 36
0.309571 0.098279 1.188 47 67 33
0.311416 0.098279 1.188 48 68 34
0.313261 0.098279 1.188 50 70 36
0.315106 0.098279 1.188 50 70 36
0.316951 0.098279 1.188 52 69 36
0.318528 0.0981963 1.187 53 70 37
0.320371 0.0981963 1.187 57 75 39
0.322214 0.0981963 1.187 57 75 39
0.326176 0.098279 1.188 66 83 45
0.328021 0.098279 1.188 71 90 50
0.330144 0.0983618 1.189 76 95 55
0.332269 0.0984445 1.19 81 100 60
0.334117 0.0984445 1.19 76 95 55
0.33653 0.0986099 1.192 77 97 54
0.338381 0.0986099 1.192 76 96 53
0.340233 0.0986099 1.192 81 101 58
0.342371 0.0986927 1.193 76 96 53
0.344224 0.0986927 1.193 71 91 48
0.346076 0.0986927 1.193 71 91 48
0.347929 0.0986927 1.193 71 90 50
0.349782 0.0986927 1.193 72 91 51
0.351635 0.0986927 1.193 72 91 53
0.353191 0.0986099 1.192 74 93 55
0.355042 0.0986099 1.192 76 94 58
0.356894 0.0986099 1.192 76 94 58
0.358444 0.0985272 1.191 65 83 56
0.359386 0.098279 1.188 57 75 48
0.360319 0.0980309 1.185 80 94 84
0.361242 0.0977827 1.182 129 143 133
0.362464 0.0976172 1.18 42 55 53
0.36337 0.097369 1.177 46 59 57
0.363336 0.0968727 1.171 41 53 61
0.362972 0.0962936 1.164 49 61 69
0.362586 0.0957145 1.157 129 143 146
0.361234 0.0948872 1.147 210 224 227
0.361749 0.0945563 1.143 182 195 201
0.362252 0.0942254 1.139 200 213 219
0.363382 0.09406 1.137 236 249 255
0.364826 0.0939773 1.136 217 230 236
0.366913 0.09406 1.137 107 114 123
0.371273 0.0947218 1.145 105 112 121
-0.158314 0.0952379 1.13 140 130 153
-0.156421 0.0951536 1.129 162 152 175
-0.154394 0.0949851 1.127 164 154 184
-0.152372 0.0948165 1.125 166 156 186
-0.150357 0.0946479 1.123 166 155 188
-0.148349 0.0944794 1.121 164 153 186
-0.146477 0.0943951 1.12 165 152 190
-0.144479 0.0942265 1.118 171 158 196
-0.142743 0.0942265 1.118 180 165 210
-0.140754 0.094058 1.116 181 166 211
-0.138897 0.0939737 1.115 181 165 212
-0.137042 0.0938894 1.114 182 166 213
-0.135069 0.0937208 1.112 182 167 207
-0.133222 0.0936366 1.111 173 158 198
-0.131497 0.0936366 1.111 171 158 191
-0.129654 0.0935523 1.11 187 174 207
-0.12793 0.0935523 1.11 228 218 243
-0.126093 0.093468 1.109 255 245 255
-0.124371 0.093468 1.109 255 248 255
-0.122759 0.0935523 1.11 228 221 237
-0.121035 0.0935523 1.11 199 200 208
-0.119311 0.0935523 1.11 240 241 249
-0.117587 0.0935523 1.11 254 252 255
-0.115863 0.0935523 1.11 254 252 255
-0.11414 0.0935523 1.11 254 254 254
-0.112416 0.0935523 1.11 254 254 254
-0.110592 0.093468 1.109 251 255 254
-0.10887 0.093468 1.109 251 255 254
-0.107147 0.093468 1.109 251 255 254
-0.10533 0.0933837 1.108 251 255 254
-0.103609 0.0933837 1.108 251 255 254
-0.101889 0.0933837 1.108 251 255 254
-0.100168 0.0933837 1.108 251 255 254
-0.0985359 0.093468 1.109 251 255 254
-0.0969009 0.0935523 1.11 251 255 254
-0.0952627 0.0936366 1.111 251 255 254
-0.0935373 0.0936366 1.111 251 255 254
-0.0918945 0.0937208 1.112 251 255 254
-0.0902486 0.0938051 1.113 254 254 254
-0.0885996 0.0938894 1.114 254 254 254
-0.0870255 0.094058 1.116 254 254 254
-0.0837089 0.0942265 1.118 254 254 254
-0.0821193 0.0943951 1.12 254 254 254
-0.0805952 0.0946479 1.123 254 254 254
-0.079132 0.0949851 1.127 254 254 254
-0.077725 0.0954065 1.132 251 255 254
-0.0763696 0.0959122 1.138 251 255 254
-0.0748645 0.0962493 1.142 251 255 254
-0.0734109 0.0966707 1.147 251 255 254
-0.0718794 0.0970078 1.151 251 255 254
-0.0684823 0.0972607 1.154 251 255 252
-0.0668635 0.0975135 1.157 251 255 252
-0.0652354 0.0977664 1.16 251 255 252
-0.0635432 0.0979349 1.162 248 253 249
-0.0618449 0.0981035 1.164 191 192 184
-0.0601919 0.0983563 1.167 70 71 63
-0.0584795 0.0985249 1.169 53 56 41
-0.0568094 0.0987777 1.172 62 65 50
-0.05513 0.0990306 1.175 62 71 46
-0.0534413 0.0992834 1.178 61 70 45
-0.0516995 0.099452 1.18 56 71 45
-0.0499514 0.0996205 1.182 54 69 43
-0.0481157 0.0996205 1.182 53 68 42
-0.04628 0.0996205 1.182 52 67 41
-0.0444444 0.0996205 1.182 48 66 39
-0.0426087 0.0996205 1.182 48 66 39
-0.040773 0.0996205 1.182 47 65 36
-0.0389373 0.0996205 1.182 45 63 34
-0.0371016 0.0996205 1.182 47 65 36
-0.0352659 0.0996205 1.182 48 66 37
-0.0334302 0.0996205 1.182 47 66 34
-0.0316213 0.0997048 1.183 48 67 35
-0.029784 0.0997048 1.183 47 66 34
-0.0279704 0.0997891 1.184 48 67 35
-0.0261316 0.0997891 1.184 47 66 34
-0.0243134 0.0998734 1.185 45 64 32
-0.0224541 0.0997891 1.184 45 64 32
-0.0206153 0.0997891 1.184 44 63 31
-0.0187765 0.0997891 1.184 44 63 31
-0.0169377 0.0997891 1.184 44 63 31
-0.0150861 0.0997048 1.183 44 63 31
-0.0132377 0.0996205 1.182 43 62 30
-0.011402 0.0996205 1.182 41 60 28
-0.00956632 0.0996205 1.182 40 59 27
-0.00773063 0.0996205 1.182 38 57 25
-0.00588996 0.0995363 1.181 37 56 24
-0.00405926 0.0996205 1.182 37 56 24
-0.00222169 0.0995363 1.181 38 57 25
-0.000387887 0.0996205 1.182 39 58 26
0.0014478 0.0996205 1.182 40 59 27
0.00328904 0.0997891 1.184 39 58 26
0.00513216 0.0998734 1.185 38 57 25
0.00697251 0.0998734 1.185 39 58 26
0.00882029 0.0999577 1.186 39 58 26
0.0106712 0.100042 1.187 39 57 28
0.0125357 0.100211 1.189 38 56 27
0.0143944 0.100295 1.19 38 56 27
0.0162425 0.100295 1.19 37 55 26
0.0180906 0.100295 1.19 38 56 27
0.0199555 0.100379 1.191 38 56 27
0.0217868 0.100295 1.19 39 57 28
0.0236548 0.100379 1.191 39 57 28
0.0255044 0.100379 1.191 39 57 28
0.0273541 0.100379 1.191 38 56 27
0.0292038 0.100379 1.191 38 56 27
0.0310534 0.100379 1.191 38 56 27
0.0328755 0.100295 1.19 38 56 27
0.0347236 0.100295 1.19 39 57 28
0.0366024 0.100379 1.191 38 56 27
0.0384521 0.100379 1.191 38 56 27
0.0403018 0.100379 1.191 37 55 26
0.0421514 0.100379 1.191 37 55 26
0.0440011 0.100379 1.191 37 55 26
0.0458892 0.100463 1.192 36 54 25
0.0477004 0.100379 1.191 37 55 26
0.0495501 0.100379 1.191 38 56 27
0.0513997 0.100379 1.191 38 56 27
0.0532494 0.100379 1.191 39 57 28
0.0550991 0.100379 1.191 38 56 27
0.0569009 0.100295 1.19 38 56 27
0.058749 0.100295 1.19 39 57 28
0.0605971 0.100295 1.19 39 57 28
0.0623928 0.100211 1.189 39 57 28
0.0641853 0.100126 1.188 39 57 28
0.0659747 0.100042 1.187 40 58 29
0.0678182 0.100042 1.187 40 58 29
0.0696616 0.100042 1.187 39 57 28
0.0715051 0.100042 1.187 37 55 26
0.0733485 0.100042 1.187 38 56 27
0.075192 0.100042 1.187 38 56 27
0.0770354 0.100042 1.187 39 57 28
0.0788789 0.100042 1.187 39 57 28
0.0807903 0.100126 1.188 39 57 28
0.0827049 0.100211 1.189 39 57 28
0.0846226 0.100295 1.19 41 59 30
0.0865433 0.100379 1.191 44 62 33
0.0884672 0.100463 1.192 41 59 30
0.0903942 0.100548 1.193 40 58 29
0.0923243 0.100632 1.194 40 58 29
0.0942575 0.100716 1.195 40 58 29
0.0961134 0.100716 1.195 39 57 28
0.0980512 0.1008 1.196 38 56 27
0.0999087 0.1008 1.196 38 56 27
0.101851 0.100885 1.197 38 56 27
0.10371 0.100885 1.197 41 56 28
0.105569 0.100885 1.197 43 58 30
0.107428 0.100885 1.197 45 60 32
0.109287 0.100885 1.197 43 58 30
0.111146 0.100885 1.197 42 57 29
0.113005 0.100885 1.197 45 60 32
0.114864 0.100885 1.197 45 60 32
0.116723 0.100885 1.197 45 60 32
0.118582 0.100885 1.197 43 58 30
0.120441 0.100885 1.197 43 58 30
0.1223 0.100885 1.197 42 57 29
0.124159 0.100885 1.197 42 57 29
0.126018 0.100885 1.197 43 58 30
0.12777 0.1008 1.196 43 58 30
0.129628 0.1008 1.196 41 59 30
0.131375 0.100716 1.195 43 61 32
0.133231 0.100716 1.195 41 59 30
0.135087 0.100716 1.195 41 59 30
0.136713 0.100548 1.193 41 59 30
0.13845 0.100463 1.192 43 61 32
0.140301 0.100463 1.192 41 60 28
0.141914 0.100295 1.19 41 60 28
0.143641 0.100211 1.189 43 62 30
0.145365 0.100126 1.188 44 63 31
0.147087 0.100042 1.187 43 62 30
0.148805 0.0999577 1.186 43 62 30
0.150519 0.0998734 1.185 43 62 30
0.15236 0.0998734 1.185 40 59 27
0.15394 0.0997048 1.183 40 59 27
0.155777 0.0997048 1.183 40 59 27
0.157614 0.0997048 1.183 40 59 27
0.159452 0.0997048 1.183 40 59 27
0.161289 0.0997048 1.183 40 59 27
0.163126 0.0997048 1.183 43 62 30
0.164963 0.0997048 1.183 41 60 28
0.166942 0.0997891 1.184 43 62 30
0.168923 0.0998734 1.185 43 62 30
0.170763 0.0998734 1.185 41 60 28
0.172895 0.100042 1.187 44 63 31
0.174886 0.100126 1.188 41 60 28
0.177028 0.100295 1.19 43 62 30
0.179027 0.100379 1.191 43 62 30
0.181028 0.100463 1.192 43 62 30
0.183186 0.100632 1.194 41 60 28
0.185195 0.100716 1.195 43 62 30
0.187364 0.100885 1.197 43 62 30
0.189223 0.100885 1.197 46 63 30
0.191242 0.100969 1.198 46 63 30
0.193264 0.101053 1.199 45 62 29
0.195126 0.101053 1.199 43 60 27
0.196988 0.101053 1.199 43 60 27
0.19885 0.101053 1.199 43 60 27
0.200712 0.101053 1.199 46 63 30
0.202405 0.100969 1.198 47 64 31
0.204095 0.100885 1.197 46 63 30
0.205954 0.100885 1.197 42 59 26
0.20764 0.1008 1.196 45 65 31
0.209322 0.100716 1.195 51 71 37
0.211178 0.100716 1.195 51 71 37
0.212855 0.100632 1.194 51 71 37
0.21453 0.100548 1.193 50 70 36
0.216201 0.100463 1.192 50 70 36
0.218052 0.100463 1.192 50 70 36
0.219719 0.100379 1.191 45 65 31
0.221569 0.100379 1.191 48 68 34
0.223231 0.100295 1.19 53 73 39
0.225079 0.100295 1.19 52 72 38
0.226736 0.100211 1.189 51 71 37
0.228391 0.100126 1.188 51 71 37
0.230042 0.100042 1.187 51 71 37
0.231885 0.100042 1.187 50 71 34
0.233729 0.100042 1.187 51 72 35
0.235374 0.0999577 1.186 50 71 34
0.237216 0.0999577 1.186 48 69 32
0.239058 0.0999577 1.186 47 68 31
0.240899 0.0999577 1.186 45 66 29
0.242741 0.0999577 1.186 45 66 29
0.24479 0.100042 1.187 44 65 28
0.246633 0.100042 1.187 46 67 30
0.248686 0.100126 1.188 48 69 32
0.250742 0.100211 1.189 45 65 31
0.252801 0.100295 1.19 43 63 29
0.254649 0.100295 1.19 45 65 31
0.256712 0.100379 1.191 46 66 32
0.258779 0.100463 1.192 46 65 33
0.26063 0.100463 1.192 43 62 30
0.262482 0.100463 1.192 41 60 28
0.264333 0.100463 1.192 41 60 28
0.266184 0.100463 1.192 45 64 32
0.268035 0.100463 1.192 45 64 32
0.269886 0.100463 1.192 44 63 31
0.271738 0.100463 1.192 44 63 31
0.273589 0.100463 1.192 44 63 31
0.27544 0.100463 1.192 44 63 31
0.277291 0.100463 1.192 44 63 31
0.278908 0.100379 1.191 44 63 31
0.280994 0.100463 1.192 44 63 31
0.282608 0.100379 1.191 44 63 31
0.284457 0.100379 1.191 44 63 31
0.286067 0.100295 1.19 46 65 33
0.287915 0.100295 1.19 47 67 33
0.289763 0.100295 1.19 46 66 32
0.291611 0.100295 1.19 46 66 32
0.293459 0.100295 1.19 45 65 31
0.295307 0.100295 1.19 44 64 30
0.297155 0.100295 1.19 45 65 31
0.298752 0.100211 1.189 46 66 32
0.300599 0.100211 1.189 48 68 34
0.301937 0.100042 1.187 48 68 34
0.30378 0.100042 1.187 40 60 26
0.305623 0.100042 1.187 45 65 31
0.307467 0.100042 1.187 51 71 37
0.30931 0.100042 1.187 50 70 36
0.311154 0.100042 1.187 51 71 37
0.312997 0.100042 1.187 51 71 37
0.314841 0.100042 1.187 50 70 36
0.316684 0.100042 1.187 52 69 36
0.318528 0.100042 1.187 52 69 36
0.320371 0.100042 1.187 59 75 39
0.322214 0.100042 1.187 64 80 44
0.324058 0.100042 1.187 60 79 41
0.328021 0.100126 1.188 76 95 55
0.329866 0.100126 1.188 78 97 57
0.332269 0.100295 1.19 77 97 54
0.334117 0.100295 1.19 74 94 51
0.336248 0.100379 1.191 72 92 49
0.338381 0.100463 1.192 74 94 51
0.340233 0.100463 1.192 75 95 52
0.342084 0.100463 1.192 75 95 52
0.343935 0.100463 1.192 72 92 49
0.346076 0.100548 1.193 74 94 51
0.347929 0.100548 1.193 72 91 51
0.349782 0.100548 1.193 71 90 50
0.351635 0.100548 1.193 72 91 53
0.353191 0.100463 1.192 75 94 56
0.355042 0.100463 1.192 76 94 58
0.356894 0.100463 1.192 75 93 57
0.358444 0.100379 1.191 62 80 51
0.359386 0.100126 1.188 54 72 43
0.360319 0.0998734 1.185 107 121 111
0.361242 0.0996205 1.182 133 147 137
0.362156 0.0993677 1.179 46 58 53
0.363061 0.0991149 1.176 49 61 56
0.363336 0.0986934 1.171 42 54 62
0.362972 0.0981035 1.164 49 61 69
0.362586 0.0975135 1.157 129 140 144
0.361549 0.096755 1.148 214 225 229
0.362065 0.0964178 1.144 187 200 206
0.36257 0.0960807 1.14 194 207 213
0.363382 0.0958279 1.137 238 247 255
0.364826 0.0957436 1.136 218 227 236
0.366591 0.0957436 1.136 106 113 122
0.370949 0.0964178 1.144 105 112 121
-0.158595 0.0971666 1.132 108 100 125
-0.156559 0.0969949 1.13 152 144 169
-0.154668 0.0969091 1.129 154 148 177
-0.152643 0.0967374 1.127 151 145 174
-0.150491 0.0964799 1.124 155 144 177
-0.148481 0.0963082 1.122 150 139 172
-0.146608 0.0962224 1.121 149 138 171
-0.144608 0.0960507 1.119 160 149 182
-0.142743 0.0959649 1.118 185 174 207
-0.140754 0.0957932 1.116 187 176 209
-0.138897 0.0957074 1.115 189 178 211
-0.137042 0.0956215 1.114 189 178 211
-0.135069 0.0954499 1.112 190 178 208
-0.133222 0.095364 1.111 185 173 203
-0.131378 0.0952782 1.11 173 160 188
-0.129654 0.0952782 1.11 178 165 193
-0.127815 0.0951924 1.109 212 200 223
-0.126093 0.0951924 1.109 253 241 255
-0.124371 0.0951924 1.109 255 249 255
-0.122648 0.0951924 1.109 247 238 254
-0.120926 0.0951924 1.109 196 191 200
-0.119311 0.0952782 1.11 208 203 212
-0.117587 0.0952782 1.11 254 250 255
-0.115863 0.0952782 1.11 255 252 255
-0.11414 0.0952782 1.11 254 254 255
-0.112314 0.0951924 1.109 254 254 255
-0.110592 0.0951924 1.109 251 255 254
-0.108772 0.0951065 1.108 251 255 254
-0.107051 0.0951065 1.108 251 255 254
-0.105235 0.0950207 1.107 251 255 254
-0.103516 0.0950207 1.107 251 255 254
-0.101705 0.0949349 1.106 251 255 254
-0.099987 0.0949349 1.106 251 255 254
-0.0983582 0.0950207 1.107 251 255 254
-0.0967263 0.0951065 1.108 251 255 254
-0.095177 0.0952782 1.11 251 255 254
-0.0934531 0.0952782 1.11 251 255 254
-0.0917293 0.0952782 1.11 251 255 254
-0.0901676 0.0954499 1.112 251 255 254
-0.0885201 0.0955357 1.113 251 255 254
-0.0869475 0.0957074 1.115 251 255 254
-0.0852923 0.0957932 1.116 251 255 254
-0.0821193 0.0961366 1.12 251 255 254
-0.0805952 0.0963941 1.123 251 255 254
-0.079132 0.0967374 1.127 251 255 254
-0.077725 0.0971666 1.132 251 255 254
-0.0763696 0.0976816 1.138 251 255 254
-0.07493 0.0981108 1.143 251 255 254
-0.0734109 0.0984541 1.147 251 255 254
-0.0718794 0.0987975 1.151 251 255 254
-0.0684823 0.099055 1.154 251 255 252
-0.0668635 0.0993125 1.157 251 255 252
-0.0651791 0.0994842 1.159 254 255 252
-0.0634885 0.0996558 1.161 253 254 251
-0.0617917 0.0998275 1.163 232 234 228
-0.0600887 0.0999992 1.165 107 109 103
-0.0584295 0.100257 1.168 57 62 47
-0.0567125 0.100428 1.17 58 63 48
-0.0550362 0.100686 1.173 68 75 50
-0.0533052 0.100858 1.175 67 74 49
-0.0516119 0.101115 1.178 62 75 49
-0.0498669 0.101287 1.18 57 70 44
-0.048075 0.101373 1.181 53 68 42
-0.0462409 0.101373 1.181 53 68 42
-0.0444444 0.101458 1.182 48 66 39
-0.0426087 0.101458 1.182 48 66 39
-0.040773 0.101458 1.182 48 66 37
-0.0389373 0.101458 1.182 48 66 37
-0.0371016 0.101458 1.182 48 66 37
-0.0352659 0.101458 1.182 48 66 37
-0.0334302 0.101458 1.182 50 69 37
-0.0316213 0.101544 1.183 48 67 35
-0.0298092 0.10163 1.184 47 66 34
-0.0279704 0.10163 1.184 47 66 34
-0.0261316 0.10163 1.184 46 65 33
-0.0243134 0.101716 1.185 45 64 32
-0.0224541 0.10163 1.184 44 63 31
-0.0206153 0.10163 1.184 44 63 31
-0.0187765 0.10163 1.184 44 63 31
-0.0169377 0.10163 1.184 44 63 31
-0.0150861 0.101544 1.183 44 63 31
-0.0132377 0.101458 1.182 43 62 30
-0.011402 0.101458 1.182 41 60 28
-0.00956632 0.101458 1.182 40 59 27
-0.00773063 0.101458 1.182 40 59 27
-0.00589495 0.101458 1.182 39 58 26
-0.00405926 0.101458 1.182 41 60 28
-0.00222357 0.101458 1.182 39 58 26
-0.000387887 0.101458 1.182 40 59 27
0.00144902 0.101544 1.183 40 59 27
0.00329182 0.101716 1.185 39 58 26
0.00513216 0.101716 1.185 39 58 26
0.00697839 0.101802 1.186 39 57 28
0.00882773 0.101888 1.187 39 57 28
0.0106892 0.102059 1.189 39 57 28
0.0125463 0.102145 1.19 38 56 27
0.0143944 0.102145 1.19 38 56 29
0.0162561 0.102231 1.191 38 56 29
0.0181058 0.102231 1.191 39 57 30
0.0199555 0.102231 1.191 40 58 31
0.0217868 0.102145 1.19 41 59 32
0.0236548 0.102231 1.191 40 58 31
0.0255044 0.102231 1.191 39 57 30
0.0273311 0.102145 1.19 39 57 30
0.0292038 0.102231 1.191 38 56 27
0.0310274 0.102145 1.19 38 56 27
0.0328755 0.102145 1.19 39 57 28
0.0347236 0.102145 1.19 39 57 28
0.0365717 0.102145 1.19 38 56 27
0.0384198 0.102145 1.19 38 56 27
0.0402679 0.102145 1.19 36 54 25
0.042116 0.102145 1.19 36 54 25
0.0439641 0.102145 1.19 34 52 23
0.0458507 0.102231 1.191 36 54 25
0.0477004 0.102231 1.191 37 55 26
0.0495501 0.102231 1.191 38 56 27
0.0513997 0.102231 1.191 38 56 27
0.0532494 0.102231 1.191 38 56 27
0.0550991 0.102231 1.191 37 55 26
0.0569009 0.102145 1.19 38 56 27
0.058749 0.102145 1.19 39 57 28
0.0605971 0.102145 1.19 40 58 29
0.0623928 0.102059 1.189 40 58 29
0.0641853 0.101973 1.188 39 57 28
0.0660303 0.101973 1.188 38 56 27
0.0678753 0.101973 1.188 39 57 28
0.0696616 0.101888 1.187 37 55 26
0.0715051 0.101888 1.187 37 55 26
0.0733485 0.101888 1.187 37 55 26
0.075192 0.101888 1.187 38 56 27
0.0770354 0.101888 1.187 39 57 28
0.0789453 0.101973 1.188 39 57 28
0.0808583 0.102059 1.189 39 57 28
0.0827745 0.102145 1.19 39 57 28
0.0846937 0.102231 1.191 43 58 30
0.0865433 0.102231 1.191 45 60 32
0.0885414 0.102403 1.193 46 61 33
0.09047 0.102488 1.194 43 58 30
0.0924016 0.102574 1.195 43 58 30
0.0943364 0.10266 1.196 41 56 28
0.0962742 0.102746 1.197 38 53 25
0.0981332 0.102746 1.197 38 53 25
0.0999922 0.102746 1.197 38 53 25
0.101851 0.102746 1.197 40 55 27
0.103797 0.102832 1.198 41 56 28
0.105657 0.102832 1.198 45 60 32
0.107428 0.102746 1.197 45 60 32
0.109287 0.102746 1.197 43 58 30
0.111239 0.102832 1.198 42 57 29
0.113005 0.102746 1.197 43 58 30
0.11496 0.102832 1.198 43 58 30
0.116821 0.102832 1.198 45 60 32
0.11878 0.102918 1.199 43 58 30
0.120642 0.102918 1.199 43 58 30
0.122402 0.102832 1.198 43 58 30
0.124263 0.102832 1.198 43 58 30
0.126123 0.102832 1.198 43 58 30
0.127877 0.102746 1.197 43 58 30
0.129736 0.102746 1.197 43 58 30
0.131595 0.102746 1.197 45 60 32
0.133342 0.10266 1.196 45 60 32
0.135087 0.102574 1.195 43 58 30
0.136943 0.102574 1.195 42 57 29
0.138682 0.102488 1.194 43 58 30
0.140301 0.102317 1.192 42 57 29
0.142033 0.102231 1.191 43 58 30
0.143762 0.102145 1.19 45 61 30
0.145365 0.101973 1.188 45 61 30
0.147087 0.101888 1.187 43 59 28
0.148679 0.101716 1.185 43 59 28
0.150519 0.101716 1.185 44 63 31
0.152231 0.10163 1.184 40 59 27
0.15381 0.101458 1.182 39 58 26
0.155645 0.101458 1.182 39 58 26
0.157481 0.101458 1.182 39 58 26
0.159317 0.101458 1.182 40 59 27
0.161153 0.101458 1.182 40 59 27
0.162988 0.101458 1.182 41 60 28
0.164824 0.101458 1.182 41 60 28
0.16666 0.101458 1.182 43 62 30
0.168638 0.101544 1.183 43 62 30
0.170619 0.10163 1.184 43 62 30
0.172604 0.101716 1.185 44 63 31
0.174738 0.101888 1.187 43 62 30
0.176731 0.101973 1.188 43 62 30
0.178876 0.102145 1.19 44 63 31
0.181028 0.102317 1.192 44 63 31
0.183186 0.102488 1.194 44 63 31
0.185195 0.102574 1.195 45 64 32
0.187364 0.102746 1.197 44 63 31
0.189223 0.102746 1.197 46 63 30
0.191402 0.102918 1.199 45 62 29
0.193264 0.102918 1.199 43 60 27
0.195126 0.102918 1.199 43 60 27
0.196988 0.102918 1.199 45 62 29
0.19885 0.102918 1.199 46 63 30
0.200712 0.102918 1.199 47 64 31
0.202405 0.102832 1.198 46 63 30
0.204266 0.102832 1.198 45 62 29
0.205954 0.102746 1.197 45 62 29
0.207813 0.102746 1.197 40 60 26
0.209322 0.102574 1.195 45 65 31
0.211178 0.102574 1.195 46 66 32
0.213034 0.102574 1.195 50 70 36
0.21471 0.102488 1.194 50 70 36
0.216383 0.102403 1.193 50 70 36
0.218052 0.102317 1.192 48 68 34
0.219904 0.102317 1.192 48 68 34
0.221755 0.102317 1.192 45 65 31
0.223418 0.102231 1.191 52 72 38
0.225079 0.102145 1.19 52 72 38
0.226927 0.102145 1.19 52 72 38
0.228583 0.102059 1.189 52 72 38
0.230236 0.101973 1.188 51 71 37
0.231885 0.101888 1.187 50 70 36
0.233729 0.101888 1.187 48 68 34
0.235374 0.101802 1.186 46 67 30
0.237216 0.101802 1.186 46 67 30
0.238856 0.101716 1.185 45 66 29
0.240696 0.101716 1.185 46 67 30
0.242741 0.101802 1.186 44 65 28
0.244583 0.101802 1.186 45 66 29
0.246633 0.101888 1.187 47 68 31
0.248686 0.101973 1.188 45 66 29
0.250531 0.101973 1.188 45 65 31
0.252588 0.102059 1.189 46 66 32
0.254435 0.102059 1.189 48 68 34
0.256497 0.102145 1.19 46 66 32
0.258345 0.102145 1.19 46 65 33
0.260193 0.102145 1.19 44 63 31
0.262041 0.102145 1.19 43 62 30
0.263889 0.102145 1.19 44 63 31
0.265737 0.102145 1.19 45 65 31
0.26781 0.102231 1.191 45 65 31
0.26966 0.102231 1.191 45 65 31
0.271738 0.102317 1.192 45 65 31
0.273359 0.102231 1.191 44 64 30
0.274978 0.102145 1.19 44 64 30
0.277059 0.102231 1.191 45 65 31
0.278908 0.102231 1.191 45 65 31
0.280758 0.102231 1.191 44 64 30
0.282608 0.102231 1.191 44 64 30
0.284219 0.102145 1.19 44 64 30
0.286067 0.102145 1.19 46 66 32
0.287915 0.102145 1.19 47 67 33
0.289763 0.102145 1.19 47 67 33
0.291611 0.102145 1.19 46 66 32
0.293459 0.102145 1.19 45 65 31
0.295307 0.102145 1.19 45 65 31
0.296906 0.102059 1.189 45 65 31
0.298752 0.102059 1.189 46 66 32
0.300346 0.101973 1.188 47 67 33
0.301937 0.101888 1.187 48 68 34
0.30378 0.101888 1.187 40 60 26
0.305623 0.101888 1.187 40 60 26
0.307467 0.101888 1.187 52 72 38
0.30931 0.101888 1.187 51 71 37
0.311154 0.101888 1.187 51 71 37
0.312997 0.101888 1.187 51 71 37
0.314841 0.101888 1.187 51 71 37
0.316684 0.101888 1.187 52 69 36
0.318528 0.101888 1.187 53 70 37
0.320101 0.101802 1.186 56 72 36
0.321943 0.101802 1.186 61 77 41
0.324058 0.101888 1.187 60 79 41
0.325901 0.101888 1.187 69 88 50
0.329866 0.101973 1.188 70 89 49
0.33199 0.102059 1.189 70 90 47
0.334117 0.102145 1.19 71 91 48
0.335966 0.102145 1.19 70 91 46
0.338381 0.102317 1.192 66 87 42
0.340233 0.102317 1.192 64 85 40
0.342084 0.102317 1.192 72 93 48
0.343935 0.102317 1.192 72 93 48
0.345786 0.102317 1.192 72 93 48
0.347638 0.102317 1.192 74 94 51
0.349489 0.102317 1.192 71 91 48
0.35134 0.102317 1.192 71 90 52
0.353191 0.102317 1.192 76 95 57
0.355042 0.102317 1.192 82 100 64
0.356894 0.102317 1.192 74 92 56
0.358444 0.102231 1.191 64 79 51
0.359386 0.101973 1.188 57 72 44
0.360319 0.101716 1.185 115 130 117
0.361242 0.101458 1.182 134 149 136
0.362156 0.101201 1.179 48 60 55
0.362753 0.100858 1.175 49 61 56
0.363026 0.100428 1.17 45 57 65
0.362972 0.0999134 1.164 47 59 67
0.362586 0.0993125 1.157 129 142 148
0.361234 0.0984541 1.147 216 229 235
0.362065 0.0981966 1.144 197 210 216
0.36257 0.0978533 1.14 205 218 224
0.363701 0.0976816 1.138 234 246 254
0.364826 0.0975099 1.136 213 225 233
0.366591 0.0975099 1.136 106 113 122
0.3703 0.098025 1.142 103 110 119
-0.158875 0.0991015 1.134 65 56 84
-0.156837 0.0989267 1.132 140 131 159
-0.154805 0.0987519 1.13 150 139 172
-0.152643 0.0984898 1.127 146 135 168
-0.150625 0.098315 1.125 144 137 169
-0.148613 0.0981402 1.123 144 137 169
-0.146739 0.0980528 1.122 153 143 173
-0.144738 0.097878 1.12 165 155 185
-0.142743 0.0977032 1.118 179 169 199
-0.14088 0.0976159 1.117 183 173 203
-0.139021 0.0975285 1.116 185 175 205
-0.137042 0.0973537 1.114 185 175 205
-0.135069 0.0971789 1.112 184 173 201
-0.133222 0.0970915 1.111 177 166 194
-0.131378 0.0970041 1.11 175 163 188
-0.129654 0.0970041 1.11 171 159 184
-0.127815 0.0969167 1.109 192 181 202
-0.126093 0.0969167 1.109 244 233 254
-0.124258 0.0968293 1.108 255 250 255
-0.122648 0.0969167 1.109 255 247 255
-0.120926 0.0969167 1.109 212 207 216
-0.119204 0.0969167 1.109 190 185 194
-0.117481 0.0969167 1.109 226 223 227
-0.115863 0.0970041 1.11 255 253 255
-0.11414 0.0970041 1.11 254 254 254
-0.112314 0.0969167 1.109 254 254 254
-0.110492 0.0968293 1.108 254 254 254
-0.108772 0.0968293 1.108 254 254 254
-0.107051 0.0968293 1.108 251 255 254
-0.105235 0.0967419 1.107 251 255 254
-0.103422 0.0966546 1.106 251 255 254
-0.101613 0.0965672 1.105 251 255 254
-0.0998966 0.0965672 1.105 251 255 254
-0.0982693 0.0966546 1.106 251 255 254
-0.0965517 0.0966546 1.106 251 255 254
-0.0950055 0.0968293 1.108 251 255 254
-0.0932847 0.0968293 1.108 251 255 254
-0.0916466 0.0969167 1.109 251 255 254
-0.0900054 0.0970041 1.11 251 255 254
-0.0883611 0.0970915 1.111 251 255 254
-0.0867916 0.0972663 1.113 251 255 254
-0.0852159 0.0974411 1.115 251 255 254
-0.0837089 0.0977032 1.118 251 255 254
-0.0805234 0.0980528 1.122 251 255 254
-0.079132 0.0984898 1.127 251 255 254
-0.077725 0.0989267 1.132 251 255 254
-0.0763025 0.0993637 1.137 251 255 254
-0.0748645 0.0998006 1.142 251 255 254
-0.0734109 0.100238 1.147 251 255 254
-0.0718794 0.100587 1.151 251 255 254
-0.0684823 0.100849 1.154 251 255 254
-0.0668057 0.101024 1.156 251 255 254
-0.0651229 0.101199 1.158 251 255 252
-0.0633792 0.101286 1.159 251 255 252
-0.0617386 0.101548 1.162 247 248 245
-0.0600371 0.101723 1.164 149 150 147
-0.0583294 0.101898 1.166 79 82 67
-0.0566156 0.102073 1.168 62 65 50
-0.0549424 0.102335 1.171 65 69 46
-0.0532599 0.102597 1.174 68 72 49
-0.051568 0.102859 1.177 58 71 45
-0.0498246 0.103034 1.179 52 65 39
-0.0480343 0.103121 1.18 52 67 41
-0.0462409 0.103209 1.181 54 69 43
-0.0444444 0.103296 1.182 50 68 41
-0.0426087 0.103296 1.182 48 66 39
-0.040773 0.103296 1.182 50 68 39
-0.0389373 0.103296 1.182 51 69 40
-0.0371016 0.103296 1.182 50 68 39
-0.0352659 0.103296 1.182 48 66 37
-0.0334585 0.103384 1.183 50 69 37
-0.0316213 0.103384 1.183 50 69 37
-0.0298092 0.103471 1.184 48 67 35
-0.0279704 0.103471 1.184 48 67 35
-0.0261537 0.103558 1.185 45 64 32
-0.0243134 0.103558 1.185 41 60 28
-0.022473 0.103558 1.185 44 63 31
-0.0206327 0.103558 1.185 44 63 31
-0.0187923 0.103558 1.185 44 63 31
-0.0169377 0.103471 1.184 43 62 30
-0.0150989 0.103471 1.184 43 62 30
-0.0132489 0.103384 1.183 43 62 30
-0.011402 0.103296 1.182 41 60 28
-0.00956632 0.103296 1.182 41 60 28
-0.00773063 0.103296 1.182 40 59 27
-0.00589495 0.103296 1.182 39 58 26
-0.00405926 0.103296 1.182 39 58 26
-0.00222545 0.103384 1.183 39 58 26
-0.000388544 0.103471 1.184 40 59 27
0.00145147 0.103558 1.185 39 58 26
0.0032946 0.103646 1.186 39 57 28
0.00514083 0.103733 1.187 39 57 28
0.00698428 0.103733 1.187 39 57 28
0.0088426 0.103908 1.189 39 57 28
0.0106982 0.103995 1.19 39 57 28
0.0125568 0.104083 1.191 38 56 27
0.0144186 0.10417 1.192 38 56 29
0.0162698 0.10417 1.192 38 56 29
0.0181058 0.104083 1.191 40 58 31
0.0199555 0.104083 1.191 40 58 31
0.0218051 0.104083 1.191 43 61 34
0.0236548 0.104083 1.191 40 58 31
0.025483 0.103995 1.19 40 58 31
0.0273311 0.103995 1.19 39 57 30
0.0291793 0.103995 1.19 39 57 28
0.0310274 0.103995 1.19 38 56 27
0.0328479 0.103908 1.189 38 56 27
0.0346944 0.103908 1.189 39 57 28
0.0365717 0.103995 1.19 39 57 28
0.0384198 0.103995 1.19 38 56 27
0.0402679 0.103995 1.19 37 55 26
0.042116 0.103995 1.19 37 55 26
0.0439641 0.103995 1.19 37 55 26
0.0458123 0.103995 1.19 38 56 27
0.0477004 0.104083 1.191 39 57 28
0.0495501 0.104083 1.191 39 57 28
0.0513997 0.104083 1.191 38 56 27
0.0532494 0.104083 1.191 38 56 27
0.0550528 0.103995 1.19 37 55 26
0.0569487 0.104083 1.191 37 55 26
0.058749 0.103995 1.19 38 56 27
0.0605971 0.103995 1.19 39 57 28
0.0624452 0.103995 1.19 39 57 28
0.0641853 0.103821 1.188 40 58 29
0.0660303 0.103821 1.188 39 57 28
0.0678753 0.103821 1.188 40 58 29
0.0696616 0.103733 1.187 39 57 28
0.0715051 0.103733 1.187 40 58 29
0.0733485 0.103733 1.187 39 57 28
0.075192 0.103733 1.187 40 58 29
0.0771003 0.103821 1.188 40 58 29
0.0790118 0.103908 1.189 41 59 30
0.0809264 0.103995 1.19 40 58 29
0.0827745 0.103995 1.19 39 57 28
0.0847648 0.10417 1.192 43 58 30
0.0866887 0.104258 1.193 43 58 30
0.0886899 0.104432 1.195 43 58 30
0.0906215 0.10452 1.196 43 58 30
0.0925563 0.104607 1.197 42 57 29
0.0944153 0.104607 1.197 40 55 27
0.0964351 0.104782 1.199 41 56 28
0.0982152 0.104695 1.198 42 57 29
0.100159 0.104782 1.199 38 53 25
0.102021 0.104782 1.199 39 54 26
0.103883 0.104782 1.199 41 56 28
0.105746 0.104782 1.199 43 58 30
0.107518 0.104695 1.198 45 60 32
0.10947 0.104782 1.199 42 57 29
0.111239 0.104695 1.198 42 57 29
0.113099 0.104695 1.198 43 58 30
0.115056 0.104782 1.199 43 58 30
0.117016 0.104869 1.2 45 60 32
0.118879 0.104869 1.2 43 58 30
0.120743 0.104869 1.2 42 57 29
0.122607 0.104869 1.2 43 58 30
0.12447 0.104869 1.2 43 58 30
0.126334 0.104869 1.2 45 60 32
0.128197 0.104869 1.2 46 61 33
0.129953 0.104782 1.199 45 60 32
0.131705 0.104695 1.198 45 60 32
0.133454 0.104607 1.197 45 60 32
0.1352 0.10452 1.196 43 58 30
0.137057 0.10452 1.196 43 59 28
0.138799 0.104432 1.195 43 59 28
0.140419 0.104258 1.193 42 58 27
0.142153 0.10417 1.192 46 62 31
0.143762 0.103995 1.19 45 61 30
0.145488 0.103908 1.189 45 61 30
0.147087 0.103733 1.187 45 61 30
0.148805 0.103646 1.186 43 59 28
0.150519 0.103558 1.185 45 61 30
0.152103 0.103384 1.183 43 59 28
0.15381 0.103296 1.182 41 60 28
0.155645 0.103296 1.182 44 63 31
0.157481 0.103296 1.182 43 62 30
0.159317 0.103296 1.182 41 60 28
0.161153 0.103296 1.182 40 59 27
0.162988 0.103296 1.182 40 59 27
0.164824 0.103296 1.182 41 60 28
0.166801 0.103384 1.183 43 62 30
0.168638 0.103384 1.183 43 62 30
0.170763 0.103558 1.185 43 62 30
0.172604 0.103558 1.185 43 62 30
0.174738 0.103733 1.187 43 62 30
0.176731 0.103821 1.188 43 62 30
0.178876 0.103995 1.19 43 62 30
0.180876 0.104083 1.191 44 63 31
0.183033 0.104258 1.193 44 63 31
0.185195 0.104432 1.195 44 64 30
0.187208 0.10452 1.196 43 63 29
0.189223 0.104607 1.197 43 63 29
0.191242 0.104695 1.198 43 63 29
0.193264 0.104782 1.199 43 63 29
0.195126 0.104782 1.199 43 63 29
0.196988 0.104782 1.199 45 65 31
0.19885 0.104782 1.199 45 65 31
0.200712 0.104782 1.199 45 65 31
0.202405 0.104695 1.198 43 63 29
0.204266 0.104695 1.198 44 64 30
0.205954 0.104607 1.197 45 65 31
0.207813 0.104607 1.197 44 64 30
0.209672 0.104607 1.197 45 65 31
0.211354 0.10452 1.196 44 64 30
0.213034 0.104432 1.195 48 68 34
0.214889 0.104432 1.195 50 70 36
0.216564 0.104345 1.194 50 70 36
0.218418 0.104345 1.194 52 72 38
0.220088 0.104258 1.193 53 73 39
0.221755 0.10417 1.192 53 73 39
0.223606 0.10417 1.192 54 74 40
0.225268 0.104083 1.191 52 72 38
0.226927 0.103995 1.19 52 72 38
0.228775 0.103995 1.19 51 71 37
0.230236 0.103821 1.188 46 66 32
0.231885 0.103733 1.187 48 68 34
0.233729 0.103733 1.187 46 66 32
0.235374 0.103646 1.186 46 66 32
0.237216 0.103646 1.186 47 67 33
0.238856 0.103558 1.185 46 67 30
0.240696 0.103558 1.185 47 68 31
0.242537 0.103558 1.185 44 65 28
0.244377 0.103558 1.185 45 66 29
0.246425 0.103646 1.186 44 65 28
0.248476 0.103733 1.187 44 65 28
0.25032 0.103733 1.187 47 65 29
0.252163 0.103733 1.187 49 67 31
0.254221 0.103821 1.188 48 65 32
0.256281 0.103908 1.189 46 63 30
0.258128 0.103908 1.189 47 64 31
0.259974 0.103908 1.189 46 63 30
0.261821 0.103908 1.189 47 64 31
0.263446 0.103821 1.188 47 64 31
0.265514 0.103908 1.189 47 64 31
0.267361 0.103908 1.189 46 63 30
0.269434 0.103995 1.19 47 64 31
0.271282 0.103995 1.19 47 64 31
0.27313 0.103995 1.19 47 64 31
0.274978 0.103995 1.19 47 64 31
0.276826 0.103995 1.19 45 65 31
0.278674 0.103995 1.19 45 65 31
0.280522 0.103995 1.19 45 65 31
0.28237 0.103995 1.19 45 65 31
0.284219 0.103995 1.19 46 66 32
0.286067 0.103995 1.19 47 67 33
0.287915 0.103995 1.19 46 66 32
0.289763 0.103995 1.19 46 66 32
0.291611 0.103995 1.19 46 66 32
0.293459 0.103995 1.19 45 65 31
0.295307 0.103995 1.19 45 65 31
0.296906 0.103908 1.189 46 66 32
0.298752 0.103908 1.189 46 66 32
0.300346 0.103821 1.188 46 66 32
0.301937 0.103733 1.187 46 66 32
0.30378 0.103733 1.187 46 66 32
0.305366 0.103646 1.186 46 66 32
0.307208 0.103646 1.186 51 71 37
0.311154 0.103733 1.187 48 68 34
0.312734 0.103646 1.186 51 71 37
0.314575 0.103646 1.186 52 72 38
0.318259 0.103646 1.186 47 64 31
0.320101 0.103646 1.186 56 74 38
0.321943 0.103646 1.186 57 75 39
0.324058 0.103733 1.187 56 75 37
0.325901 0.103733 1.187 74 93 55
0.329866 0.103821 1.188 68 87 47
0.33199 0.103908 1.189 70 90 47
0.334117 0.103995 1.19 74 94 51
0.335966 0.103995 1.19 71 92 47
0.338098 0.104083 1.191 69 90 45
0.339947 0.104083 1.191 64 85 40
0.342084 0.10417 1.192 71 92 47
0.343935 0.10417 1.192 72 93 48
0.345786 0.10417 1.192 72 93 48
0.347638 0.10417 1.192 72 92 49
0.349489 0.10417 1.192 71 91 48
0.35134 0.10417 1.192 67 86 48
0.353191 0.10417 1.192 78 97 59
0.355042 0.10417 1.192 83 101 65
0.356594 0.104083 1.191 70 88 52
0.358143 0.103995 1.19 62 80 53
0.359084 0.103733 1.187 57 75 48
0.360319 0.103558 1.185 107 122 109
0.361242 0.103296 1.182 135 150 137
0.361849 0.102947 1.178 46 58 53
0.362753 0.102685 1.175 49 61 56
0.362716 0.10216 1.169 46 58 68
0.36266 0.101636 1.163 47 59 69
0.361019 0.100675 1.152 128 138 145
0.361234 0.100238 1.147 219 229 236
0.362065 0.0999754 1.144 195 208 214
0.36257 0.0996258 1.14 216 229 235
0.363701 0.0994511 1.138 239 248 255
0.364826 0.0992763 1.136 213 222 231
0.366268 0.0991889 1.135 106 113 122
0.3703 0.0998006 1.142 105 112 121
-0.159015 0.100954 1.135 17 6 50
-0.156975 0.100776 1.133 102 91 135
-0.155079 0.100687 1.132 139 132 164
-0.152914 0.10042 1.129 157 150 182
-0.150759 0.100153 1.126 170 164 193
-0.148746 0.0999753 1.124 172 166 195
-0.146869 0.0998863 1.123 179 170 198
-0.144738 0.0996195 1.12 179 170 198
-0.142871 0.0995305 1.119 176 166 191
-0.14088 0.0993527 1.117 178 168 193
-0.138897 0.0991748 1.115 178 168 193
-0.137042 0.0990858 1.114 180 170 195
-0.134947 0.098819 1.111 182 170 195
-0.133222 0.098819 1.111 180 168 193
-0.131378 0.09873 1.11 178 163 189
-0.129538 0.0986411 1.109 175 160 186
-0.1277 0.0985521 1.108 180 166 188
-0.125979 0.0985521 1.108 223 209 231
-0.124258 0.0985521 1.108 255 249 255
-0.122538 0.0985521 1.108 250 242 255
-0.120817 0.0985521 1.108 251 244 253
-0.119096 0.0985521 1.108 205 198 207
-0.117481 0.0986411 1.109 201 198 202
-0.115759 0.0986411 1.109 254 251 255
-0.114037 0.0986411 1.109 254 254 255
-0.112314 0.0986411 1.109 254 254 255
-0.110492 0.0985521 1.108 254 254 254
-0.108772 0.0985521 1.108 254 254 254
-0.106954 0.0984632 1.107 251 255 254
-0.10514 0.0983742 1.106 251 255 254
-0.103422 0.0983742 1.106 251 255 254
-0.101613 0.0982853 1.105 251 255 254
-0.0998062 0.0981964 1.104 251 255 254
-0.0980916 0.0981964 1.104 251 255 254
-0.0964644 0.0982853 1.105 251 255 254
-0.094834 0.0983742 1.106 251 255 254
-0.0931164 0.0983742 1.106 251 255 254
-0.0914813 0.0984632 1.107 251 255 254
-0.0898432 0.0985521 1.108 251 255 254
-0.0882815 0.09873 1.11 251 255 254
-0.0866356 0.098819 1.111 251 255 254
-0.0850631 0.0989969 1.113 251 255 254
-0.0837089 0.0994416 1.118 251 255 254
-0.0804516 0.0997084 1.121 251 255 254
-0.0776563 0.100598 1.131 251 255 254
-0.0762354 0.101043 1.136 251 255 254
-0.0747989 0.101487 1.141 251 255 254
-0.0733469 0.101932 1.146 251 255 254
-0.071817 0.102288 1.15 251 255 254
