ply
format ascii 1.0
comment Created by Open3D
element vertex 1403
property double x
property double y
property double z
property uchar red
property uchar green
property uchar blue
end_header
-0.125634 -0.296508 0.984 43 48 44
-0.124232 -0.296809 0.985 43 48 44
-0.122702 -0.296809 0.985 21 26 22
-0.121173 -0.296809 0.985 9 14 10
-0.123483 -0.356472 1.183 4 11 7
-0.121543 -0.356171 1.182 5 13 6
-0.119707 -0.356171 1.182 6 14 7
-0.116134 -0.356472 1.183 10 18 11
-0.1142 -0.356171 1.182 10 19 10
-0.110716 -0.356773 1.184 11 21 9
-0.108877 -0.356773 1.184 12 22 10
-0.107129 -0.357075 1.185 14 25 11
-0.105289 -0.357075 1.185 14 25 11
-0.103448 -0.357075 1.185 15 26 12
-0.101694 -0.357376 1.186 17 28 14
-0.0998517 -0.357376 1.186 18 29 13
-0.0980925 -0.357677 1.187 18 29 13
-0.096249 -0.357677 1.187 19 30 14
-0.0944056 -0.357677 1.187 18 29 13
-0.0925621 -0.357677 1.187 19 30 14
-0.0907186 -0.357677 1.187 19 30 14
-0.0888752 -0.357677 1.187 17 28 12
-0.0870317 -0.357677 1.187 14 25 9
-0.0851883 -0.357677 1.187 15 26 10
-0.0833448 -0.357677 1.187 19 30 14
-0.0815014 -0.357677 1.187 16 30 13
-0.0796579 -0.357677 1.187 17 31 14
-0.0778145 -0.357677 1.187 15 29 12
-0.075971 -0.357677 1.187 15 29 12
-0.0741276 -0.357677 1.187 16 30 13
-0.0722841 -0.357677 1.187 17 31 14
-0.0704407 -0.357677 1.187 16 30 13
-0.0685972 -0.357677 1.187 15 29 12
-0.0667538 -0.357677 1.187 15 29 12
-0.0649103 -0.357677 1.187 15 29 12
-0.0630669 -0.357677 1.187 16 30 13
-0.0612234 -0.357677 1.187 15 29 12
-0.05943 -0.357979 1.188 15 29 12
-0.057585 -0.357979 1.188 13 27 10
-0.05574 -0.357979 1.188 13 27 10
-0.0539404 -0.35828 1.189 15 29 12
-0.0521376 -0.358581 1.19 15 29 12
-0.0502895 -0.358581 1.19 13 27 10
-0.0484821 -0.358883 1.191 15 30 10
-0.0466716 -0.359184 1.192 15 30 10
-0.0448204 -0.359184 1.192 16 31 11
-0.0430052 -0.359485 1.193 16 31 11
-0.0393655 -0.360088 1.195 15 30 10
-0.0375097 -0.360088 1.195 16 31 11
-0.0356836 -0.360389 1.196 17 32 12
-0.0338545 -0.360691 1.197 17 33 11
-0.0319955 -0.360691 1.197 17 33 11
-0.0301617 -0.360992 1.198 17 33 11
-0.0283248 -0.361293 1.199 13 29 7
-0.0264627 -0.361293 1.199 15 31 9
-0.0245801 -0.360992 1.198 17 33 11
-0.0227196 -0.360992 1.198 17 33 11
-0.0208242 -0.360389 1.196 15 31 9
-0.0189509 -0.360088 1.195 15 31 9
-0.017095 -0.360088 1.195 15 31 9
-0.0152137 -0.359485 1.193 17 33 11
-0.0133497 -0.359184 1.192 15 31 9
-0.0114888 -0.358883 1.191 13 28 8
-0.00963107 -0.358581 1.19 13 28 8
-0.00778295 -0.358581 1.19 15 31 9
-0.00592986 -0.35828 1.189 17 33 11
-0.0040833 -0.35828 1.189 15 31 9
-0.00223674 -0.35828 1.189 16 32 10
-0.000390184 -0.35828 1.189 16 32 10
0.00145637 -0.35828 1.189 11 27 5
0.00330293 -0.35828 1.189 4 21 1
0.00514949 -0.35828 1.189 56 73 53
0.00699605 -0.35828 1.189 50 67 47
0.0088426 -0.35828 1.189 6 23 3
0.0106982 -0.358581 1.19 11 26 6
0.0125463 -0.358581 1.19 15 30 10
0.0143944 -0.358581 1.19 13 28 8
0.0162425 -0.358581 1.19 13 28 8
0.0180906 -0.358581 1.19 15 30 10
0.0199387 -0.358581 1.19 13 28 8
0.0218051 -0.358883 1.191 15 31 9
0.0236548 -0.358883 1.191 15 31 9
0.0255044 -0.358883 1.191 17 33 11
0.0273541 -0.358883 1.191 17 33 11
0.0292038 -0.358883 1.191 17 33 11
0.0310534 -0.358883 1.191 15 31 9
0.0329031 -0.358883 1.191 17 33 11
0.0347528 -0.358883 1.191 17 33 11
0.0366024 -0.358883 1.191 17 32 12
0.0384844 -0.359184 1.192 17 32 12
0.0403018 -0.358883 1.191 17 32 12
0.0421514 -0.358883 1.191 18 33 13
0.0439641 -0.358581 1.19 17 32 12
0.0458123 -0.358581 1.19 16 31 11
0.0476604 -0.358581 1.19 17 33 11
0.0494253 -0.357979 1.188 16 32 10
0.0512271 -0.357677 1.187 17 33 11
0.0530259 -0.357376 1.186 18 34 12
0.0548215 -0.357075 1.185 15 31 9
0.056614 -0.356773 1.184 15 31 9
0.0583541 -0.356171 1.182 17 33 11
0.0601898 -0.356171 1.182 15 31 9
0.0620254 -0.356171 1.182 17 33 11
0.0637531 -0.355568 1.18 17 33 11
0.0655857 -0.355568 1.18 17 33 11
0.0674182 -0.355568 1.18 16 32 10
0.0692508 -0.355568 1.18 18 34 12
0.0710834 -0.355568 1.18 19 35 13
0.072916 -0.355568 1.18 18 34 12
0.0747486 -0.355568 1.18 18 34 12
0.0765811 -0.355568 1.18 18 34 12
0.0784802 -0.355869 1.181 19 35 13
0.0803143 -0.355869 1.181 18 34 12
0.082218 -0.356171 1.182 18 34 12
0.0840537 -0.356171 1.182 18 34 12
0.085962 -0.356472 1.183 18 34 12
0.0878735 -0.356773 1.184 17 33 11
0.0897123 -0.356773 1.184 17 33 11
0.0915511 -0.356773 1.184 17 33 11
0.0933899 -0.356773 1.184 17 33 11
0.0952287 -0.356773 1.184 18 34 12
0.0970675 -0.356773 1.184 18 34 12
0.0989062 -0.356773 1.184 18 34 12
0.10083 -0.357075 1.185 19 35 13
0.10267 -0.357075 1.185 18 34 12
0.104511 -0.357075 1.185 17 33 11
0.106351 -0.357075 1.185 18 34 12
0.108192 -0.357075 1.185 17 33 11
0.110032 -0.357075 1.185 17 33 11
0.111872 -0.357075 1.185 17 33 11
0.113617 -0.356773 1.184 18 35 10
0.115455 -0.356773 1.184 17 34 9
0.117294 -0.356773 1.184 18 35 10
0.119032 -0.356472 1.183 19 36 11
0.120767 -0.356171 1.182 18 35 10
0.122603 -0.356171 1.182 18 35 10
0.124334 -0.355869 1.181 18 34 12
0.126168 -0.355869 1.181 19 35 13
0.128002 -0.355869 1.181 18 36 14
0.129726 -0.355568 1.18 21 39 17
0.131559 -0.355568 1.18 21 39 17
0.133391 -0.355568 1.18 21 39 17
0.135224 -0.355568 1.18 17 34 14
0.13694 -0.355267 1.179 17 34 14
0.138889 -0.355568 1.18 16 33 13
0.140721 -0.355568 1.18 17 34 14
0.142554 -0.355568 1.18 17 34 14
0.144387 -0.355568 1.18 17 34 14
0.146219 -0.355568 1.18 18 35 15
0.148177 -0.355869 1.181 18 35 15
0.150138 -0.356171 1.182 16 33 13
0.151845 -0.355869 1.181 16 33 13
0.15381 -0.356171 1.182 16 33 13
0.155645 -0.356171 1.182 18 35 15
0.157481 -0.356171 1.182 18 35 15
0.159317 -0.356171 1.182 20 37 17
0.161425 -0.356773 1.184 17 34 14
0.163264 -0.356773 1.184 16 33 13
0.165242 -0.357075 1.185 17 34 14
0.167224 -0.357376 1.186 17 34 14
0.169208 -0.357677 1.187 17 35 13
0.171051 -0.357677 1.187 17 35 13
0.172895 -0.357677 1.187 18 36 14
0.174738 -0.357677 1.187 18 36 14
0.176582 -0.357677 1.187 18 36 14
0.178425 -0.357677 1.187 18 36 14
0.180269 -0.357677 1.187 17 35 13
0.182112 -0.357677 1.187 16 34 12
0.183801 -0.357376 1.186 15 33 11
0.185643 -0.357376 1.186 14 32 10
0.187326 -0.357075 1.185 15 33 11
0.189167 -0.357075 1.185 15 33 11
0.191007 -0.357075 1.185 18 36 14
0.192847 -0.357075 1.185 15 33 11
0.194688 -0.357075 1.185 16 34 12
0.196528 -0.357075 1.185 17 35 13
0.198368 -0.357075 1.185 15 33 11
0.200209 -0.357075 1.185 15 33 11
0.202049 -0.357075 1.185 16 34 12
0.204062 -0.357376 1.186 17 35 13
0.205903 -0.357376 1.186 17 35 13
0.207745 -0.357376 1.186 17 35 13
0.209587 -0.357376 1.186 16 33 13
0.211429 -0.357376 1.186 15 32 12
0.213271 -0.357376 1.186 17 34 14
0.214932 -0.357075 1.185 17 34 14
0.216772 -0.357075 1.185 17 34 14
0.218612 -0.357075 1.185 17 34 14
0.220453 -0.357075 1.185 17 34 14
0.222293 -0.357075 1.185 16 33 13
0.223944 -0.356773 1.184 16 33 13
0.225783 -0.356773 1.184 16 33 13
0.227622 -0.356773 1.184 16 33 13
0.22946 -0.356773 1.184 16 33 13
0.231495 -0.357075 1.185 13 30 10
0.233335 -0.357075 1.185 11 28 8
0.235175 -0.357075 1.185 13 30 10
0.237216 -0.357376 1.186 13 30 10
0.239259 -0.357677 1.187 15 30 10
0.241103 -0.357677 1.187 13 28 8
0.242946 -0.357677 1.187 15 30 10
0.244996 -0.357979 1.188 15 30 10
0.247049 -0.35828 1.189 13 28 8
0.249104 -0.358581 1.19 12 27 7
0.250953 -0.358581 1.19 11 25 8
0.254863 -0.358883 1.191 10 24 7
0.256928 -0.359184 1.192 10 24 7
0.258779 -0.359184 1.192 12 23 7
0.26063 -0.359184 1.192 12 23 7
0.262702 -0.359485 1.193 12 23 7
0.264555 -0.359485 1.193 12 23 7
0.266407 -0.359485 1.193 13 24 8
0.268035 -0.359184 1.192 13 24 8
0.26966 -0.358883 1.191 11 22 8
0.271282 -0.358581 1.19 12 23 9
0.2729 -0.35828 1.189 11 22 8
0.274285 -0.357677 1.187 11 22 8
0.275663 -0.357075 1.185 12 23 9
0.277503 -0.357075 1.185 11 22 8
0.278872 -0.356472 1.183 12 23 9
0.280472 -0.356171 1.182 12 23 9
0.28183 -0.355568 1.18 12 23 9
0.283422 -0.355267 1.179 12 23 9
0.285011 -0.354965 1.178 12 23 9
0.286841 -0.354965 1.178 12 23 9
0.288425 -0.354664 1.177 13 23 11
0.290007 -0.354363 1.176 13 23 11
0.291585 -0.354061 1.175 13 23 11
0.29341 -0.354061 1.175 13 23 11
0.295234 -0.354061 1.175 14 24 12
0.297059 -0.354061 1.175 15 25 13
0.298884 -0.354061 1.175 12 25 12
0.300709 -0.354061 1.175 15 28 15
0.302534 -0.354061 1.175 13 27 12
0.304359 -0.354061 1.175 12 26 11
0.306183 -0.354061 1.175 13 27 12
0.308008 -0.354061 1.175 12 26 11
0.310097 -0.354363 1.176 13 27 12
0.312188 -0.354664 1.177 13 27 12
0.314016 -0.354664 1.177 13 27 12
0.315844 -0.354664 1.177 12 26 11
0.317942 -0.354965 1.178 12 26 11
0.319771 -0.354965 1.178 12 26 11
0.321601 -0.354965 1.178 12 26 11
0.32343 -0.354965 1.178 12 26 11
0.32526 -0.354965 1.178 12 26 11
0.327089 -0.354965 1.178 11 25 10
0.329198 -0.355267 1.179 12 26 11
0.33131 -0.355568 1.18 15 29 14
0.333425 -0.355869 1.181 13 26 13
0.335543 -0.356171 1.182 15 28 15
0.337378 -0.356171 1.182 13 26 13
0.339788 -0.356773 1.184 12 25 12
0.341915 -0.357075 1.185 13 26 13
0.344336 -0.357677 1.187 13 26 13
0.346471 -0.357979 1.188 12 25 12
0.348902 -0.358581 1.19 11 24 11
0.35075 -0.358581 1.19 11 24 11
0.352895 -0.358883 1.191 9 22 9
0.355042 -0.359184 1.192 11 24 11
0.356894 -0.359184 1.192 12 25 12
0.358745 -0.359184 1.192 12 24 14
0.360596 -0.359184 1.192 15 27 17
0.362447 -0.359184 1.192 13 26 18
0.364299 -0.359184 1.192 13 26 18
0.36615 -0.359184 1.192 10 20 22
0.368001 -0.359184 1.192 35 45 47
0.369852 -0.359184 1.192 42 51 55
0.371703 -0.359184 1.192 35 44 48
0.373241 -0.358883 1.191 35 44 48
0.374776 -0.358581 1.19 36 45 49
0.376624 -0.358581 1.19 35 43 50
0.378154 -0.35828 1.189 32 40 47
0.379681 -0.357979 1.188 35 43 50
0.381205 -0.357677 1.187 32 40 47
0.383048 -0.357677 1.187 32 40 47
0.384243 -0.357075 1.185 34 42 49
-0.136879 -0.292879 0.977 45 45 45
-0.135639 -0.293479 0.979 44 44 44
-0.134255 -0.293778 0.98 40 40 40
-0.132869 -0.294078 0.981 41 41 41
-0.131479 -0.294378 0.982 41 45 44
-0.129954 -0.294378 0.982 40 44 43
-0.128429 -0.294378 0.982 38 42 41
-0.127162 -0.294978 0.984 38 42 41
-0.125634 -0.294978 0.984 43 48 44
-0.124106 -0.294978 0.984 42 47 43
-0.122578 -0.294978 0.984 40 45 41
-0.120927 -0.294678 0.983 33 38 34
-0.119521 -0.294978 0.984 27 31 30
-0.121543 -0.354333 1.182 9 15 8
-0.119707 -0.354333 1.182 8 14 7
-0.117872 -0.354333 1.182 6 14 7
-0.114297 -0.354633 1.183 10 19 10
-0.112555 -0.354932 1.184 11 20 11
-0.110716 -0.354932 1.184 12 21 12
-0.108877 -0.354932 1.184 12 21 12
-0.107129 -0.355232 1.185 13 23 11
-0.105289 -0.355232 1.185 14 24 12
-0.103448 -0.355232 1.185 15 26 12
-0.101694 -0.355532 1.186 17 28 14
-0.0999359 -0.355832 1.187 19 30 14
-0.0980925 -0.355832 1.187 19 30 14
-0.096249 -0.355832 1.187 22 33 17
-0.0944056 -0.355832 1.187 21 32 16
-0.0925621 -0.355832 1.187 19 33 16
-0.0907186 -0.355832 1.187 17 31 14
-0.0888752 -0.355832 1.187 17 31 14
-0.0870317 -0.355832 1.187 13 27 10
-0.0851883 -0.355832 1.187 13 27 10
-0.0833448 -0.355832 1.187 16 30 13
-0.0815014 -0.355832 1.187 16 30 13
-0.0796579 -0.355832 1.187 16 30 13
-0.0778145 -0.355832 1.187 15 29 12
-0.075971 -0.355832 1.187 16 30 13
-0.0741276 -0.355832 1.187 17 31 14
-0.0722232 -0.355532 1.186 17 31 14
-0.0703813 -0.355532 1.186 15 29 12
-0.0685394 -0.355532 1.186 15 29 12
-0.0666975 -0.355532 1.186 15 29 12
-0.0648556 -0.355532 1.186 16 30 13
-0.0630137 -0.355532 1.186 16 30 13
-0.0611718 -0.355532 1.186 15 29 12
-0.05938 -0.355832 1.187 13 27 10
-0.0575365 -0.355832 1.187 13 27 10
-0.0556931 -0.355832 1.187 12 26 9
-0.0539404 -0.356431 1.189 13 27 10
-0.0521376 -0.356731 1.19 15 26 10
-0.0502895 -0.356731 1.19 15 26 10
-0.0484414 -0.356731 1.19 15 30 10
-0.0466716 -0.357331 1.192 15 30 10
-0.0448204 -0.357331 1.192 16 31 11
-0.0430052 -0.35763 1.193 16 31 11
-0.0393655 -0.35823 1.195 16 31 11
-0.0375097 -0.35823 1.195 16 31 11
-0.0356836 -0.35853 1.196 16 31 11
-0.0338262 -0.35853 1.196 16 32 10
-0.0319955 -0.358829 1.197 16 32 10
-0.0301365 -0.358829 1.197 16 32 10
-0.0282775 -0.358829 1.197 15 31 9
-0.0264406 -0.359129 1.198 13 30 5
-0.0245801 -0.359129 1.198 16 33 8
-0.0227006 -0.358829 1.197 17 34 9
-0.0208068 -0.35823 1.195 16 33 8
-0.0189509 -0.35823 1.195 17 34 9
-0.0170807 -0.35793 1.194 17 34 9
-0.0152009 -0.357331 1.192 17 33 11
-0.0133497 -0.357331 1.192 15 31 9
-0.0114792 -0.356731 1.19 13 29 7
-0.00963107 -0.356731 1.19 13 29 7
-0.00778295 -0.356731 1.19 15 31 9
-0.00592986 -0.356431 1.189 17 33 11
-0.0040833 -0.356431 1.189 15 31 9
-0.00223674 -0.356431 1.189 16 32 10
-0.000390184 -0.356431 1.189 17 33 11
0.00145637 -0.356431 1.189 10 26 4
0.00330293 -0.356431 1.189 7 24 4
0.00514949 -0.356431 1.189 66 83 63
0.00699605 -0.356431 1.189 49 66 46
0.0088426 -0.356431 1.189 6 23 3
0.0106982 -0.356731 1.19 12 27 7
0.0125463 -0.356731 1.19 16 31 11
0.0143944 -0.356731 1.19 15 30 10
0.0162425 -0.356731 1.19 13 28 8
0.0180906 -0.356731 1.19 15 31 9
0.0199387 -0.356731 1.19 15 31 9
0.0217868 -0.356731 1.19 15 31 9
0.0236548 -0.357031 1.191 16 32 10
0.0255044 -0.357031 1.191 17 33 11
0.0273541 -0.357031 1.191 16 32 10
0.0292283 -0.357331 1.192 17 33 11
0.0310534 -0.357031 1.191 16 32 10
0.0329307 -0.357331 1.192 16 32 10
0.0347528 -0.357031 1.191 18 34 12
0.0366332 -0.357331 1.192 18 34 12
0.0384844 -0.357331 1.192 18 34 12
0.0402679 -0.356731 1.19 18 34 12
0.0421514 -0.357031 1.191 18 34 12
0.0439641 -0.356731 1.19 17 33 11
0.0458123 -0.356731 1.19 16 32 10
0.0476203 -0.356431 1.189 17 33 11
0.0494253 -0.356131 1.188 17 33 11
0.0512271 -0.355832 1.187 17 33 11
0.0530259 -0.355532 1.186 17 33 11
0.0548215 -0.355232 1.185 16 32 10
0.056614 -0.354932 1.184 17 33 11
0.0583541 -0.354333 1.182 19 35 13
0.0601898 -0.354333 1.182 19 35 13
0.0620254 -0.354333 1.182 19 35 13
0.0638071 -0.354033 1.181 18 34 12
0.0655857 -0.353733 1.18 18 34 12
0.0674182 -0.353733 1.18 17 33 11
0.0692508 -0.353733 1.18 17 33 11
0.0710834 -0.353733 1.18 18 34 12
0.072916 -0.353733 1.18 19 35 13
0.0747486 -0.353733 1.18 18 34 12
0.0765811 -0.353733 1.18 18 34 12
0.0784802 -0.354033 1.181 18 34 12
0.0803143 -0.354033 1.181 18 34 12
0.082218 -0.354333 1.182 18 34 12
0.0840537 -0.354333 1.182 18 34 12
0.085962 -0.354633 1.183 18 34 12
0.0877993 -0.354633 1.183 19 35 13
0.0897123 -0.354932 1.184 18 34 12
0.0914737 -0.354633 1.183 17 33 11
0.093311 -0.354633 1.183 18 34 12
0.0951482 -0.354633 1.183 20 36 14
0.0970675 -0.354932 1.184 19 35 13
0.0988227 -0.354633 1.183 20 36 14
0.100745 -0.354932 1.184 19 35 13
0.102584 -0.354932 1.184 18 34 12
0.104423 -0.354932 1.184 19 35 13
0.106351 -0.355232 1.185 19 35 13
0.108192 -0.355232 1.185 20 36 14
0.110032 -0.355232 1.185 22 39 14
0.111872 -0.355232 1.185 19 36 11
0.113617 -0.354932 1.184 18 35 10
0.115455 -0.354932 1.184 18 35 10
0.117294 -0.354932 1.184 18 35 10
0.119032 -0.354633 1.183 19 36 11
0.120767 -0.354333 1.182 19 36 11
0.122603 -0.354333 1.182 19 36 11
0.124439 -0.354333 1.182 20 37 12
0.126274 -0.354333 1.182 20 37 12
0.128002 -0.354033 1.181 20 39 14
0.129836 -0.354033 1.181 20 39 14
0.13167 -0.354033 1.181 20 38 16
0.133391 -0.353733 1.18 20 38 16
0.135224 -0.353733 1.18 17 35 13
0.137056 -0.353733 1.18 17 35 13
0.138771 -0.353434 1.179 16 34 12
0.140602 -0.353434 1.179 17 35 13
0.142433 -0.353434 1.179 16 34 12
0.146219 -0.353733 1.18 21 39 17
0.148052 -0.353733 1.18 18 36 14
0.151845 -0.354033 1.181 16 34 12
0.15368 -0.354033 1.181 16 34 12
0.155645 -0.354333 1.182 20 38 16
0.157481 -0.354333 1.182 20 38 16
0.159317 -0.354333 1.182 20 38 16
0.161289 -0.354633 1.183 20 38 16
0.163264 -0.354932 1.184 16 34 12
0.165242 -0.355232 1.185 16 34 12
0.167083 -0.355232 1.185 17 35 13
0.169065 -0.355532 1.186 18 36 14
0.171051 -0.355832 1.187 17 35 13
0.172895 -0.355832 1.187 17 35 13
0.174738 -0.355832 1.187 17 35 13
0.176582 -0.355832 1.187 17 35 13
0.178425 -0.355832 1.187 18 36 14
0.180269 -0.355832 1.187 18 36 14
0.182112 -0.355832 1.187 18 36 14
0.183801 -0.355532 1.186 18 36 14
0.185486 -0.355232 1.185 18 36 14
0.187326 -0.355232 1.185 18 36 14
0.189167 -0.355232 1.185 17 35 13
0.191007 -0.355232 1.185 18 36 14
0.192847 -0.355232 1.185 15 33 11
0.194688 -0.355232 1.185 18 36 14
0.196528 -0.355232 1.185 17 35 13
0.200378 -0.355532 1.186 15 33 11
0.20222 -0.355532 1.186 15 33 11
0.204062 -0.355532 1.186 17 35 13
0.206077 -0.355832 1.187 18 36 14
0.20792 -0.355832 1.187 18 36 14
0.209764 -0.355832 1.187 17 35 13
0.211607 -0.355832 1.187 15 33 11
0.213451 -0.355832 1.187 16 34 12
0.215113 -0.355532 1.186 17 35 13
0.216955 -0.355532 1.186 17 35 13
0.218612 -0.355232 1.185 17 35 13
0.220453 -0.355232 1.185 17 35 13
0.222293 -0.355232 1.185 17 35 13
0.224133 -0.355232 1.185 16 34 12
0.225974 -0.355232 1.185 16 34 12
0.227814 -0.355232 1.185 17 35 13
0.229654 -0.355232 1.185 17 35 13
0.231495 -0.355232 1.185 16 33 13
0.233335 -0.355232 1.185 15 32 12
0.235175 -0.355232 1.185 17 32 12
0.237216 -0.355532 1.186 16 31 11
0.239058 -0.355532 1.186 16 31 11
0.241103 -0.355832 1.187 15 30 10
0.242946 -0.355832 1.187 16 31 11
0.24479 -0.355832 1.187 15 30 10
0.246841 -0.356131 1.188 12 27 7
0.248895 -0.356431 1.189 11 26 6
0.250953 -0.356731 1.19 10 24 7
0.252801 -0.356731 1.19 9 23 6
0.254649 -0.356731 1.19 9 23 6
0.256712 -0.357031 1.191 10 24 7
0.26063 -0.357331 1.192 10 24 7
0.262482 -0.357331 1.192 12 23 7
0.264333 -0.357331 1.192 12 23 7
0.266184 -0.357331 1.192 12 23 7
0.268035 -0.357331 1.192 12 23 7
0.269886 -0.357331 1.192 12 23 7
0.27151 -0.357031 1.191 12 23 7
0.27313 -0.356731 1.19 11 22 8
0.274516 -0.356131 1.188 12 23 9
0.276128 -0.355832 1.187 12 23 9
0.277503 -0.355232 1.185 12 23 9
0.279108 -0.354932 1.184 12 23 9
0.280709 -0.354633 1.183 12 23 9
0.282069 -0.354033 1.181 12 23 9
0.283663 -0.353733 1.18 12 23 9
0.285253 -0.353434 1.179 13 24 10
0.286841 -0.353134 1.178 13 24 10
0.288425 -0.352834 1.177 14 24 12
0.290007 -0.352534 1.176 13 23 11
0.291585 -0.352234 1.175 12 22 10
0.29341 -0.352234 1.175 13 23 11
0.295234 -0.352234 1.175 13 23 11
0.296806 -0.351935 1.174 13 23 11
0.298884 -0.352234 1.175 14 24 12
0.300453 -0.351935 1.174 14 24 12
0.302534 -0.352234 1.175 12 26 11
0.304359 -0.352234 1.175 13 27 12
0.306183 -0.352234 1.175 15 29 14
0.30827 -0.352534 1.176 13 27 12
0.310097 -0.352534 1.176 15 29 14
0.312188 -0.352834 1.177 15 29 14
0.314283 -0.353134 1.178 15 29 14
0.315844 -0.352834 1.177 13 27 12
0.317942 -0.353134 1.178 13 27 12
0.319771 -0.353134 1.178 12 26 11
0.321601 -0.353134 1.178 13 27 12
0.32343 -0.353134 1.178 13 27 12
0.325536 -0.353434 1.179 13 27 12
0.327645 -0.353733 1.18 13 27 12
0.329477 -0.353733 1.18 13 27 12
0.33131 -0.353733 1.18 13 27 12
0.333425 -0.354033 1.181 13 27 12
0.335543 -0.354333 1.182 16 30 15
0.337664 -0.354633 1.183 13 27 12
0.340075 -0.355232 1.185 13 27 12
0.342204 -0.355532 1.186 12 26 11
0.344336 -0.355832 1.187 13 27 12
0.346763 -0.356431 1.189 15 29 14
0.348902 -0.356731 1.19 11 25 10
0.351045 -0.357031 1.191 11 24 11
0.353191 -0.357331 1.192 11 24 11
0.355042 -0.357331 1.192 12 25 12
0.356894 -0.357331 1.192 12 25 12
0.359046 -0.35763 1.193 12 24 14
0.360596 -0.357331 1.192 13 25 15
0.362447 -0.357331 1.192 11 24 16
0.364299 -0.357331 1.192 9 22 14
0.36615 -0.357331 1.192 10 21 20
0.368001 -0.357331 1.192 36 47 46
0.369852 -0.357331 1.192 41 51 53
0.371703 -0.357331 1.192 32 42 44
0.373241 -0.357031 1.191 31 40 44
0.374776 -0.356731 1.19 32 41 45
0.376624 -0.356731 1.19 31 40 44
0.378154 -0.356431 1.189 34 43 47
0.379681 -0.356131 1.188 36 44 51
0.380884 -0.355532 1.186 34 42 49
0.382726 -0.355532 1.186 34 42 49
0.384568 -0.355532 1.186 34 42 49
-0.136599 -0.290764 0.975 43 43 43
-0.135362 -0.29136 0.977 41 41 41
-0.134118 -0.291956 0.979 41 41 41
-0.132598 -0.291956 0.979 40 40 40
-0.131211 -0.292255 0.98 41 41 41
-0.129822 -0.292553 0.981 40 40 40
-0.128298 -0.292553 0.981 40 40 40
-0.126904 -0.292851 0.982 40 40 40
-0.125251 -0.292553 0.981 40 40 40
-0.123854 -0.292851 0.982 40 40 40
-0.122329 -0.292851 0.982 42 47 43
-0.120927 -0.293149 0.983 43 48 44
-0.119278 -0.292851 0.982 40 44 43
-0.117753 -0.292851 0.982 28 32 31
-0.119707 -0.352495 1.182 5 10 6
-0.116036 -0.352495 1.182 6 12 5
-0.114297 -0.352793 1.183 4 12 5
-0.110716 -0.353091 1.184 10 19 10
-0.108969 -0.35339 1.185 10 19 10
-0.107129 -0.35339 1.185 6 16 4
-0.105289 -0.35339 1.185 6 16 4
-0.103448 -0.35339 1.185 12 23 9
-0.101779 -0.353986 1.187 17 28 14
-0.0999359 -0.353986 1.187 18 29 15
-0.0980098 -0.353688 1.186 18 29 15
-0.096249 -0.353986 1.187 20 31 15
-0.0944056 -0.353986 1.187 27 38 22
-0.0925621 -0.353986 1.187 22 33 17
-0.0907186 -0.353986 1.187 17 28 12
-0.0888752 -0.353986 1.187 17 28 12
-0.0870317 -0.353986 1.187 14 25 9
-0.0851883 -0.353986 1.187 15 26 10
-0.0833448 -0.353986 1.187 17 28 12
-0.0815014 -0.353986 1.187 18 29 13
-0.0796579 -0.353986 1.187 18 29 13
-0.0778145 -0.353986 1.187 18 29 13
-0.075907 -0.353688 1.186 19 30 14
-0.0740651 -0.353688 1.186 20 31 15
-0.0722232 -0.353688 1.186 20 31 15
-0.0703813 -0.353688 1.186 17 28 12
-0.0684817 -0.35339 1.185 17 28 12
-0.0666413 -0.35339 1.185 17 28 12
-0.064801 -0.35339 1.185 17 28 12
-0.0629606 -0.35339 1.185 17 28 12
-0.0611203 -0.35339 1.185 17 28 12
-0.0592799 -0.35339 1.185 17 28 12
-0.0574881 -0.353688 1.186 15 26 10
-0.0556931 -0.353986 1.187 15 26 10
-0.0538496 -0.353986 1.187 15 26 10
-0.05205 -0.354284 1.188 15 27 8
-0.0502895 -0.354881 1.19 17 29 10
-0.0484414 -0.354881 1.19 15 30 10
-0.0466324 -0.355179 1.191 13 28 8
-0.0448204 -0.355477 1.192 15 30 10
-0.0429692 -0.355477 1.192 13 28 8
-0.0393326 -0.356074 1.194 13 28 8
-0.0375097 -0.356372 1.195 15 31 9
-0.0356538 -0.356372 1.195 13 29 7
-0.0337979 -0.356372 1.195 16 32 10
-0.0319688 -0.35667 1.196 17 33 11
-0.0301365 -0.356968 1.197 17 34 9
-0.0282539 -0.35667 1.196 16 33 8
-0.0263965 -0.35667 1.196 16 33 8
-0.0245185 -0.356372 1.195 15 32 7
-0.0226627 -0.356372 1.195 17 34 9
-0.0208068 -0.356372 1.195 15 32 7
-0.0189351 -0.356074 1.194 16 33 8
-0.0170664 -0.355775 1.193 16 33 8
-0.0152009 -0.355477 1.192 17 33 11
-0.0133385 -0.355179 1.191 15 31 9
-0.0114792 -0.354881 1.19 13 29 7
-0.00963107 -0.354881 1.19 15 31 9
-0.00778295 -0.354881 1.19 16 32 10
-0.00592986 -0.354582 1.189 17 33 11
-0.0040833 -0.354582 1.189 15 31 9
-0.00223674 -0.354582 1.189 15 31 9
-0.000390184 -0.354582 1.189 16 32 10
0.00145637 -0.354582 1.189 8 24 2
0.00330293 -0.354582 1.189 8 25 5
0.00514949 -0.354582 1.189 73 90 70
0.00699605 -0.354582 1.189 40 59 39
0.0088426 -0.354582 1.189 4 23 3
0.0106892 -0.354582 1.189 11 28 8
0.0125463 -0.354881 1.19 15 32 12
0.0143944 -0.354881 1.19 14 32 10
0.0162425 -0.354881 1.19 11 29 7
0.0180906 -0.354881 1.19 15 31 9
0.0199387 -0.354881 1.19 16 32 10
0.0217868 -0.354881 1.19 16 32 10
0.0236349 -0.354881 1.19 16 32 10
0.0255044 -0.355179 1.191 17 33 11
0.0273541 -0.355179 1.191 15 31 9
0.0292038 -0.355179 1.191 17 33 11
0.0310534 -0.355179 1.191 18 34 12
0.0329031 -0.355179 1.191 18 34 12
0.0347528 -0.355179 1.191 20 36 14
0.0366024 -0.355179 1.191 19 35 13
0.0384521 -0.355179 1.191 17 33 11
0.0402679 -0.354881 1.19 17 33 11
0.042116 -0.354881 1.19 16 32 10
0.0439641 -0.354881 1.19 16 32 10
0.0457738 -0.354582 1.189 15 31 9
0.0476203 -0.354582 1.189 17 33 11
0.0494253 -0.354284 1.188 17 33 11
0.0512271 -0.353986 1.187 18 34 12
0.0530259 -0.353688 1.186 18 34 12
0.0548215 -0.35339 1.185 18 34 12
0.0566618 -0.35339 1.185 19 35 13
0.0584034 -0.352793 1.183 19 35 13
0.0601898 -0.352495 1.182 18 34 12
0.0620254 -0.352495 1.182 18 35 10
0.0638071 -0.352197 1.181 18 35 10
0.0655857 -0.351899 1.18 18 35 10
0.0674182 -0.351899 1.18 16 33 8
0.0692508 -0.351899 1.18 17 34 9
0.0710834 -0.351899 1.18 18 35 10
0.072916 -0.351899 1.18 18 35 10
0.0747486 -0.351899 1.18 19 36 11
0.0765811 -0.351899 1.18 18 35 10
0.0784137 -0.351899 1.18 18 35 10
0.0803143 -0.352197 1.181 18 35 10
0.082218 -0.352495 1.182 17 34 9
0.0840537 -0.352495 1.182 17 34 9
0.085962 -0.352793 1.183 17 34 9
0.0877993 -0.352793 1.183 18 35 10
0.0896365 -0.352793 1.183 19 36 11
0.0914737 -0.352793 1.183 18 35 10
0.093311 -0.352793 1.183 18 35 10
0.0950678 -0.352495 1.182 19 36 11
0.0969855 -0.352793 1.183 19 36 11
0.0988227 -0.352793 1.183 20 37 12
0.100745 -0.353091 1.184 20 37 12
0.102584 -0.353091 1.184 20 37 12
0.104423 -0.353091 1.184 20 37 12
0.106261 -0.353091 1.184 20 37 12
0.108192 -0.35339 1.185 22 39 14
0.110032 -0.35339 1.185 20 37 12
0.111872 -0.35339 1.185 20 37 12
0.113617 -0.353091 1.184 19 36 11
0.115455 -0.353091 1.184 19 36 11
0.117294 -0.353091 1.184 19 36 11
0.119032 -0.352793 1.183 19 36 11
0.12087 -0.352793 1.183 19 36 11
0.122603 -0.352495 1.182 19 36 11
0.124439 -0.352495 1.182 17 36 11
0.126274 -0.352495 1.182 17 36 11
0.12811 -0.352495 1.182 18 37 12
0.129946 -0.352495 1.182 17 36 11
0.13167 -0.352197 1.181 17 36 11
0.133504 -0.352197 1.181 17 36 11
0.135224 -0.351899 1.18 17 35 13
0.137172 -0.352197 1.181 18 36 14
0.138771 -0.3516 1.179 17 35 13
0.140602 -0.3516 1.179 18 36 14
0.144387 -0.351899 1.18 21 39 17
0.146219 -0.351899 1.18 20 38 16
0.148052 -0.351899 1.18 17 35 13
0.149884 -0.351899 1.18 16 34 12
0.151717 -0.351899 1.18 16 34 12
0.155645 -0.352495 1.182 20 38 16
0.157481 -0.352495 1.182 20 38 16
0.159452 -0.352793 1.183 20 38 16
0.161153 -0.352495 1.182 20 39 14
0.163264 -0.353091 1.184 16 35 10
0.165242 -0.35339 1.185 17 36 11
0.167083 -0.35339 1.185 16 35 10
0.169065 -0.353688 1.186 17 36 11
0.171051 -0.353986 1.187 16 35 10
0.172895 -0.353986 1.187 17 36 11
0.174738 -0.353986 1.187 18 37 12
0.176582 -0.353986 1.187 18 37 12
0.178425 -0.353986 1.187 20 39 14
0.180269 -0.353986 1.187 20 39 14
0.182112 -0.353986 1.187 18 37 12
0.183801 -0.353688 1.186 18 37 12
0.185486 -0.35339 1.185 17 36 11
0.187326 -0.35339 1.185 18 37 12
0.189167 -0.35339 1.185 17 36 11
0.191007 -0.35339 1.185 18 37 12
0.192847 -0.35339 1.185 16 35 10
0.194688 -0.35339 1.185 17 36 11
0.196528 -0.35339 1.185 17 36 11
0.200378 -0.353688 1.186 15 34 9
0.20239 -0.353986 1.187 16 35 10
0.204234 -0.353986 1.187 18 37 12
0.206077 -0.353986 1.187 18 37 12
0.208096 -0.354284 1.188 18 37 12
0.209941 -0.354284 1.188 17 36 11
0.211786 -0.354284 1.188 15 34 9
0.213631 -0.354284 1.188 17 35 13
0.215294 -0.353986 1.187 16 34 12
0.217138 -0.353986 1.187 17 35 13
0.218981 -0.353986 1.187 17 35 13
0.220825 -0.353986 1.187 17 35 13
0.222668 -0.353986 1.187 18 36 14
0.224512 -0.353986 1.187 17 35 13
0.226164 -0.353688 1.186 17 35 13
0.228006 -0.353688 1.186 17 35 13
0.229848 -0.353688 1.186 17 35 13
0.23169 -0.353688 1.186 17 35 13
0.233729 -0.353986 1.187 15 33 11
0.235572 -0.353986 1.187 16 34 12
0.237416 -0.353986 1.187 15 33 11
0.239259 -0.353986 1.187 15 31 9
0.241103 -0.353986 1.187 13 29 7
0.242946 -0.353986 1.187 13 29 7
0.24479 -0.353986 1.187 13 29 7
0.246841 -0.354284 1.188 12 27 7
0.248686 -0.354284 1.188 12 27 7
0.250742 -0.354582 1.189 10 24 7
0.252801 -0.354881 1.19 9 23 6
0.254649 -0.354881 1.19 9 23 6
0.258562 -0.355179 1.191 10 24 7
0.26063 -0.355477 1.192 10 24 7
0.262482 -0.355477 1.192 12 23 7
0.264555 -0.355775 1.193 12 23 7
0.266407 -0.355775 1.193 12 23 7
0.26826 -0.355775 1.193 12 23 7
0.270339 -0.356074 1.194 10 24 7
0.271738 -0.355477 1.192 10 24 7
0.273589 -0.355477 1.192 9 23 8
0.274978 -0.354881 1.19 11 25 10
0.276593 -0.354582 1.189 12 26 11
0.277972 -0.353986 1.187 13 27 12
0.279344 -0.35339 1.185 13 27 12
0.280947 -0.353091 1.184 13 27 12
0.282547 -0.352793 1.183 11 25 10
0.283903 -0.352197 1.181 11 25 10
0.285495 -0.351899 1.18 13 24 10
0.286841 -0.351302 1.178 13 24 10
0.28867 -0.351302 1.178 14 25 11
0.290253 -0.351004 1.177 13 24 10
0.291585 -0.350407 1.175 13 24 10
0.29341 -0.350407 1.175 14 25 11
0.294983 -0.350109 1.174 13 24 10
0.296806 -0.350109 1.174 12 23 9
0.29863 -0.350109 1.174 13 24 10
0.300453 -0.350109 1.174 13 24 10
0.302534 -0.350407 1.175 12 26 11
0.304359 -0.350407 1.175 15 29 14
0.306183 -0.350407 1.175 15 29 14
0.308008 -0.350407 1.175 13 27 12
0.309833 -0.350407 1.175 15 29 14
0.311923 -0.350706 1.176 13 27 12
0.314016 -0.351004 1.177 15 29 14
0.315844 -0.351004 1.177 13 27 12
0.318212 -0.3516 1.179 13 27 12
0.320043 -0.3516 1.179 12 26 11
0.321874 -0.3516 1.179 13 27 12
0.323979 -0.351899 1.18 13 27 12
0.325812 -0.351899 1.18 13 27 12
0.327922 -0.352197 1.181 13 27 12
0.330036 -0.352495 1.182 13 27 12
0.331871 -0.352495 1.182 13 27 12
0.333707 -0.352495 1.182 15 29 14
0.33611 -0.353091 1.184 16 30 15
0.338235 -0.35339 1.185 15 29 14
0.340362 -0.353688 1.186 16 30 15
0.342492 -0.353986 1.187 15 29 14
0.344916 -0.354582 1.189 15 29 14
0.347054 -0.354881 1.19 13 27 12
0.349196 -0.355179 1.191 11 25 10
0.35134 -0.355477 1.192 12 25 12
0.353191 -0.355477 1.192 12 25 12
0.35534 -0.355775 1.193 12 25 12
0.357492 -0.356074 1.194 12 25 12
0.359046 -0.355775 1.193 12 24 14
0.360899 -0.355775 1.193 12 24 14
0.362447 -0.355477 1.192 11 24 16
0.364299 -0.355477 1.192 6 19 11
0.36615 -0.355477 1.192 9 20 19
0.368001 -0.355477 1.192 36 47 46
0.369852 -0.355477 1.192 38 48 50
0.371392 -0.355179 1.191 30 40 42
0.373241 -0.355179 1.191 30 40 42
0.374776 -0.354881 1.19 31 41 43
0.376308 -0.354582 1.189 34 41 45
0.377836 -0.354284 1.188 37 44 48
0.379361 -0.353986 1.187 35 44 48
0.380563 -0.35339 1.185 34 43 47
0.382403 -0.35339 1.185 34 42 49
0.383919 -0.353091 1.184 34 42 49
-0.136459 -0.288951 0.974 43 43 43
-0.135084 -0.289248 0.975 43 43 43
-0.133844 -0.289841 0.977 43 43 43
-0.132462 -0.290138 0.978 41 41 41
-0.130944 -0.290138 0.978 41 41 41
-0.129557 -0.290434 0.979 41 41 41
-0.128167 -0.290731 0.98 43 43 43
-0.126645 -0.290731 0.98 41 41 41
-0.125251 -0.291028 0.981 43 43 43
-0.123601 -0.290731 0.98 41 41 41
-0.122079 -0.290731 0.98 38 42 41
-0.120681 -0.291028 0.981 43 47 46
-0.119157 -0.291028 0.981 44 48 47
-0.117514 -0.290731 0.98 33 37 36
-0.115992 -0.290731 0.98 21 25 24
-0.116134 -0.350954 1.183 14 19 15
-0.114394 -0.35125 1.184 14 20 13
-0.11265 -0.351547 1.185 15 21 14
-0.110716 -0.35125 1.184 11 20 11
-0.108969 -0.351547 1.185 10 19 10
-0.107129 -0.351547 1.185 12 21 12
-0.105377 -0.351844 1.186 12 21 12
-0.103536 -0.351844 1.186 11 21 9
-0.101779 -0.35214 1.187 15 25 13
-0.0999359 -0.35214 1.187 18 29 15
-0.0980925 -0.35214 1.187 18 29 15
-0.096249 -0.35214 1.187 18 29 13
-0.0944056 -0.35214 1.187 18 29 13
-0.0925621 -0.35214 1.187 18 29 13
-0.0907186 -0.35214 1.187 17 28 12
-0.0888003 -0.351844 1.186 15 26 10
-0.0870317 -0.35214 1.187 17 28 12
-0.0851883 -0.35214 1.187 18 29 13
-0.0833448 -0.35214 1.187 18 29 13
-0.0815014 -0.35214 1.187 17 28 12
-0.0796579 -0.35214 1.187 18 29 13
-0.0778145 -0.35214 1.187 19 30 14
-0.075971 -0.35214 1.187 19 30 14
-0.0740651 -0.351844 1.186 17 28 12
-0.0721623 -0.351547 1.185 18 29 13
-0.070322 -0.351547 1.185 15 26 10
-0.0684817 -0.351547 1.185 17 28 12
-0.0666413 -0.351547 1.185 17 28 12
-0.064801 -0.351547 1.185 17 28 12
-0.0629606 -0.351547 1.185 15 26 10
-0.0611203 -0.351547 1.185 17 28 12
-0.0592799 -0.351547 1.185 18 29 13
-0.0574881 -0.351844 1.186 18 29 13
-0.0556462 -0.351844 1.186 17 28 12
-0.0538496 -0.35214 1.187 17 28 12
-0.0520062 -0.35214 1.187 15 27 8
-0.050205 -0.352437 1.188 17 29 10
-0.0484007 -0.352734 1.189 17 29 10
-0.0465541 -0.352734 1.189 17 29 10
-0.0447452 -0.35303 1.19 15 30 10
-0.0429331 -0.353327 1.191 13 28 8
-0.0410834 -0.353327 1.191 13 28 8
-0.0392667 -0.353624 1.192 15 30 10
-0.0374469 -0.35392 1.193 16 32 10
-0.0355941 -0.35392 1.193 15 31 9
-0.0337414 -0.35392 1.193 15 31 9
-0.031942 -0.354514 1.195 15 31 9
-0.0300862 -0.354514 1.195 15 32 7
-0.0282303 -0.354514 1.195 17 34 9
-0.0263744 -0.354514 1.195 17 34 9
-0.0245185 -0.354514 1.195 18 35 10
-0.0226437 -0.354217 1.194 17 34 9
-0.0207894 -0.354217 1.194 16 33 8
-0.0189192 -0.35392 1.193 15 32 7
-0.0170521 -0.353624 1.192 16 33 8
-0.0151881 -0.353327 1.191 17 33 11
-0.0133385 -0.353327 1.191 15 31 9
-0.0114792 -0.35303 1.19 13 31 9
-0.00963107 -0.35303 1.19 14 32 10
-0.00777641 -0.352734 1.189 15 33 11
-0.00592986 -0.352734 1.189 14 32 10
-0.0040833 -0.352734 1.189 14 32 10
-0.00223674 -0.352734 1.189 13 31 9
-0.000390184 -0.352734 1.189 10 28 6
0.00145637 -0.352734 1.189 1 19 0
0.00330293 -0.352734 1.189 13 30 10
0.00514949 -0.352734 1.189 70 87 67
0.00699605 -0.352734 1.189 24 41 21
0.0088426 -0.352734 1.189 7 24 4
0.0106892 -0.352734 1.189 15 32 12
0.0125357 -0.352734 1.189 15 32 12
0.0143823 -0.352734 1.189 15 33 11
0.0162288 -0.352734 1.189 14 32 10
0.0180754 -0.352734 1.189 13 31 9
0.0199387 -0.35303 1.19 14 32 10
0.0217685 -0.352734 1.189 17 33 11
0.0236349 -0.35303 1.19 17 33 11
0.025483 -0.35303 1.19 17 33 11
0.0273311 -0.35303 1.19 15 31 9
0.0291793 -0.35303 1.19 16 32 10
0.0310274 -0.35303 1.19 18 34 12
0.0328755 -0.35303 1.19 19 35 13
0.0347236 -0.35303 1.19 20 36 14
0.0365717 -0.35303 1.19 20 36 14
0.0384198 -0.35303 1.19 18 34 12
0.0402679 -0.35303 1.19 17 33 11
0.042116 -0.35303 1.19 17 33 11
0.0439272 -0.352734 1.189 18 34 12
0.0457353 -0.352437 1.188 17 33 11
0.0475803 -0.352437 1.188 19 35 13
0.0493837 -0.35214 1.187 18 34 12
0.0512271 -0.35214 1.187 18 34 12
0.0530259 -0.351844 1.186 18 34 12
0.0548215 -0.351547 1.185 19 35 13
0.0566618 -0.351547 1.185 19 35 13
0.0584528 -0.35125 1.184 19 35 13
0.0601898 -0.350657 1.182 17 33 11
0.0620254 -0.350657 1.182 17 34 9
0.0638071 -0.35036 1.181 18 35 10
0.0655857 -0.350064 1.18 19 36 11
0.0674182 -0.350064 1.18 15 32 7
0.0692508 -0.350064 1.18 15 32 7
0.0710834 -0.350064 1.18 16 33 8
0.072916 -0.350064 1.18 15 32 7
0.0747486 -0.350064 1.18 18 35 10
0.0765811 -0.350064 1.18 19 36 11
0.0784137 -0.350064 1.18 18 35 10
0.0803823 -0.350657 1.182 17 34 9
0.082218 -0.350657 1.182 17 34 9
0.0840537 -0.350657 1.182 18 35 10
0.0858894 -0.350657 1.182 18 35 10
0.0877251 -0.350657 1.182 18 35 10
0.0896365 -0.350954 1.183 19 36 11
0.0913964 -0.350657 1.182 19 36 11
0.0932321 -0.350657 1.182 18 35 10
0.0950678 -0.350657 1.182 18 35 10
0.0969035 -0.350657 1.182 19 36 11
0.0987392 -0.350657 1.182 20 37 12
0.10066 -0.350954 1.183 20 37 12
0.102584 -0.35125 1.184 19 36 11
0.104423 -0.35125 1.184 20 37 12
0.106261 -0.35125 1.184 20 37 12
0.108192 -0.351547 1.185 19 36 11
0.110032 -0.351547 1.185 19 36 11
0.111872 -0.351547 1.185 19 36 11
0.113713 -0.351547 1.185 19 37 10
0.115553 -0.351547 1.185 19 37 10
0.117294 -0.35125 1.184 19 37 10
0.119133 -0.35125 1.184 20 38 11
0.120972 -0.35125 1.184 20 38 11
0.122811 -0.35125 1.184 19 37 10
0.124544 -0.350954 1.183 17 37 10
0.126381 -0.350954 1.183 17 37 10
0.128219 -0.350954 1.183 18 37 12
0.129946 -0.350657 1.182 17 36 11
0.131782 -0.350657 1.182 17 36 11
0.133617 -0.350657 1.182 17 36 11
0.135453 -0.350657 1.182 17 36 11
0.137172 -0.35036 1.181 17 36 11
0.139007 -0.35036 1.181 18 37 12
0.140721 -0.350064 1.18 18 37 12
0.142554 -0.350064 1.18 21 40 15
0.144387 -0.350064 1.18 21 40 15
0.146219 -0.350064 1.18 20 39 14
0.148052 -0.350064 1.18 17 36 11
0.149884 -0.350064 1.18 17 36 11
0.151717 -0.350064 1.18 17 36 11
0.155514 -0.35036 1.181 20 39 14
0.157481 -0.350657 1.182 20 39 14
0.159317 -0.350657 1.182 20 39 14
0.161289 -0.350954 1.183 20 39 14
0.163264 -0.35125 1.184 18 37 12
0.165242 -0.351547 1.185 18 37 12
0.167083 -0.351547 1.185 17 36 11
0.169065 -0.351844 1.186 18 37 12
0.171051 -0.35214 1.187 17 36 11
0.172895 -0.35214 1.187 18 37 12
0.174738 -0.35214 1.187 18 37 12
0.176731 -0.352437 1.188 18 37 12
0.178425 -0.35214 1.187 18 37 12
0.180269 -0.35214 1.187 17 36 11
0.182112 -0.35214 1.187 17 36 11
0.183801 -0.351844 1.186 17 36 11
0.185486 -0.351547 1.185 17 36 11
0.187326 -0.351547 1.185 20 39 14
0.189167 -0.351547 1.185 18 37 12
0.191007 -0.351547 1.185 18 37 12
0.192847 -0.351547 1.185 17 36 11
0.194688 -0.351547 1.185 17 36 11
0.196694 -0.351844 1.186 17 36 11
0.198536 -0.351844 1.186 17 36 11
0.200547 -0.35214 1.187 17 36 11
0.20239 -0.35214 1.187 18 37 12
0.204234 -0.35214 1.187 18 37 12
0.206251 -0.352437 1.188 18 37 12
0.208096 -0.352437 1.188 17 36 11
0.209941 -0.352437 1.188 17 36 11
0.211964 -0.352734 1.189 17 36 11
0.21381 -0.352734 1.189 20 39 14
0.215476 -0.352437 1.188 18 37 12
0.217321 -0.352437 1.188 17 36 11
0.218981 -0.35214 1.187 17 36 11
0.220825 -0.35214 1.187 16 35 10
0.222668 -0.35214 1.187 16 35 10
0.224512 -0.35214 1.187 16 35 10
0.226355 -0.35214 1.187 16 35 10
0.228198 -0.35214 1.187 17 36 11
0.230042 -0.35214 1.187 17 36 11
0.231885 -0.35214 1.187 20 39 14
0.233729 -0.35214 1.187 15 34 9
0.235572 -0.35214 1.187 16 34 12
0.237416 -0.35214 1.187 15 33 11
0.239259 -0.35214 1.187 15 31 9
0.241306 -0.352437 1.188 15 31 9
0.243151 -0.352437 1.188 13 29 7
0.24479 -0.35214 1.187 15 31 9
0.246841 -0.352437 1.188 12 27 7
0.248686 -0.352437 1.188 12 27 7
0.250742 -0.352734 1.189 9 23 6
0.252801 -0.35303 1.19 10 24 7
0.254649 -0.35303 1.19 10 25 5
0.258562 -0.353327 1.191 10 25 5
0.26063 -0.353624 1.192 10 25 5
0.262482 -0.353624 1.192 11 26 6
0.264555 -0.35392 1.193 10 25 5
0.266631 -0.354217 1.194 10 24 7
0.268485 -0.354217 1.194 11 25 8
0.270339 -0.354217 1.194 11 25 8
0.272194 -0.354217 1.194 11 25 8
0.273818 -0.35392 1.193 9 23 8
0.27544 -0.353624 1.192 11 25 10
0.276826 -0.35303 1.19 11 25 10
0.278674 -0.35303 1.19 11 25 10
0.279815 -0.35214 1.187 10 24 7
0.281184 -0.351547 1.185 11 25 8
0.282547 -0.350954 1.183 10 24 9
0.284143 -0.350657 1.182 11 25 10
0.285495 -0.350064 1.18 11 25 10
0.287084 -0.349767 1.179 11 25 10
0.28867 -0.34947 1.178 12 26 11
0.290007 -0.348877 1.176 11 25 10
0.291585 -0.34858 1.175 13 24 10
0.29341 -0.34858 1.175 14 25 11
0.294983 -0.348284 1.174 14 25 11
0.296806 -0.348284 1.174 12 23 9
0.29863 -0.348284 1.174 12 23 9
0.300453 -0.348284 1.174 13 24 10
0.302019 -0.347987 1.173 13 24 10
0.304359 -0.34858 1.175 15 26 12
0.306183 -0.34858 1.175 15 29 14
0.30827 -0.348877 1.176 13 27 12
0.31036 -0.349174 1.177 15 29 14
0.312454 -0.34947 1.178 15 29 14
0.31455 -0.349767 1.179 15 29 14
0.316381 -0.349767 1.179 13 27 12
0.317942 -0.34947 1.178 13 27 12
0.320314 -0.350064 1.18 13 27 12
0.32242 -0.35036 1.181 13 27 12
0.324529 -0.350657 1.182 15 29 14
0.326364 -0.350657 1.182 16 30 15
0.328478 -0.350954 1.183 15 29 14
0.330594 -0.35125 1.184 15 29 14
0.332714 -0.351547 1.185 15 29 14
0.334554 -0.351547 1.185 16 30 15
0.336678 -0.351844 1.186 15 29 14
0.338806 -0.35214 1.187 13 27 12
0.340649 -0.35214 1.187 15 29 14
0.34307 -0.352734 1.189 15 29 14
0.345206 -0.35303 1.19 15 29 14
0.347346 -0.353327 1.191 12 26 11
0.349489 -0.353624 1.192 12 26 11
0.351635 -0.35392 1.193 12 25 12
0.353488 -0.35392 1.193 13 26 13
0.355638 -0.354217 1.194 13 26 13
0.357492 -0.354217 1.194 13 26 13
0.359347 -0.354217 1.194 12 24 14
0.360899 -0.35392 1.193 12 24 14
0.362447 -0.353624 1.192 13 24 16
0.364299 -0.353624 1.192 8 19 11
0.36615 -0.353624 1.192 9 20 18
0.368001 -0.353624 1.192 36 47 45
0.369542 -0.353327 1.191 38 48 50
0.371392 -0.353327 1.191 30 40 42
0.372928 -0.35303 1.19 28 38 40
0.374776 -0.35303 1.19 30 40 42
0.376308 -0.352734 1.189 32 41 45
0.377518 -0.35214 1.187 34 43 47
0.379361 -0.35214 1.187 32 41 45
0.380563 -0.351547 1.185 32 41 45
0.38208 -0.35125 1.184 31 39 46
0.383919 -0.35125 1.184 32 40 47
-0.136038 -0.286551 0.971 41 41 41
-0.134807 -0.287141 0.973 43 43 43
-0.13357 -0.287732 0.975 41 41 41
-0.132056 -0.287732 0.975 40 40 40
-0.130676 -0.288027 0.976 40 40 40
-0.129292 -0.288322 0.977 43 43 43
-0.127906 -0.288617 0.978 43 43 43
-0.126516 -0.288912 0.979 41 41 41
-0.124996 -0.288912 0.979 41 41 41
-0.123475 -0.288912 0.979 39 39 39
-0.121955 -0.288912 0.979 40 40 40
-0.120434 -0.288912 0.979 39 39 39
-0.118914 -0.288912 0.979 43 43 43
-0.117514 -0.289207 0.98 38 38 38
-0.115755 -0.288617 0.978 31 31 31
-0.114236 -0.288617 0.978 26 26 26
-0.11265 -0.349705 1.185 27 32 28
-0.11081 -0.349705 1.185 19 27 20
-0.109061 -0.35 1.186 15 23 16
-0.107219 -0.35 1.186 18 27 18
-0.105289 -0.349705 1.185 21 30 21
-0.103623 -0.350295 1.187 18 27 18
-0.101779 -0.350295 1.187 17 26 17
-0.0999359 -0.350295 1.187 18 28 16
-0.0980925 -0.350295 1.187 19 29 17
-0.096249 -0.350295 1.187 19 29 17
-0.0944056 -0.350295 1.187 19 29 17
-0.0925621 -0.350295 1.187 18 29 15
-0.0907186 -0.350295 1.187 17 28 14
-0.0888752 -0.350295 1.187 18 29 13
-0.0870317 -0.350295 1.187 17 28 12
-0.0851883 -0.350295 1.187 17 28 12
-0.0833448 -0.350295 1.187 17 28 12
-0.0814327 -0.35 1.186 18 29 13
-0.0796579 -0.350295 1.187 19 30 14
-0.0778145 -0.350295 1.187 19 30 14
-0.075971 -0.350295 1.187 19 30 14
-0.0740651 -0.35 1.186 18 29 13
-0.0721623 -0.349705 1.185 19 30 14
-0.070322 -0.349705 1.185 17 28 12
-0.0684817 -0.349705 1.185 17 28 12
-0.0666413 -0.349705 1.185 17 28 12
-0.064801 -0.349705 1.185 18 29 13
-0.0629606 -0.349705 1.185 17 28 12
-0.0611203 -0.349705 1.185 17 28 12
-0.0592799 -0.349705 1.185 18 29 13
-0.0574396 -0.349705 1.185 18 29 13
-0.0556462 -0.35 1.186 18 29 13
-0.0538043 -0.35 1.186 18 29 13
-0.0520062 -0.350295 1.187 17 29 10
-0.0501627 -0.350295 1.187 15 27 8
-0.0483193 -0.350295 1.187 15 30 10
-0.0464758 -0.350295 1.187 16 31 11
-0.04467 -0.35059 1.188 16 31 11
-0.042861 -0.350885 1.189 17 32 12
-0.0410489 -0.35118 1.19 16 32 10
-0.0392008 -0.35118 1.19 17 33 11
-0.0373841 -0.351475 1.191 17 33 11
-0.0355344 -0.351475 1.191 17 33 11
-0.0337131 -0.35177 1.192 16 32 10
-0.0318619 -0.35177 1.192 15 31 9
-0.0300358 -0.352065 1.193 16 33 8
-0.028183 -0.352065 1.193 17 34 9
-0.0263303 -0.352065 1.193 17 34 9
-0.0244775 -0.352065 1.193 17 34 9
-0.0226058 -0.35177 1.192 17 34 9
-0.020772 -0.352065 1.193 16 33 8
-0.0189033 -0.35177 1.192 15 32 7
-0.0170521 -0.35177 1.192 16 33 8
-0.0151881 -0.351475 1.191 16 32 10
-0.0133273 -0.35118 1.19 15 31 9
-0.0114792 -0.35118 1.19 13 31 9
-0.00963107 -0.35118 1.19 14 32 10
-0.00777641 -0.350885 1.189 15 33 11
-0.00592986 -0.350885 1.189 13 31 9
-0.0040833 -0.350885 1.189 14 32 10
-0.00223674 -0.350885 1.189 13 31 9
-0.000390184 -0.350885 1.189 8 24 2
0.00145637 -0.350885 1.189 1 17 0
0.00330293 -0.350885 1.189 57 75 53
0.00514949 -0.350885 1.189 71 89 67
0.00699605 -0.350885 1.189 9 27 5
0.0088426 -0.350885 1.189 7 25 3
0.0106892 -0.350885 1.189 14 32 10
0.0125252 -0.35059 1.188 14 32 10
0.0143702 -0.35059 1.188 15 33 11
0.0162152 -0.35059 1.188 15 33 11
0.0180602 -0.35059 1.188 15 31 9
0.0199052 -0.35059 1.188 15 31 9
0.0217685 -0.350885 1.189 15 31 9
0.0236151 -0.350885 1.189 15 31 9
0.0254616 -0.350885 1.189 16 32 10
0.0273082 -0.350885 1.189 15 31 9
0.0291547 -0.350885 1.189 16 32 10
0.0310013 -0.350885 1.189 18 34 12
0.0328479 -0.350885 1.189 19 35 13
0.0347236 -0.35118 1.19 19 35 13
0.0365717 -0.35118 1.19 19 35 13
0.0384198 -0.35118 1.19 18 34 12
0.0402341 -0.350885 1.189 17 33 11
0.0420806 -0.350885 1.189 16 32 10
0.0438903 -0.35059 1.188 17 33 11
0.0457353 -0.35059 1.188 18 34 12
0.0475402 -0.350295 1.187 19 35 13
0.0493837 -0.350295 1.187 19 35 13
0.051184 -0.35 1.186 18 34 12
0.0530259 -0.35 1.186 18 34 12
0.0548215 -0.349705 1.185 18 34 12
0.0566618 -0.349705 1.185 19 35 13
0.0584528 -0.349409 1.184 18 35 10
0.0602407 -0.349114 1.183 17 34 9
0.0620254 -0.348819 1.182 17 34 9
0.0638611 -0.348819 1.182 18 35 10
0.0656412 -0.348524 1.181 17 34 9
0.0674182 -0.348229 1.18 15 32 7
0.0692508 -0.348229 1.18 16 33 8
0.0710834 -0.348229 1.18 17 34 9
0.072916 -0.348229 1.18 17 34 9
0.0747486 -0.348229 1.18 19 36 11
0.076646 -0.348524 1.181 18 35 10
0.0784802 -0.348524 1.181 17 34 9
0.0803143 -0.348524 1.181 18 35 10
0.082218 -0.348819 1.182 18 35 10
0.0840537 -0.348819 1.182 18 35 10
0.0858894 -0.348819 1.182 18 35 10
0.0877251 -0.348819 1.182 18 35 10
0.0895607 -0.348819 1.182 19 36 11
0.0913964 -0.348819 1.182 19 36 11
0.0932321 -0.348819 1.182 18 35 10
0.0950678 -0.348819 1.182 19 36 11
0.0969035 -0.348819 1.182 19 36 11
0.0987392 -0.348819 1.182 20 37 12
0.10066 -0.349114 1.183 20 37 12
0.102497 -0.349114 1.183 19 36 11
0.104423 -0.349409 1.184 18 35 10
0.106261 -0.349409 1.184 18 36 9
0.108192 -0.349705 1.185 18 36 9
0.110032 -0.349705 1.185 18 36 9
0.111872 -0.349705 1.185 19 37 10
0.113713 -0.349705 1.185 19 37 10
0.115553 -0.349705 1.185 20 38 11
0.117393 -0.349705 1.185 20 38 11
0.119234 -0.349705 1.185 22 40 13
0.121074 -0.349705 1.185 18 38 11
0.122914 -0.349705 1.185 17 37 10
0.124755 -0.349705 1.185 18 38 11
0.126595 -0.349705 1.185 18 38 11
0.128435 -0.349705 1.185 18 38 11
0.130166 -0.349409 1.184 17 37 10
0.132005 -0.349409 1.184 17 37 10
0.133843 -0.349409 1.184 16 36 9
0.135567 -0.349114 1.183 16 35 10
0.137405 -0.349114 1.183 17 36 11
0.139124 -0.348819 1.182 17 36 11
0.14096 -0.348819 1.182 17 36 11
0.142675 -0.348524 1.181 18 37 12
0.144387 -0.348229 1.18 17 36 11
0.146219 -0.348229 1.18 17 36 11
0.148052 -0.348229 1.18 17 36 11
0.151845 -0.348524 1.181 20 39 14
0.15368 -0.348524 1.181 18 37 12
0.155514 -0.348524 1.181 20 39 14
0.157481 -0.348819 1.182 20 39 14
0.159317 -0.348819 1.182 20 39 14
0.161289 -0.349114 1.183 20 39 14
0.163264 -0.349409 1.184 18 37 12
0.165242 -0.349705 1.185 17 36 11
0.167224 -0.35 1.186 16 35 10
0.169208 -0.350295 1.187 16 35 10
0.171051 -0.350295 1.187 16 35 10
0.173041 -0.35059 1.188 20 39 14
0.174886 -0.35059 1.188 20 39 14
0.176731 -0.35059 1.188 18 37 12
0.178576 -0.35059 1.188 20 39 14
0.180421 -0.35059 1.188 18 37 12
0.182112 -0.350295 1.187 17 36 11
0.183956 -0.350295 1.187 17 36 11
0.185643 -0.35 1.186 17 36 11
0.187326 -0.349705 1.185 17 36 11
0.189167 -0.349705 1.185 17 36 11
0.191007 -0.349705 1.185 18 37 12
0.192847 -0.349705 1.185 18 37 12
0.194688 -0.349705 1.185 18 37 12
0.196694 -0.35 1.186 18 37 12
0.198703 -0.350295 1.187 17 36 11
0.200547 -0.350295 1.187 17 36 11
0.20239 -0.350295 1.187 17 36 11
0.204406 -0.35059 1.188 17 36 11
0.206424 -0.350885 1.189 17 36 11
0.208271 -0.350885 1.189 17 36 11
0.210117 -0.350885 1.189 17 36 11
0.211964 -0.350885 1.189 18 37 12
0.21381 -0.350885 1.189 20 39 14
0.215657 -0.350885 1.189 20 39 14
0.217504 -0.350885 1.189 18 37 12
0.21935 -0.350885 1.189 20 39 14
0.221197 -0.350885 1.189 20 39 14
0.223043 -0.350885 1.189 21 40 15
0.22489 -0.350885 1.189 21 40 15
0.226736 -0.350885 1.189 20 39 14
0.228583 -0.350885 1.189 17 36 11
0.23043 -0.350885 1.189 17 36 11
0.232276 -0.350885 1.189 20 39 14
0.234123 -0.350885 1.189 16 35 10
0.235969 -0.350885 1.189 16 35 10
0.237616 -0.35059 1.188 16 35 10
0.239662 -0.350885 1.189 16 33 8
0.241306 -0.35059 1.188 16 33 8
0.243151 -0.35059 1.188 15 31 9
0.245202 -0.350885 1.189 16 32 10
0.247049 -0.350885 1.189 12 27 7
0.248895 -0.350885 1.189 12 27 7
0.250953 -0.35118 1.19 11 25 8
0.252801 -0.35118 1.19 12 26 9
0.256712 -0.351475 1.191 11 26 6
0.258562 -0.351475 1.191 10 25 5
0.26063 -0.35177 1.192 10 25 5
0.262702 -0.352065 1.193 10 25 5
0.264776 -0.352361 1.194 11 26 6
0.266631 -0.352361 1.194 11 25 8
0.26871 -0.352656 1.195 12 26 9
0.270566 -0.352656 1.195 11 25 8
0.272422 -0.352656 1.195 12 26 9
0.274277 -0.352656 1.195 11 25 8
0.275902 -0.352361 1.194 12 26 9
0.277291 -0.35177 1.192 11 25 8
0.278908 -0.351475 1.191 10 24 7
0.280522 -0.35118 1.19 11 25 8
0.281659 -0.350295 1.187 12 26 9
0.283024 -0.349705 1.185 12 26 11
0.284624 -0.349409 1.184 12 26 11
0.285979 -0.348819 1.182 11 25 10
0.287328 -0.348229 1.18 11 25 10
0.288915 -0.347934 1.179 11 25 10
0.2905 -0.347639 1.178 11 25 10
0.291833 -0.347049 1.176 11 25 10
0.29341 -0.346753 1.175 11 25 10
0.295234 -0.346753 1.175 11 25 10
0.297059 -0.346753 1.175 10 24 9
0.29863 -0.346458 1.174 11 25 10
0.300453 -0.346458 1.174 12 26 11
0.302534 -0.346753 1.175 14 25 11
0.304359 -0.346753 1.175 13 24 10
0.306183 -0.346753 1.175 12 26 11
0.30827 -0.347049 1.176 11 25 10
0.31036 -0.347344 1.177 15 29 14
0.312454 -0.347639 1.178 15 29 14
0.31455 -0.347934 1.179 15 29 14
0.316649 -0.348229 1.18 13 27 12
0.318482 -0.348229 1.18 13 27 12
0.320586 -0.348524 1.181 15 29 14
0.322693 -0.348819 1.182 13 27 12
0.324803 -0.349114 1.183 15 29 14
0.327193 -0.349705 1.185 15 29 14
0.329033 -0.349705 1.185 13 27 12
0.330873 -0.349705 1.185 15 29 14
0.333275 -0.350295 1.187 15 29 14
0.335119 -0.350295 1.187 15 29 12
0.337246 -0.35059 1.188 13 27 10
0.339376 -0.350885 1.189 15 29 12
0.34151 -0.35118 1.19 16 30 13
0.343358 -0.35118 1.19 15 29 12
0.345786 -0.35177 1.192 15 29 12
0.347638 -0.35177 1.192 15 29 12
0.349782 -0.352065 1.193 13 27 10
0.351929 -0.352361 1.194 13 26 13
0.353784 -0.352361 1.194 12 25 12
0.355638 -0.352361 1.194 13 26 13
0.357492 -0.352361 1.194 15 28 15
0.359347 -0.352361 1.194 13 25 15
0.360899 -0.352065 1.193 12 24 14
0.362447 -0.35177 1.192 13 24 16
0.364299 -0.35177 1.192 9 20 12
0.36615 -0.35177 1.192 9 20 18
0.367692 -0.351475 1.191 36 47 45
