ply
format ascii 1.0
comment Created by Open3D
element vertex 1316
property double x
property double y
property double z
property uchar red
property uchar green
property uchar blue
end_header
0.135547 -0.0554698 1.122 204 164 203
0.137167 -0.0554204 1.121 232 192 231
0.139032 -0.0554698 1.122 235 195 234
0.1409 -0.0555192 1.123 233 193 232
0.142644 -0.0555192 1.123 226 186 225
0.144388 -0.0555192 1.123 226 186 225
0.146132 -0.0555192 1.123 233 193 232
0.147876 -0.0555192 1.123 232 192 231
0.149754 -0.0555687 1.124 227 186 230
0.151634 -0.0556181 1.125 219 178 222
0.153381 -0.0556181 1.125 211 171 217
0.155128 -0.0556181 1.125 204 164 210
0.156876 -0.0556181 1.125 192 149 198
0.158764 -0.0556676 1.126 164 121 170
0.160655 -0.055717 1.127 138 94 145
0.162549 -0.0557664 1.128 138 94 145
0.164447 -0.0558159 1.129 148 101 153
0.1662 -0.0558159 1.129 171 124 176
0.168102 -0.0558653 1.13 200 159 208
0.169857 -0.0558653 1.13 219 178 227
0.171916 -0.0559642 1.132 218 175 224
0.173674 -0.0559642 1.132 193 150 199
0.175742 -0.0560631 1.134 155 113 159
0.177503 -0.0560631 1.134 122 80 126
0.179264 -0.0560631 1.134 122 81 130
0.181025 -0.0560631 1.134 133 92 141
0.182948 -0.0561125 1.135 161 120 169
0.18471 -0.0561125 1.135 171 130 179
0.186637 -0.0561619 1.136 161 121 167
0.188402 -0.0561619 1.136 146 106 152
0.190166 -0.0561619 1.136 150 111 155
0.19193 -0.0561619 1.136 166 127 171
0.193865 -0.0562114 1.137 180 141 183
0.195803 -0.0562608 1.138 184 145 187
0.197744 -0.0563103 1.139 179 143 184
0.199863 -0.0564091 1.141 173 137 178
0.201812 -0.0564586 1.142 153 116 153
0.203942 -0.0565574 1.144 134 97 134
0.205898 -0.0566069 1.145 135 102 135
0.208039 -0.0567058 1.147 160 127 160
0.211971 -0.0568046 1.149 146 109 146
0.213941 -0.0568541 1.15 132 101 134
0.215915 -0.0569035 1.151 151 120 153
0.21827 -0.0570518 1.154 147 118 151
0.220253 -0.0571013 1.155 146 117 150
0.222239 -0.0571507 1.156 132 103 136
0.224422 -0.0572496 1.158 116 87 120
0.22622 -0.0572496 1.158 128 104 129
0.228215 -0.057299 1.159 135 111 136
0.230214 -0.0573485 1.16 131 109 129
0.232015 -0.0573485 1.16 118 96 116
0.23422 -0.0574473 1.162 95 75 90
0.236025 -0.0574473 1.162 72 52 67
0.238239 -0.0575462 1.164 53 34 45
0.240253 -0.0575956 1.165 31 12 23
0.24227 -0.0576451 1.166 20 4 12
0.244499 -0.057744 1.168 15 0 7
0.246313 -0.057744 1.168 13 3 1
0.248339 -0.0577934 1.169 13 3 1
0.250155 -0.0577934 1.169 7 7 1
0.252186 -0.0578428 1.17 8 8 2
0.253569 -0.057744 1.168 12 15 7
0.254508 -0.0575462 1.164 15 18 10
0.251669 -0.055717 1.127 13 16 8
0.250721 -0.0551237 1.115 15 18 10
0.251547 -0.054926 1.111 16 19 11
0.252132 -0.0546788 1.106 16 19 11
0.253162 -0.0545305 1.103 18 19 11
0.253719 -0.0542833 1.098 11 12 4
0.254494 -0.0540855 1.094 12 8 1
0.254319 -0.05369 1.086 7 3 0
0.255535 -0.0535911 1.084 12 9 0
0.256506 -0.0534428 1.081 22 19 9
0.257707 -0.053344 1.079 34 35 27
0.258902 -0.0532451 1.077 60 61 53
0.260333 -0.0531956 1.076 116 122 115
0.262004 -0.0531956 1.076 120 126 119
0.263675 -0.0531956 1.076 57 61 60
0.2651 -0.0531462 1.075 0 3 2
0.266769 -0.0531462 1.075 16 13 3
0.313261 -0.0587327 1.188 13 27 12
0.314841 -0.0586833 1.187 15 29 14
0.316151 -0.0585844 1.185 13 27 10
0.317723 -0.058535 1.184 15 29 12
0.319291 -0.0584855 1.183 12 26 9
0.320857 -0.0584361 1.182 13 27 10
0.322693 -0.0584361 1.182 13 27 10
0.324529 -0.0584361 1.182 13 27 10
0.326088 -0.0583867 1.181 15 30 10
0.327922 -0.0583867 1.181 17 32 12
0.330036 -0.0584361 1.182 13 29 7
0.331871 -0.0584361 1.182 25 41 19
0.333989 -0.0584855 1.183 22 38 16
0.335827 -0.0584855 1.183 22 38 16
0.337949 -0.058535 1.184 23 39 17
0.340075 -0.0585844 1.185 20 36 14
0.341915 -0.0585844 1.185 23 39 17
0.343756 -0.0585844 1.185 22 38 16
0.345596 -0.0585844 1.185 13 29 7
0.347436 -0.0585844 1.185 11 27 5
0.349277 -0.0585844 1.185 26 38 19
0.350524 -0.0584855 1.183 40 52 33
0.352064 -0.0584361 1.182 38 50 31
0.3539 -0.0584361 1.182 32 44 25
0.355133 -0.0583372 1.18 39 51 32
0.356663 -0.0582878 1.179 34 46 27
0.35819 -0.0582383 1.178 24 35 19
0.359409 -0.0581395 1.176 26 37 21
0.360621 -0.0580406 1.174 21 31 19
0.361518 -0.0578923 1.171 22 32 20
0.363336 -0.0578923 1.171 17 24 20
0.363596 -0.0576451 1.166 12 19 15
0.361646 -0.0570518 1.154 31 39 41
0.362065 -0.0565574 1.144 124 132 139
0.362252 -0.0563103 1.139 133 141 148
0.362742 -0.0561125 1.135 143 151 158
0.363542 -0.0559642 1.132 150 158 165
0.366591 -0.0561619 1.136 81 89 96
0.369652 -0.0563597 1.14 78 86 93
-0.16616 -0.0567898 1.186 11 25 8
-0.164457 -0.0568376 1.187 11 25 8
-0.162613 -0.0568376 1.187 10 24 9
-0.160905 -0.0568855 1.188 10 24 9
-0.159194 -0.0569334 1.189 11 25 10
-0.157348 -0.0569334 1.189 12 26 11
-0.155632 -0.0569813 1.19 12 26 11
-0.153784 -0.0569813 1.19 11 25 10
-0.151936 -0.0569813 1.19 12 26 11
-0.150087 -0.0569813 1.19 16 30 15
-0.148239 -0.0569813 1.19 16 30 15
-0.146391 -0.0569813 1.19 17 31 16
-0.144543 -0.0569813 1.19 18 32 17
-0.142695 -0.0569813 1.19 20 34 19
-0.140729 -0.0569334 1.189 18 32 15
-0.138882 -0.0569334 1.189 18 32 15
-0.137035 -0.0569334 1.189 18 32 15
-0.135075 -0.0568855 1.188 19 33 16
-0.133342 -0.0569334 1.189 20 34 17
-0.131606 -0.0569813 1.19 19 33 16
-0.129758 -0.0569813 1.19 18 33 13
-0.128018 -0.0570292 1.191 17 32 12
-0.126274 -0.0570771 1.192 17 32 12
-0.124527 -0.057125 1.193 18 33 13
-0.12288 -0.0572207 1.195 17 32 12
-0.121024 -0.0572207 1.195 17 32 12
-0.119268 -0.0572686 1.196 17 32 12
-0.117509 -0.0573165 1.197 18 33 13
-0.11565 -0.0573165 1.197 17 32 12
-0.113791 -0.0573165 1.197 16 31 11
-0.112025 -0.0573644 1.198 16 31 11
-0.110165 -0.0573644 1.198 17 32 12
-0.108485 -0.0574601 1.2 17 32 12
-0.106621 -0.0574601 1.2 18 33 13
-0.104758 -0.0574601 1.2 18 33 13
-0.102894 -0.0574601 1.2 18 33 13
-0.10103 -0.0574601 1.2 18 33 13
-0.0991668 -0.0574601 1.2 17 32 12
-0.097222 -0.0574123 1.199 17 32 12
-0.0952804 -0.0573644 1.198 17 32 12
-0.0933419 -0.0573165 1.197 16 31 11
-0.0914065 -0.0572686 1.196 16 31 11
-0.0894742 -0.0572207 1.195 17 32 12
-0.0874717 -0.057125 1.193 16 31 11
-0.0855471 -0.0570771 1.192 15 30 10
-0.0836257 -0.0570292 1.191 17 32 12
-0.0815701 -0.0568855 1.188 17 32 12
-0.0796579 -0.0568376 1.187 17 32 12
-0.0776834 -0.0567419 1.185 16 31 11
-0.075843 -0.0567419 1.185 17 32 12
-0.0739402 -0.056694 1.184 17 32 12
-0.0720405 -0.0566461 1.183 16 31 11
-0.070144 -0.0565982 1.182 15 30 10
-0.0683083 -0.0565982 1.182 16 31 11
-0.0664164 -0.0565503 1.181 17 32 12
-0.0646369 -0.0565982 1.182 17 32 12
-0.0628544 -0.0566461 1.183 16 31 11
-0.0611203 -0.0567419 1.185 16 31 11
-0.0593299 -0.0567898 1.186 13 28 8
-0.0575365 -0.0568376 1.187 15 30 10
-0.0556931 -0.0568376 1.187 17 32 12
-0.053895 -0.0568855 1.188 17 32 12
-0.05205 -0.0568855 1.188 17 32 12
-0.0502472 -0.0569334 1.189 17 32 12
-0.0484414 -0.0569813 1.19 17 32 12
-0.0465541 -0.0569334 1.189 17 32 12
-0.0447076 -0.0569334 1.189 17 32 12
-0.042825 -0.0568855 1.188 16 31 11
-0.0409455 -0.0568376 1.187 16 31 11
-0.039102 -0.0568376 1.187 16 31 11
-0.0372272 -0.0567898 1.186 16 31 11
-0.0353853 -0.0567898 1.186 16 31 11
-0.0335151 -0.0567419 1.185 16 31 11
-0.0316747 -0.0567419 1.185 15 30 10
-0.0298344 -0.0567419 1.185 12 27 7
-0.0279704 -0.056694 1.184 12 27 7
-0.0261537 -0.0567419 1.185 12 27 7
-0.0242928 -0.056694 1.184 12 27 7
-0.0224541 -0.056694 1.184 12 27 7
-0.0205978 -0.0566461 1.183 16 31 11
-0.0187447 -0.0565982 1.182 13 27 10
-0.0169091 -0.0565982 1.182 12 26 9
-0.0150479 -0.0565025 1.18 10 24 7
-0.0132153 -0.0565025 1.18 11 25 8
-0.0113731 -0.0564546 1.179 12 23 7
-0.00954204 -0.0564546 1.179 12 23 7
-0.00770447 -0.0564067 1.178 11 22 6
-0.005875 -0.0564067 1.178 11 22 6
-0.00403865 -0.0563109 1.176 11 22 6
-0.00221417 -0.0563588 1.177 11 22 6
-0.000385918 -0.0563109 1.176 11 22 6
0.00144167 -0.0563588 1.177 10 21 5
0.00326682 -0.0563109 1.176 10 20 8
0.00508885 -0.056263 1.175 7 17 5
0.00690779 -0.0562152 1.174 8 8 9
0.00872361 -0.0561673 1.173 8 8 9
0.0105183 -0.0560236 1.17 47 43 56
0.0122616 -0.0556884 1.163 66 62 75
0.0140194 -0.0554969 1.159 75 66 87
0.0157648 -0.0553054 1.155 83 74 95
0.0175129 -0.0551617 1.152 88 76 101
0.0192517 -0.0550181 1.149 84 72 97
0.0209996 -0.0549223 1.147 81 68 96
0.0227412 -0.0548265 1.145 80 67 95
0.0245194 -0.0548265 1.145 83 67 96
0.0262976 -0.0548265 1.145 90 74 103
0.0280758 -0.0548265 1.145 105 85 119
0.0298541 -0.0548265 1.145 105 85 119
0.0316047 -0.0547787 1.144 102 82 116
0.0333813 -0.0547787 1.144 103 83 117
0.035158 -0.0547787 1.144 102 82 116
0.0369024 -0.0547308 1.143 102 82 116
0.0386437 -0.0546829 1.142 103 82 118
0.0403818 -0.054635 1.141 104 83 119
0.04208 -0.0545392 1.139 104 83 119
0.0438104 -0.0544914 1.138 104 83 119
0.0454976 -0.0543956 1.136 105 84 120
0.0470955 -0.0542041 1.132 106 85 121
0.048724 -0.0540604 1.129 108 84 123
0.050388 -0.0539646 1.127 108 84 123
0.0520457 -0.0538689 1.125 108 79 121
0.0536972 -0.0537731 1.123 110 81 123
0.0553426 -0.0536773 1.121 119 87 128
0.0570326 -0.0536295 1.12 132 100 141
0.0587195 -0.0535816 1.119 161 128 166
0.0604033 -0.0535337 1.118 162 129 167
0.062084 -0.0534858 1.117 165 132 170
0.0638188 -0.0534858 1.117 171 138 176
0.0654948 -0.0534379 1.116 171 138 176
0.067228 -0.0534379 1.116 193 160 198
0.0689612 -0.0534379 1.116 196 163 201
0.0706944 -0.0534379 1.116 191 158 196
0.0724276 -0.0534379 1.116 187 153 189
0.0741608 -0.0534379 1.116 193 159 195
0.075894 -0.0534379 1.116 199 165 201
0.0776967 -0.0534858 1.117 195 161 197
0.0794314 -0.0534858 1.117 182 144 183
0.0811662 -0.0534858 1.117 173 135 174
0.0829751 -0.0535337 1.118 168 130 169
0.0847114 -0.0535337 1.118 171 133 172
0.0864477 -0.0535337 1.118 186 148 187
0.0882629 -0.0535816 1.119 196 158 197
0.0900812 -0.0536295 1.12 198 160 199
0.0918206 -0.0536295 1.12 197 159 198
0.09356 -0.0536295 1.12 191 153 192
0.0952994 -0.0536295 1.12 191 153 192
0.0970388 -0.0536295 1.12 196 158 197
0.0988663 -0.0536773 1.121 204 166 205
0.100607 -0.0536773 1.121 203 165 204
0.102348 -0.0536773 1.121 198 160 199
0.103996 -0.0536295 1.12 197 159 198
0.105736 -0.0536295 1.12 196 158 197
0.107475 -0.0536295 1.12 195 157 196
0.109117 -0.0535816 1.119 190 152 191
0.110855 -0.0535816 1.119 191 153 192
0.112492 -0.0535337 1.118 193 155 194
0.114228 -0.0535337 1.118 196 158 197
0.115965 -0.0535337 1.118 195 157 196
0.117701 -0.0535337 1.118 194 156 195
0.119544 -0.0535816 1.119 197 159 198
0.121282 -0.0535816 1.119 203 165 204
0.12313 -0.0536295 1.12 207 169 208
0.124869 -0.0536295 1.12 203 165 204
0.126722 -0.0536773 1.121 191 153 192
0.128463 -0.0536773 1.121 168 129 171
0.13032 -0.0537252 1.122 155 116 158
0.132062 -0.0537252 1.122 155 117 156
0.133685 -0.0536773 1.121 179 141 180
0.135426 -0.0536773 1.121 219 179 218
0.137167 -0.0536773 1.121 232 192 231
0.138908 -0.0536773 1.121 235 195 234
0.140775 -0.0537252 1.122 233 193 232
0.142517 -0.0537252 1.122 226 186 225
0.14426 -0.0537252 1.122 227 187 226
0.146132 -0.0537731 1.123 232 188 231
0.147876 -0.0537731 1.123 227 183 226
0.14962 -0.0537731 1.123 215 170 217
0.151499 -0.053821 1.124 200 155 202
0.153381 -0.0538689 1.125 192 150 196
0.155128 -0.0538689 1.125 199 157 203
0.156876 -0.0538689 1.125 202 159 208
0.158623 -0.0538689 1.125 197 154 203
0.160655 -0.0539646 1.127 186 140 190
0.162405 -0.0539646 1.127 152 106 156
0.164301 -0.0540125 1.128 146 102 153
0.1662 -0.0540604 1.129 166 122 173
0.167954 -0.0540604 1.129 189 146 195
0.169857 -0.0541083 1.13 213 170 219
0.171612 -0.0541083 1.13 218 174 225
0.173674 -0.0542041 1.132 179 135 186
0.175432 -0.0542041 1.132 139 98 147
0.177347 -0.0542519 1.133 134 93 142
0.179106 -0.0542519 1.133 139 98 147
0.180866 -0.0542519 1.133 152 111 160
0.182625 -0.0542519 1.133 165 124 173
0.184548 -0.0542998 1.134 167 126 175
0.186309 -0.0542998 1.134 164 127 172
0.18807 -0.0542998 1.134 152 115 160
0.189831 -0.0542998 1.134 164 125 169
0.191592 -0.0542998 1.134 173 134 178
0.193524 -0.0543477 1.135 176 137 181
0.195459 -0.0543956 1.136 182 143 187
0.19757 -0.0544914 1.138 164 125 167
0.199513 -0.0545392 1.139 152 113 155
0.201458 -0.0545871 1.14 143 105 144
0.203407 -0.054635 1.141 130 92 131
0.205539 -0.0547308 1.143 139 102 139
0.207676 -0.0548265 1.145 171 134 171
0.209638 -0.0548744 1.146 160 123 160
0.211602 -0.0549223 1.147 134 97 134
0.21554 -0.0550181 1.149 137 105 141
0.217324 -0.0550181 1.149 144 112 148
0.219299 -0.055066 1.15 139 107 143
0.221278 -0.0551138 1.151 134 103 141
0.223453 -0.0552096 1.153 133 102 140
0.225439 -0.0552575 1.154 140 111 144
0.227231 -0.0552575 1.154 144 115 148
0.22942 -0.0553533 1.156 149 120 148
0.231215 -0.0553533 1.156 143 114 142
0.233414 -0.055449 1.158 131 104 130
0.235415 -0.0554969 1.159 118 91 117
0.23742 -0.0555448 1.16 104 80 105
0.239634 -0.0556406 1.162 86 62 87
0.241646 -0.0556884 1.163 58 37 60
0.243662 -0.0557363 1.164 45 24 47
0.245891 -0.0558321 1.166 26 12 29
0.247702 -0.0558321 1.166 18 4 21
0.249513 -0.0558321 1.166 13 0 10
0.251539 -0.05588 1.167 13 0 10
0.253135 -0.0558321 1.166 6 6 7
0.253194 -0.0539168 1.126 15 17 11
0.252905 -0.0534858 1.117 16 18 12
0.253272 -0.0531985 1.111 16 18 12
0.25408 -0.053007 1.107 17 20 12
0.254875 -0.0528154 1.103 16 19 11
0.255424 -0.052576 1.098 17 18 10
0.256193 -0.0523845 1.094 12 13 5
0.256949 -0.052193 1.09 7 8 0
0.257455 -0.0519535 1.085 5 6 0
0.258663 -0.0518578 1.083 6 6 7
0.260104 -0.0518099 1.082 26 26 27
0.261785 -0.0518099 1.082 70 76 69
0.271685 -0.0520972 1.088 18 19 11
0.31431 -0.0567419 1.185 12 26 11
0.315617 -0.0566461 1.183 11 25 8
0.317186 -0.0565982 1.182 11 25 8
0.318752 -0.0565503 1.181 11 25 8
0.320586 -0.0565503 1.181 13 27 10
0.32242 -0.0565503 1.181 13 27 10
0.324254 -0.0565503 1.181 13 27 10
0.325812 -0.0565025 1.18 13 28 8
0.327922 -0.0565503 1.181 16 31 11
0.329756 -0.0565503 1.181 11 27 5
0.331871 -0.0565982 1.182 22 38 16
0.333989 -0.0566461 1.183 20 36 14
0.335827 -0.0566461 1.183 22 38 16
0.337949 -0.056694 1.184 24 40 18
0.340075 -0.0567419 1.185 23 39 17
0.341915 -0.0567419 1.185 24 40 18
0.343756 -0.0567419 1.185 23 39 17
0.345596 -0.0567419 1.185 20 36 14
0.347436 -0.0567419 1.185 17 33 11
0.348982 -0.056694 1.184 34 47 26
0.350524 -0.0566461 1.183 41 54 33
0.352064 -0.0565982 1.182 41 54 33
0.3539 -0.0565982 1.182 33 46 25
0.355133 -0.0565025 1.18 39 52 31
0.356663 -0.0564546 1.179 31 44 23
0.35819 -0.0564067 1.178 25 36 20
0.359409 -0.0563109 1.176 28 39 23
0.360928 -0.056263 1.175 25 35 23
0.362135 -0.0561673 1.173 24 34 22
0.363336 -0.0560715 1.171 17 24 20
0.363596 -0.0558321 1.166 12 19 15
0.361646 -0.0552575 1.154 37 45 47
0.361749 -0.0547308 1.143 122 130 137
0.361934 -0.0544914 1.138 123 131 138
0.362423 -0.0542998 1.134 137 145 152
0.363542 -0.0542041 1.132 145 153 160
0.366591 -0.0543956 1.136 84 92 99
0.3703 -0.0546829 1.142 81 89 96
-0.1663 -0.054992 1.187 11 25 8
-0.164457 -0.054992 1.187 11 25 8
-0.162613 -0.054992 1.187 10 24 9
-0.160905 -0.0550383 1.188 10 24 9
-0.159194 -0.0550847 1.189 10 24 9
-0.15748 -0.055131 1.19 10 24 9
-0.155632 -0.055131 1.19 11 25 10
-0.153784 -0.055131 1.19 11 25 10
-0.151936 -0.055131 1.19 13 27 12
-0.150087 -0.055131 1.19 16 30 15
-0.148239 -0.055131 1.19 17 31 16
-0.146391 -0.055131 1.19 18 32 17
-0.144543 -0.055131 1.19 19 33 18
-0.142695 -0.055131 1.19 20 34 19
-0.140729 -0.0550847 1.189 18 32 15
-0.138765 -0.0550383 1.188 19 33 16
-0.13692 -0.0550383 1.188 19 33 16
-0.135075 -0.0550383 1.188 20 34 17
-0.13323 -0.0550383 1.188 20 34 17
-0.131496 -0.0550847 1.189 19 33 16
-0.129758 -0.055131 1.19 18 33 13
-0.128018 -0.0551773 1.191 17 32 12
-0.126274 -0.0552237 1.192 17 32 12
-0.124527 -0.05527 1.193 18 33 13
-0.122777 -0.0553163 1.194 18 33 13
-0.121024 -0.0553626 1.195 18 33 13
-0.119268 -0.055409 1.196 18 33 13
-0.117509 -0.0554553 1.197 17 32 12
-0.11565 -0.0554553 1.197 17 32 12
-0.113886 -0.0555016 1.198 16 31 11
-0.112119 -0.055548 1.199 17 32 12
-0.110349 -0.0555943 1.2 18 33 13
-0.108485 -0.0555943 1.2 17 32 12
-0.106621 -0.0555943 1.2 18 33 13
-0.104845 -0.0556406 1.201 18 33 13
-0.10298 -0.0556406 1.201 17 32 12
-0.101115 -0.0556406 1.201 17 32 12
-0.0992494 -0.0556406 1.201 17 32 12
-0.0973031 -0.0555943 1.2 17 32 12
-0.0954395 -0.0555943 1.2 18 33 13
-0.0934979 -0.055548 1.199 18 33 13
-0.0914829 -0.0554553 1.197 17 32 12
-0.0894742 -0.0553626 1.195 17 32 12
-0.0876183 -0.0553626 1.195 17 32 12
-0.0856907 -0.0553163 1.194 16 31 11
-0.0836959 -0.0552237 1.192 18 33 13
-0.081776 -0.0551773 1.191 17 32 12
-0.079725 -0.0550383 1.188 18 33 13
-0.0778145 -0.054992 1.187 17 32 12
-0.075907 -0.0549457 1.186 16 31 11
-0.0740651 -0.0549457 1.186 16 31 11
-0.0721623 -0.0548994 1.185 16 31 11
-0.070322 -0.0548994 1.185 16 31 11
-0.0684239 -0.054853 1.184 17 32 12
-0.0665851 -0.054853 1.184 17 32 12
-0.0647463 -0.054853 1.184 16 31 11
-0.0629606 -0.0548994 1.185 16 31 11
-0.0611718 -0.0549457 1.186 16 31 11
-0.05938 -0.054992 1.187 15 30 10
-0.057585 -0.0550383 1.188 12 27 7
-0.05574 -0.0550383 1.188 15 30 10
-0.0539404 -0.0550847 1.189 16 31 11
-0.0521376 -0.055131 1.19 17 32 12
-0.0502895 -0.055131 1.19 17 32 12
-0.0484414 -0.055131 1.19 16 31 11
-0.0465933 -0.055131 1.19 16 31 11
-0.0447076 -0.0550847 1.189 15 30 10
-0.042825 -0.0550383 1.188 13 28 8
-0.0409455 -0.054992 1.187 16 31 11
-0.039102 -0.054992 1.187 15 30 10
-0.0372272 -0.0549457 1.186 15 30 10
-0.0353853 -0.0549457 1.186 15 30 10
-0.0335151 -0.0548994 1.185 16 31 11
-0.0316747 -0.0548994 1.185 13 28 8
-0.0298344 -0.0548994 1.185 13 28 8
-0.0279704 -0.054853 1.184 13 28 8
-0.0261537 -0.0548994 1.185 13 28 8
-0.0242928 -0.054853 1.184 15 30 10
-0.0224351 -0.0548067 1.183 15 30 10
-0.0205804 -0.0547604 1.182 16 31 11
-0.0187447 -0.0547604 1.182 13 27 10
-0.0168948 -0.054714 1.181 11 25 8
-0.0150479 -0.0546677 1.18 10 24 7
-0.0132153 -0.0546677 1.18 10 24 7
-0.0113731 -0.0546214 1.179 10 24 7
-0.00954204 -0.0546214 1.179 10 24 7
-0.00770447 -0.0545751 1.178 11 22 6
-0.00587001 -0.0545287 1.177 11 22 6
-0.00403865 -0.0544824 1.176 11 22 6
-0.00221229 -0.0544824 1.176 11 22 6
-0.000385918 -0.0544824 1.176 10 21 7
0.00144045 -0.0544824 1.176 10 21 7
0.00326682 -0.0544824 1.176 9 16 7
0.00508885 -0.0544361 1.175 5 12 3
0.00691367 -0.0544361 1.175 5 4 8
0.00872361 -0.0543434 1.173 31 30 34
0.0105183 -0.0542044 1.17 53 46 62
0.0122616 -0.0538801 1.163 57 50 66
0.0140194 -0.0536948 1.159 83 71 94
0.0157784 -0.0535558 1.156 90 78 101
0.0175129 -0.0533705 1.152 92 77 103
0.0192517 -0.0532315 1.149 88 73 99
0.0209996 -0.0531389 1.147 85 70 96
0.0227412 -0.0530462 1.145 80 65 91
0.024498 -0.0529999 1.144 87 68 99
0.0262976 -0.0530462 1.145 104 85 116
0.0280758 -0.0530462 1.145 106 87 118
0.0298541 -0.0530462 1.145 108 89 120
0.0316047 -0.0529999 1.144 103 84 115
0.0333813 -0.0529999 1.144 104 85 116
0.0351273 -0.0529536 1.143 103 83 117
0.0368701 -0.0529072 1.142 103 83 117
0.0386437 -0.0529072 1.142 103 82 118
0.0403464 -0.0528146 1.14 103 82 118
0.04208 -0.0527682 1.139 105 82 118
0.0438104 -0.0527219 1.138 105 82 118
0.0454976 -0.0526293 1.136 106 83 119
0.0470955 -0.0524439 1.132 106 83 119
0.048724 -0.052305 1.129 108 84 123
0.050388 -0.0522123 1.127 110 86 125
0.0520457 -0.0521196 1.125 110 83 123
0.0536494 -0.0519807 1.122 105 78 118
0.0552932 -0.051888 1.12 117 85 126
0.0569817 -0.0518417 1.119 138 106 147
0.058667 -0.0517953 1.118 165 131 172
0.0603493 -0.051749 1.117 163 129 170
0.0620285 -0.0517027 1.116 168 135 173
0.0637617 -0.0517027 1.116 173 140 178
0.0654948 -0.0517027 1.116 183 150 188
0.067228 -0.0517027 1.116 198 165 203
0.0689612 -0.0517027 1.116 196 163 201
0.0706944 -0.0517027 1.116 187 154 192
0.0724276 -0.0517027 1.116 188 153 191
0.0741608 -0.0517027 1.116 191 156 194
0.075894 -0.0517027 1.116 194 159 197
0.0776271 -0.0517027 1.116 184 149 187
0.0793603 -0.0517027 1.116 176 138 177
0.0811662 -0.051749 1.117 171 133 172
0.0829751 -0.0517953 1.118 169 131 170
0.0847114 -0.0517953 1.118 187 149 188
0.0864477 -0.0517953 1.118 196 158 197
0.0882629 -0.0518417 1.119 196 158 197
0.0900007 -0.0518417 1.119 198 160 199
0.0918206 -0.051888 1.12 194 156 195
0.09356 -0.051888 1.12 193 155 194
0.0952994 -0.051888 1.12 193 155 194
0.0970388 -0.051888 1.12 196 158 197
0.0987782 -0.051888 1.12 204 166 205
0.100518 -0.051888 1.12 196 158 197
0.102257 -0.051888 1.12 187 149 188
0.103996 -0.051888 1.12 187 149 188
0.105736 -0.051888 1.12 191 153 192
0.107475 -0.051888 1.12 193 155 194
0.109117 -0.0518417 1.119 193 155 194
0.110756 -0.0517953 1.118 193 155 194
0.112492 -0.0517953 1.118 194 156 195
0.114228 -0.0517953 1.118 201 163 202
0.115965 -0.0517953 1.118 203 165 204
0.117701 -0.0517953 1.118 201 163 202
0.119437 -0.0517953 1.118 201 163 202
0.121282 -0.0518417 1.119 205 167 206
0.12313 -0.051888 1.12 202 164 203
0.124869 -0.051888 1.12 191 150 192
0.126722 -0.0519343 1.121 170 129 171
0.128463 -0.0519343 1.121 150 109 151
0.130203 -0.0519343 1.121 153 112 154
0.131944 -0.0519343 1.121 160 120 159
0.133685 -0.0519343 1.121 200 160 199
0.135426 -0.0519343 1.121 230 190 229
0.137167 -0.0519343 1.121 233 193 232
0.138908 -0.0519343 1.121 235 195 234
0.140649 -0.0519343 1.121 231 191 230
0.142517 -0.0519807 1.122 227 187 226
0.14426 -0.0519807 1.122 226 186 225
0.146002 -0.0519807 1.122 226 182 225
0.147876 -0.052027 1.123 225 181 224
0.14962 -0.052027 1.123 212 167 214
0.151499 -0.0520733 1.124 194 149 196
0.153381 -0.0521196 1.125 189 147 193
0.155128 -0.0521196 1.125 196 154 200
0.156876 -0.0521196 1.125 202 160 206
0.158764 -0.052166 1.126 204 162 208
0.160655 -0.0522123 1.127 181 135 185
0.162405 -0.0522123 1.127 157 111 161
0.164301 -0.0522586 1.128 160 117 166
0.1662 -0.052305 1.129 197 154 203
0.167954 -0.052305 1.129 207 164 213
0.169857 -0.0523513 1.13 202 159 208
0.171612 -0.0523513 1.13 198 157 206
0.173367 -0.0523513 1.13 161 120 169
0.175277 -0.0523976 1.131 149 106 155
0.177033 -0.0523976 1.131 148 105 154
0.178948 -0.0524439 1.132 160 117 166
0.180706 -0.0524439 1.132 154 111 160
0.182464 -0.0524439 1.132 152 114 162
0.184222 -0.0524439 1.132 162 124 172
0.18598 -0.0524439 1.132 157 119 167
0.187738 -0.0524439 1.132 153 115 163
0.189496 -0.0524439 1.132 172 132 178
0.191254 -0.0524439 1.132 184 144 190
0.193353 -0.0525366 1.134 184 145 189
0.195114 -0.0525366 1.134 182 143 187
0.197223 -0.0526293 1.136 156 115 159
0.199162 -0.0526756 1.137 142 101 145
0.201105 -0.0527219 1.138 141 103 142
0.203229 -0.0528146 1.14 136 98 137
0.205179 -0.0528609 1.141 170 130 169
0.207132 -0.0529072 1.142 170 130 169
0.209272 -0.0529999 1.144 138 101 138
0.211048 -0.0529999 1.144 132 95 132
0.213011 -0.0530462 1.145 138 104 140
0.214789 -0.0530462 1.145 155 121 157
0.216757 -0.0530925 1.146 163 131 167
0.218727 -0.0531389 1.147 156 124 160
0.220701 -0.0531852 1.148 148 115 153
0.224462 -0.0532315 1.149 144 111 149
0.226443 -0.0532779 1.15 150 117 155
0.228428 -0.0533242 1.151 149 117 153
0.230415 -0.0533705 1.152 144 112 148
0.232406 -0.0534168 1.153 129 97 128
0.234603 -0.0535095 1.155 108 76 107
0.236601 -0.0535558 1.156 120 92 123
0.238809 -0.0536485 1.158 161 133 164
0.241023 -0.0537411 1.16 154 130 157
0.243034 -0.0537875 1.161 149 125 152
0.245048 -0.0538338 1.162 126 104 131
0.247065 -0.0538801 1.163 100 78 105
0.248871 -0.0538801 1.163 67 52 71
0.250893 -0.0539265 1.164 25 10 29
0.2527 -0.0539265 1.164 5 0 10
0.25391 -0.0530462 1.145 11 9 10
0.255169 -0.0522123 1.127 13 15 9
0.25464 -0.051749 1.117 13 15 9
0.255457 -0.0515637 1.113 15 18 10
0.25603 -0.0513321 1.108 15 18 10
0.25682 -0.0511467 1.104 15 18 10
0.257364 -0.0509151 1.099 15 18 10
0.258363 -0.0507761 1.096 11 14 6
0.259354 -0.0506371 1.093 11 14 6
0.260573 -0.0505445 1.091 9 10 7
0.261787 -0.0504518 1.089 2 3 0
0.263236 -0.0504055 1.088 0 5 0
0.274931 -0.0510078 1.101 13 19 12
0.293034 -0.0533705 1.152 11 21 9
0.314817 -0.0546677 1.18 12 26 9
0.316649 -0.0546677 1.18 12 26 9
0.318482 -0.0546677 1.18 13 27 10
0.320586 -0.054714 1.181 13 27 10
0.322147 -0.0546677 1.18 13 28 8
0.323979 -0.0546677 1.18 13 28 8
0.325812 -0.0546677 1.18 15 30 10
0.327922 -0.054714 1.181 17 32 12
0.329756 -0.054714 1.181 12 28 6
0.331871 -0.0547604 1.182 20 36 14
0.333989 -0.0548067 1.183 22 38 16
0.335827 -0.0548067 1.183 23 39 17
0.337949 -0.054853 1.184 24 40 18
0.340075 -0.0548994 1.185 23 39 17
0.341915 -0.0548994 1.185 23 39 17
0.343756 -0.0548994 1.185 23 39 17
0.345596 -0.0548994 1.185 22 38 16
0.347436 -0.0548994 1.185 32 48 26
0.348982 -0.054853 1.184 43 54 33
0.350524 -0.0548067 1.183 44 55 34
0.352064 -0.0547604 1.182 36 47 26
0.3539 -0.0547604 1.182 34 45 24
0.355133 -0.0546677 1.18 32 45 24
0.356663 -0.0546214 1.179 29 42 21
0.35819 -0.0545751 1.178 28 39 23
0.359409 -0.0544824 1.176 28 39 23
0.360928 -0.0544361 1.175 26 35 26
0.362135 -0.0543434 1.173 24 33 24
0.363647 -0.0542971 1.172 18 25 21
0.363596 -0.0540191 1.166 13 20 16
0.361646 -0.0534632 1.154 39 47 49
0.361749 -0.0529536 1.143 124 132 139
0.361934 -0.0527219 1.138 131 139 146
0.362423 -0.0525366 1.134 143 151 158
0.363542 -0.0524439 1.132 143 151 158
0.366591 -0.0526293 1.136 82 90 97
0.3703 -0.0529072 1.142 84 92 99
-0.1663 -0.0531464 1.187 10 24 9
-0.164457 -0.0531464 1.187 11 25 10
-0.16275 -0.0531911 1.188 10 24 9
-0.161041 -0.0532359 1.189 10 24 9
-0.159194 -0.0532359 1.189 10 24 9
-0.15748 -0.0532807 1.19 10 24 9
-0.155632 -0.0532807 1.19 11 25 10
-0.153913 -0.0533255 1.191 10 24 9
-0.151936 -0.0532807 1.19 18 32 17
-0.150087 -0.0532807 1.19 17 31 16
-0.148239 -0.0532807 1.19 17 31 16
-0.146391 -0.0532807 1.19 18 32 17
-0.144543 -0.0532807 1.19 19 33 18
-0.142695 -0.0532807 1.19 19 33 18
-0.14061 -0.0531911 1.188 18 32 15
-0.138765 -0.0531911 1.188 19 33 16
-0.136805 -0.0531464 1.187 19 33 16
-0.134961 -0.0531464 1.187 19 33 16
-0.13323 -0.0531911 1.188 20 34 17
-0.131385 -0.0531911 1.188 19 33 16
-0.129758 -0.0532807 1.19 18 33 13
-0.12791 -0.0532807 1.19 18 33 13
-0.126274 -0.0533702 1.192 18 33 13
-0.124527 -0.053415 1.193 18 33 13
-0.122777 -0.0534598 1.194 19 34 14
-0.121024 -0.0535046 1.195 18 33 13
-0.119268 -0.0535493 1.196 18 33 13
-0.117509 -0.0535941 1.197 18 33 13
-0.11565 -0.0535941 1.197 19 34 14
-0.113981 -0.0536836 1.199 18 33 13
-0.112119 -0.0536836 1.199 19 34 14
-0.110349 -0.0537284 1.2 18 33 13
-0.108485 -0.0537284 1.2 18 33 13
-0.10671 -0.0537732 1.201 18 33 13
-0.104845 -0.0537732 1.201 18 33 13
-0.10298 -0.0537732 1.201 18 33 13
-0.101115 -0.0537732 1.201 17 32 12
-0.0992494 -0.0537732 1.201 17 32 12
-0.0973031 -0.0537284 1.2 17 32 12
-0.0954395 -0.0537284 1.2 18 33 13
-0.0934979 -0.0536836 1.199 19 34 14
-0.0915593 -0.0536389 1.198 19 34 14
-0.0895491 -0.0535493 1.196 18 33 13
-0.0876916 -0.0535493 1.196 17 32 12
-0.0857624 -0.0535046 1.195 16 31 11
-0.0838363 -0.0534598 1.194 16 31 11
-0.0818447 -0.0533702 1.192 15 30 10
-0.0799935 -0.0533702 1.192 16 31 11
-0.0780112 -0.0532807 1.19 16 31 11
-0.076035 -0.0531911 1.188 16 31 11
-0.07419 -0.0531911 1.188 16 31 11
-0.0722841 -0.0531464 1.187 16 31 11
-0.0704407 -0.0531464 1.187 15 30 10
-0.0685972 -0.0531464 1.187 16 31 11
-0.0667538 -0.0531464 1.187 16 31 11
-0.0648556 -0.0531016 1.186 16 31 11
-0.06312 -0.0531911 1.188 15 30 10
-0.0613266 -0.0532359 1.189 16 31 11
-0.05953 -0.0532807 1.19 16 31 11
-0.0576819 -0.0532807 1.19 15 30 10
-0.0558807 -0.0533255 1.191 13 28 8
-0.0540311 -0.0533255 1.191 17 32 12
-0.0521814 -0.0533255 1.191 17 32 12
-0.0503318 -0.0533255 1.191 17 32 12
-0.0484821 -0.0533255 1.191 13 28 8
-0.0465933 -0.0532807 1.19 13 28 8
-0.0447452 -0.0532807 1.19 13 28 8
-0.042825 -0.0531911 1.188 12 27 7
-0.0409455 -0.0531464 1.187 16 31 11
-0.039102 -0.0531464 1.187 15 30 10
-0.0372272 -0.0531016 1.186 15 30 10
-0.0353554 -0.0530568 1.185 15 30 10
-0.0335151 -0.0530568 1.185 16 31 11
-0.0316747 -0.0530568 1.185 15 30 10
-0.0298344 -0.0530568 1.185 16 31 11
-0.0279704 -0.053012 1.184 16 31 11
-0.0261316 -0.053012 1.184 16 31 11
-0.0242723 -0.0529673 1.183 16 31 11
-0.0224351 -0.0529673 1.183 16 31 11
-0.0205804 -0.0529225 1.182 15 30 10
-0.0187447 -0.0529225 1.182 15 29 12
-0.0168948 -0.0528777 1.181 11 25 8
-0.0150479 -0.0528329 1.18 10 24 7
-0.0132041 -0.0527882 1.179 11 25 8
-0.0113731 -0.0527882 1.179 12 26 9
-0.00954204 -0.0527882 1.179 12 26 9
-0.00770447 -0.0527434 1.178 12 26 9
-0.00587001 -0.0526986 1.177 11 25 8
-0.00403865 -0.0526539 1.176 12 23 7
-0.00221229 -0.0526539 1.176 11 22 6
-0.000385918 -0.0526539 1.176 8 19 5
0.00144045 -0.0526539 1.176 8 19 5
0.00326682 -0.0526539 1.176 3 9 2
0.00508885 -0.0526091 1.175 6 12 5
0.00691367 -0.0526091 1.175 24 18 29
0.00872361 -0.0525195 1.173 45 39 50
0.0105183 -0.0523852 1.17 49 41 59
0.0122616 -0.0520718 1.163 73 65 83
0.0140194 -0.0518927 1.159 86 74 97
0.0157648 -0.0517136 1.155 88 76 99
0.0174977 -0.0515345 1.151 93 78 104
0.019235 -0.0514002 1.148 90 75 101
0.0209813 -0.0513106 1.146 90 75 101
0.0227412 -0.0512659 1.145 87 72 98
0.024498 -0.0512211 1.144 87 68 99
0.0262746 -0.0512211 1.144 101 82 113
0.0280513 -0.0512211 1.144 110 88 122
0.029828 -0.0512211 1.144 105 83 117
0.031577 -0.0511763 1.143 104 84 118
0.033323 -0.0511315 1.142 104 84 118
0.0350965 -0.0511315 1.142 104 84 118
0.0368378 -0.0510868 1.141 104 84 118
0.038576 -0.051042 1.14 103 83 117
0.0403464 -0.051042 1.14 103 83 117
0.042043 -0.0509525 1.138 106 83 119
0.0437719 -0.0509077 1.137 105 82 118
0.0454976 -0.0508629 1.136 106 83 119
0.0470955 -0.0506838 1.132 106 83 119
0.0487672 -0.0505943 1.13 106 83 119
0.050388 -0.0504599 1.127 108 85 121
0.0519995 -0.0503256 1.124 112 83 125
0.0536494 -0.0502361 1.122 107 78 120
0.0553426 -0.0501913 1.121 114 82 123
0.0569817 -0.0501018 1.119 147 115 156
0.058667 -0.050057 1.118 170 138 179
0.0602953 -0.0499674 1.116 159 127 168
0.0620285 -0.0499674 1.116 169 136 174
0.0637045 -0.0499227 1.115 180 147 185
0.0654948 -0.0499674 1.116 193 160 198
0.067228 -0.0499674 1.116 201 168 206
0.0689612 -0.0499674 1.116 198 165 203
0.0706944 -0.0499674 1.116 189 156 194
0.0724276 -0.0499674 1.116 188 153 191
0.0741608 -0.0499674 1.116 191 156 194
0.075894 -0.0499674 1.116 188 153 191
0.0776271 -0.0499674 1.116 188 153 191
0.0794314 -0.0500122 1.117 190 152 191
0.0811662 -0.0500122 1.117 180 142 181
0.0829751 -0.050057 1.118 179 141 180
0.0847114 -0.050057 1.118 194 156 195
0.0864477 -0.050057 1.118 196 158 197
0.088184 -0.050057 1.118 194 156 195
0.0900007 -0.0501018 1.119 194 156 195
0.0917386 -0.0501018 1.119 194 156 195
0.09356 -0.0501465 1.12 194 156 195
0.0952994 -0.0501465 1.12 195 157 196
0.0970388 -0.0501465 1.12 196 158 197
0.0987782 -0.0501465 1.12 196 158 197
0.100518 -0.0501465 1.12 193 155 194
0.102257 -0.0501465 1.12 193 155 194
0.103996 -0.0501465 1.12 191 153 192
0.105736 -0.0501465 1.12 193 155 194
0.107475 -0.0501465 1.12 194 156 195
0.10902 -0.050057 1.118 194 156 195
0.110756 -0.050057 1.118 197 159 198
0.112492 -0.050057 1.118 197 159 198
0.114228 -0.050057 1.118 197 159 198
0.115965 -0.050057 1.118 196 158 197
0.117701 -0.050057 1.118 194 156 195
0.119437 -0.050057 1.118 194 156 195
0.121174 -0.050057 1.118 193 154 196
0.12313 -0.0501465 1.12 175 136 178
0.124869 -0.0501465 1.12 155 116 160
0.126722 -0.0501913 1.121 143 104 148
0.128463 -0.0501913 1.121 150 111 153
0.130203 -0.0501913 1.121 152 113 155
0.131944 -0.0501913 1.121 169 129 168
0.133685 -0.0501913 1.121 220 180 219
0.135426 -0.0501913 1.121 235 196 233
0.137167 -0.0501913 1.121 237 198 235
0.138908 -0.0501913 1.121 235 196 233
0.140649 -0.0501913 1.121 230 191 228
0.14239 -0.0501913 1.121 230 187 227
0.144131 -0.0501913 1.121 226 183 223
0.146002 -0.0502361 1.122 231 185 228
0.147876 -0.0502808 1.123 229 183 226
0.14962 -0.0502808 1.123 194 150 195
0.151499 -0.0503256 1.124 188 144 189
0.153381 -0.0503704 1.125 188 147 191
0.155128 -0.0503704 1.125 202 161 205
0.156876 -0.0503704 1.125 207 162 209
0.158764 -0.0504152 1.126 187 142 189
0.160655 -0.0504599 1.127 157 115 161
0.162405 -0.0504599 1.127 161 119 165
0.164301 -0.0505047 1.128 184 141 190
0.166053 -0.0505047 1.128 211 168 217
0.167954 -0.0505495 1.129 207 164 213
0.169707 -0.0505495 1.129 196 153 202
0.17146 -0.0505495 1.129 167 126 175
0.173367 -0.0505943 1.13 159 118 167
0.175122 -0.0505943 1.13 141 100 149
0.176877 -0.0505943 1.13 146 105 154
0.178632 -0.0505943 1.13 157 116 165
0.180387 -0.0505943 1.13 152 111 160
0.182142 -0.0505943 1.13 158 120 168
0.183897 -0.0505943 1.13 174 136 184
0.185652 -0.0505943 1.13 166 129 174
0.187407 -0.0505943 1.13 163 126 171
0.189329 -0.050639 1.131 188 152 195
0.191254 -0.0506838 1.132 187 151 194
0.193012 -0.0506838 1.132 189 153 196
0.195114 -0.0507734 1.134 179 143 186
0.196876 -0.0507734 1.134 154 113 157
0.198987 -0.0508629 1.136 146 105 149
0.200928 -0.0509077 1.137 140 101 143
0.202872 -0.0509525 1.138 143 104 146
0.204999 -0.051042 1.14 168 127 169
0.206951 -0.0510868 1.141 149 108 150
0.208906 -0.0511315 1.142 139 102 139
0.210679 -0.0511315 1.142 144 107 144
0.212639 -0.0511763 1.143 169 131 170
0.214414 -0.0511763 1.143 180 142 181
0.216378 -0.0512211 1.144 180 145 183
0.218155 -0.0512211 1.144 174 139 177
0.220124 -0.0512659 1.145 164 128 169
0.221902 -0.0512659 1.145 153 117 158
0.224071 -0.0513554 1.147 145 110 148
0.225853 -0.0513554 1.147 144 109 147
0.227832 -0.0514002 1.148 146 112 148
0.2316 -0.051445 1.149 132 98 134
0.233587 -0.0514897 1.15 128 94 130
0.235783 -0.0515793 1.152 176 146 177
0.237984 -0.0516688 1.154 189 159 190
0.240192 -0.0517584 1.156 194 166 197
0.242196 -0.0518032 1.157 188 160 191
0.244204 -0.0518479 1.158 180 155 185
0.246215 -0.0518927 1.159 160 135 165
0.248229 -0.0519375 1.16 131 111 140
0.250031 -0.0519375 1.16 93 73 102
0.251832 -0.0519375 1.16 59 46 65
0.253196 -0.0518479 1.158 23 10 29
0.254554 -0.0517584 1.156 11 5 16
0.254354 -0.0513554 1.147 11 5 16
0.255019 -0.0511315 1.142 10 8 9
0.255443 -0.0508629 1.136 11 9 10
0.257752 -0.0502808 1.123 13 14 11
0.257647 -0.0499227 1.115 15 16 13
0.258216 -0.0496988 1.11 15 17 11
0.259003 -0.0495197 1.106 15 17 11
0.260249 -0.0494301 1.104 16 18 12
0.261252 -0.0492958 1.101 16 18 12
0.262723 -0.0492511 1.1 9 11 5
0.264431 -0.0492511 1.1 9 11 5
0.265898 -0.0492063 1.099 6 11 7
0.267848 -0.0492511 1.1 6 11 7
0.278926 -0.0500122 1.117 12 18 11
0.316112 -0.0527434 1.178 13 27 10
0.318212 -0.0527882 1.179 16 30 13
0.320314 -0.0528329 1.18 13 27 10
0.322147 -0.0528329 1.18 13 28 8
0.323979 -0.0528329 1.18 15 30 10
0.326088 -0.0528777 1.181 16 31 11
0.3282 -0.0529225 1.182 17 32 12
0.330036 -0.0529225 1.182 18 34 12
0.332152 -0.0529673 1.183 20 36 14
0.333989 -0.0529673 1.183 23 39 17
0.33611 -0.053012 1.184 24 40 18
0.338235 -0.0530568 1.185 24 40 18
0.340075 -0.0530568 1.185 24 40 18
0.341915 -0.0530568 1.185 23 39 17
0.343756 -0.0530568 1.185 22 38 16
0.345596 -0.0530568 1.185 21 34 13
0.347436 -0.0530568 1.185 41 54 33
0.348982 -0.053012 1.184 45 58 37
0.350524 -0.0529673 1.183 40 53 32
0.352064 -0.0529225 1.182 29 40 19
0.3536 -0.0528777 1.181 33 44 23
0.355133 -0.0528329 1.18 31 44 23
0.356663 -0.0527882 1.179 29 42 21
0.35819 -0.0527434 1.178 29 40 24
0.359714 -0.0526986 1.177 32 43 27
0.360928 -0.0526091 1.175 26 36 24
0.362444 -0.0525643 1.174 25 35 23
0.363957 -0.0525195 1.173 18 25 21
0.363596 -0.0522061 1.166 14 21 17
0.363526 -0.0519375 1.16 40 48 50
0.361749 -0.0511763 1.143 126 134 141
0.361934 -0.0509525 1.138 131 139 146
0.362423 -0.0507734 1.134 149 157 164
0.363542 -0.0506838 1.132 146 154 161
0.366591 -0.0508629 1.136 78 88 95
0.3703 -0.0511315 1.142 80 90 97
-0.1663 -0.0513007 1.187 11 25 10
-0.164457 -0.0513007 1.187 10 24 9
-0.162887 -0.0513872 1.189 10 24 9
-0.161176 -0.0514304 1.19 10 24 9
-0.159328 -0.0514304 1.19 10 24 9
-0.15748 -0.0514304 1.19 10 24 9
-0.155632 -0.0514304 1.19 10 23 10
-0.153913 -0.0514736 1.191 11 24 11
-0.152063 -0.0514736 1.191 19 33 18
-0.150087 -0.0514304 1.19 16 30 15
-0.148239 -0.0514304 1.19 17 31 16
-0.146391 -0.0514304 1.19 19 33 18
-0.144543 -0.0514304 1.19 19 33 18
-0.142575 -0.0513872 1.189 19 33 18
-0.14061 -0.0513439 1.188 18 32 15
-0.138648 -0.0513007 1.187 20 34 17
-0.136805 -0.0513007 1.187 21 32 16
-0.134961 -0.0513007 1.187 19 30 14
-0.133118 -0.0513007 1.187 20 35 15
-0.131385 -0.0513439 1.188 18 33 13
-0.129649 -0.0513872 1.189 19 34 14
-0.12791 -0.0514304 1.19 19 34 14
-0.126168 -0.0514736 1.191 19 34 14
-0.124423 -0.0515168 1.192 19 34 14
-0.122777 -0.0516033 1.194 19 34 14
-0.121024 -0.0516465 1.195 18 33 13
-0.119268 -0.0516897 1.196 18 33 13
-0.117509 -0.0517329 1.197 19 34 14
-0.11565 -0.0517329 1.197 19 34 14
-0.113981 -0.0518193 1.199 18 33 13
-0.112119 -0.0518193 1.199 18 33 13
-0.110349 -0.0518626 1.2 18 33 13
-0.108485 -0.0518626 1.2 18 33 13
-0.10671 -0.0519058 1.201 18 33 13
-0.104932 -0.051949 1.202 18 33 13
-0.103066 -0.051949 1.202 18 33 13
-0.101199 -0.051949 1.202 18 33 13
-0.0992494 -0.0519058 1.201 17 32 12
-0.0973031 -0.0518626 1.2 17 32 12
-0.0954395 -0.0518626 1.2 18 33 13
-0.0934979 -0.0518193 1.199 18 33 13
-0.0915593 -0.0517761 1.198 18 33 13
-0.0896239 -0.0517329 1.197 18 33 13
-0.087765 -0.0517329 1.197 17 32 12
-0.0857624 -0.0516465 1.195 16 31 11
-0.0839066 -0.0516465 1.195 15 30 10
-0.081982 -0.0516033 1.194 15 30 10
-0.0799935 -0.0515168 1.192 16 31 11
-0.0781423 -0.0515168 1.192 17 32 12
-0.076163 -0.0514304 1.19 18 33 13
-0.0743149 -0.0514304 1.19 17 32 12
-0.0724668 -0.0514304 1.19 17 32 12
-0.0706187 -0.0514304 1.19 15 30 10
-0.0687706 -0.0514304 1.19 16 31 11
-0.0669225 -0.0514304 1.19 17 32 12
-0.0650744 -0.0514304 1.19 17 32 12
-0.0614297 -0.0514736 1.191 16 31 11
-0.0596301 -0.0515168 1.192 17 32 12
-0.0578274 -0.05156 1.193 17 32 12
-0.0559277 -0.0515168 1.192 16 31 11
-0.0541218 -0.05156 1.193 17 32 12
-0.0522252 -0.0515168 1.192 17 32 12
-0.050374 -0.0515168 1.192 16 31 11
-0.0485228 -0.0515168 1.192 13 28 8
-0.0465933 -0.0514304 1.19 12 27 7
-0.0447452 -0.0514304 1.19 13 28 8
-0.042825 -0.0513439 1.188 12 27 7
-0.0409455 -0.0513007 1.187 15 30 10
-0.0390691 -0.0512575 1.186 16 31 11
-0.0371958 -0.0512143 1.185 15 30 10
-0.0353554 -0.0512143 1.185 15 30 10
-0.0334868 -0.0511711 1.184 16 31 11
-0.031648 -0.0511711 1.184 16 31 11
-0.029784 -0.0511278 1.183 16 31 11
-0.0279468 -0.0511278 1.183 17 32 12
-0.0261096 -0.0511278 1.183 16 31 11
-0.0242518 -0.0510846 1.182 13 28 8
-0.0224351 -0.0511278 1.183 13 28 8
-0.0205804 -0.0510846 1.182 13 28 8
-0.0187447 -0.0510846 1.182 10 24 7
-0.0168948 -0.0510414 1.181 10 24 7
-0.0150479 -0.0509982 1.18 10 24 7
-0.0132041 -0.050955 1.179 12 26 9
-0.0113634 -0.0509118 1.178 12 26 9
-0.00954204 -0.050955 1.179 12 26 9
-0.00770447 -0.0509118 1.178 12 26 9
-0.00586502 -0.0508253 1.176 12 26 9
-0.00403522 -0.0507821 1.175 13 24 8
-0.00221041 -0.0507821 1.175 11 22 6
-0.000385918 -0.0508253 1.176 10 19 5
0.00144045 -0.0508253 1.176 9 18 4
0.00326404 -0.0507821 1.175 10 9 6
0.00508885 -0.0507821 1.175 10 9 6
0.0069019 -0.0506957 1.173 31 23 36
0.00870874 -0.0506092 1.171 42 34 47
0.0105004 -0.0504796 1.168 59 49 67
0.0122511 -0.0502203 1.162 87 77 95
0.0140073 -0.0500474 1.158 88 73 99
0.0157511 -0.0498745 1.154 82 67 93
0.0174825 -0.0497016 1.15 87 72 98
0.0192182 -0.049572 1.147 88 73 99
0.0209629 -0.0494855 1.145 95 77 106
0.0227213 -0.0494423 1.144 99 81 110
0.0244766 -0.0493991 1.143 90 71 102
0.0262517 -0.0493991 1.143 101 82 113
0.0280023 -0.0493559 1.142 106 87 118
0.0297758 -0.0493559 1.142 103 84 115
0.0315494 -0.0493559 1.142 105 84 115
0.0332938 -0.0493127 1.141 105 84 115
0.0350351 -0.0492694 1.14 108 86 120
0.0368055 -0.0492694 1.14 107 85 119
0.038576 -0.0492694 1.14 106 84 118
0.0402757 -0.049183 1.138 105 83 117
0.0420061 -0.0491398 1.137 105 82 118
0.0437334 -0.0490966 1.136 105 82 118
0.0454576 -0.0490533 1.135 107 84 120
0.0470955 -0.0489237 1.132 108 85 121
0.048724 -0.048794 1.129 106 83 119
0.0503433 -0.0486644 1.126 107 84 120
0.0519532 -0.0485347 1.123 109 82 122
0.0536016 -0.0484483 1.121 106 79 119
0.0552932 -0.0484051 1.12 116 84 125
0.0569308 -0.0483186 1.118 156 124 165
0.0585621 -0.0482322 1.116 178 144 185
0.0602953 -0.0482322 1.116 172 138 179
0.0619729 -0.048189 1.115 187 153 194
0.0637045 -0.048189 1.115 197 163 204
0.0654948 -0.0482322 1.116 198 164 205
0.067228 -0.0482322 1.116 200 166 207
0.0689612 -0.0482322 1.116 199 163 204
0.0706944 -0.0482322 1.116 193 157 198
0.0724276 -0.0482322 1.116 189 154 192
0.0741608 -0.0482322 1.116 191 156 194
0.075894 -0.0482322 1.116 192 157 195
0.0776271 -0.0482322 1.116 195 160 198
0.0794314 -0.0482754 1.117 188 153 191
0.0812388 -0.0483186 1.118 184 149 187
0.0829751 -0.0483186 1.118 190 152 191
0.0847114 -0.0483186 1.118 191 153 192
0.0864477 -0.0483186 1.118 193 155 194
0.088184 -0.0483186 1.118 196 158 197
0.0899203 -0.0483186 1.118 193 155 194
0.0917386 -0.0483618 1.119 193 155 194
0.09356 -0.0484051 1.12 191 153 192
0.0952994 -0.0484051 1.12 191 153 192
0.0970388 -0.0484051 1.12 191 153 192
0.0987782 -0.0484051 1.12 191 153 192
0.100518 -0.0484051 1.12 193 155 194
0.102257 -0.0484051 1.12 193 155 194
0.103996 -0.0484051 1.12 193 155 194
0.105736 -0.0484051 1.12 197 159 198
0.107379 -0.0483618 1.119 198 160 199
0.10902 -0.0483186 1.118 198 160 199
0.110756 -0.0483186 1.118 197 159 198
0.112391 -0.0482754 1.117 186 148 187
0.114126 -0.0482754 1.117 187 148 190
0.115861 -0.0482754 1.117 190 151 193
0.117596 -0.0482754 1.117 184 145 187
0.119437 -0.0483186 1.118 179 140 182
0.121174 -0.0483186 1.118 164 123 167
0.12302 -0.0483618 1.119 148 107 151
0.124869 -0.0484051 1.12 147 106 148
0.126609 -0.0484051 1.12 146 105 147
0.128463 -0.0484483 1.121 143 102 144
0.130203 -0.0484483 1.121 156 115 157
0.131944 -0.0484483 1.121 200 160 199
0.133685 -0.0484483 1.121 237 197 236
0.135426 -0.0484483 1.121 238 198 237
0.137167 -0.0484483 1.121 239 199 238
0.138908 -0.0484483 1.121 231 191 230
0.140649 -0.0484483 1.121 231 191 230
0.14239 -0.0484483 1.121 236 191 231
0.144131 -0.0484483 1.121 227 182 222
0.146002 -0.0484915 1.122 231 185 228
0.147876 -0.0485347 1.123 223 177 220
0.14962 -0.0485347 1.123 185 141 184
0.151499 -0.0485779 1.124 186 142 185
0.153381 -0.0486212 1.125 197 153 196
0.155128 -0.0486212 1.125 205 161 204
0.156876 -0.0486212 1.125 200 156 201
0.158764 -0.0486644 1.126 165 121 166
0.160655 -0.0487076 1.127 160 119 163
0.162405 -0.0487076 1.127 170 129 173
0.164155 -0.0487076 1.127 202 160 206
0.166053 -0.0487508 1.128 206 164 210
0.167805 -0.0487508 1.128 203 163 209
0.169707 -0.048794 1.129 198 158 204
0.17146 -0.048794 1.129 189 149 195
0.173214 -0.048794 1.129 183 143 189
0.174967 -0.048794 1.129 160 119 168
0.17672 -0.048794 1.129 139 98 147
0.178474 -0.048794 1.129 137 96 145
0.180227 -0.048794 1.129 146 105 154
0.181981 -0.048794 1.129 171 130 179
0.183734 -0.048794 1.129 184 143 192
0.185652 -0.0488373 1.13 180 143 188
0.187407 -0.0488373 1.13 184 147 192
0.189161 -0.0488373 1.13 196 156 202
0.190916 -0.0488373 1.13 191 151 197
0.192842 -0.0488805 1.131 194 155 199
0.19477 -0.0489237 1.132 190 151 195
0.196702 -0.0489669 1.133 177 135 181
0.198637 -0.0490101 1.134 166 124 170
0.200751 -0.0490966 1.136 141 100 144
0.202694 -0.0491398 1.137 147 106 150
0.204639 -0.049183 1.138 147 108 150
0.206588 -0.0492262 1.139 147 108 150
0.20854 -0.0492694 1.14 164 126 165
0.21031 -0.0492694 1.14 188 150 189
0.212081 -0.0492694 1.14 184 146 185
0.214039 -0.0493127 1.141 184 146 185
0.216 -0.0493559 1.142 177 139 178
0.217774 -0.0493559 1.142 164 126 165
0.21974 -0.0493991 1.143 162 127 165
0.221708 -0.0494423 1.144 166 131 169
0.223485 -0.0494423 1.144 164 129 167
0.225459 -0.0494855 1.145 156 121 159
0.227237 -0.0494855 1.145 159 123 164
0.229415 -0.049572 1.147 155 119 160
0.231398 -0.0496152 1.148 153 118 156
0.233384 -0.0496584 1.149 175 140 178
0.237365 -0.0497448 1.151 201 167 203
0.239361 -0.0497881 1.152 205 173 209
0.241568 -0.0498745 1.154 206 174 210
0.243572 -0.0499177 1.155 182 152 188
0.245365 -0.0499177 1.155 154 124 160
0.247587 -0.0500042 1.157 97 75 109
0.249168 -0.0499609 1.156 76 54 88
0.251181 -0.0500042 1.157 77 61 90
0.252759 -0.0499609 1.156 67 51 80
0.254114 -0.0498745 1.154 44 34 52
0.254797 -0.0496584 1.149 26 16 34
0.255689 -0.0494855 1.145 12 6 17
0.256567 -0.0493127 1.141 8 2 13
0.25766 -0.049183 1.138 10 8 9
0.258516 -0.0490101 1.134 11 9 10
0.259359 -0.0488373 1.13 8 8 8
0.260877 -0.0481458 1.114 13 15 9
0.261899 -0.0480161 1.111 15 17 11
0.263388 -0.0479729 1.11 15 17 11
0.265111 -0.0479729 1.11 15 17 11
0.266835 -0.0479729 1.11 13 15 9
0.268559 -0.0479729 1.11 15 17 11
0.283425 -0.0487508 1.128 12 19 10
0.317942 -0.0509118 1.178 16 30 13
0.320043 -0.050955 1.179 15 29 12
0.322147 -0.0509982 1.18 15 30 10
0.323979 -0.0509982 1.18 15 30 10
0.326088 -0.0510414 1.181 17 33 11
0.3282 -0.0510846 1.182 19 35 13
0.330315 -0.0511278 1.183 19 35 13
0.332152 -0.0511278 1.183 20 36 14
0.334554 -0.0512143 1.185 22 38 16
0.336394 -0.0512143 1.185 22 38 16
0.338235 -0.0512143 1.185 24 40 18
0.340075 -0.0512143 1.185 25 41 19
0.341915 -0.0512143 1.185 24 40 18
0.343756 -0.0512143 1.185 18 34 12
0.345596 -0.0512143 1.185 28 41 20
0.347143 -0.0511711 1.184 43 56 35
0.348687 -0.0511278 1.183 41 54 33
0.350228 -0.0510846 1.182 42 55 34
0.352064 -0.0510846 1.182 35 46 25
0.353301 -0.0509982 1.18 36 47 26
0.355133 -0.0509982 1.18 33 44 23
0.356663 -0.050955 1.179 26 37 16
0.35819 -0.0509118 1.178 22 33 17
0.359714 -0.0508685 1.177 25 36 20
0.360928 -0.0507821 1.175 25 35 23
0.362135 -0.0506957 1.173 25 35 23
0.363957 -0.0506957 1.173 20 26 25
0.363596 -0.0503931 1.166 15 21 20
0.363526 -0.0501338 1.16 41 48 52
0.361749 -0.0493991 1.143 130 138 145
0.361934 -0.049183 1.138 137 145 152
0.362103 -0.0489669 1.133 151 161 168
0.363542 -0.0489237 1.132 149 159 166
0.366913 -0.0491398 1.137 80 88 95
0.3703 -0.0493559 1.142 82 90 97
-0.1663 -0.0494551 1.187 11 25 10
-0.164595 -0.0494967 1.188 11 25 10
-0.162887 -0.0495384 1.189 11 24 11
-0.161176 -0.0495801 1.19 10 23 10
-0.159328 -0.0495801 1.19 9 22 9
-0.15748 -0.0495801 1.19 10 23 10
-0.155763 -0.0496217 1.191 10 23 10
-0.153913 -0.0496217 1.191 11 24 11
-0.152063 -0.0496217 1.191 17 31 16
-0.150087 -0.0495801 1.19 18 32 17
-0.148239 -0.0495801 1.19 17 31 16
-0.146391 -0.0495801 1.19 18 32 17
-0.144543 -0.0495801 1.19 17 31 16
-0.142455 -0.0494967 1.188 18 32 17
-0.140492 -0.0494551 1.187 18 32 15
-0.138648 -0.0494551 1.187 19 33 16
-0.136805 -0.0494551 1.187 20 31 15
-0.134961 -0.0494551 1.187 19 30 14
-0.133118 -0.0494551 1.187 20 35 15
-0.131275 -0.0494551 1.187 18 33 13
-0.12954 -0.0494967 1.188 18 33 13
-0.12791 -0.0495801 1.19 19 34 14
-0.126168 -0.0496217 1.191 20 35 15
-0.124423 -0.0496634 1.192 19 34 14
-0.122674 -0.0497051 1.193 20 35 15
-0.121024 -0.0497884 1.195 19 34 14
-0.119268 -0.0498301 1.196 18 33 13
-0.117509 -0.0498717 1.197 19 34 14
-0.11565 -0.0498717 1.197 19 34 14
-0.113981 -0.049955 1.199 18 33 13
-0.112119 -0.049955 1.199 18 33 13
-0.110349 -0.0499967 1.2 18 33 13
-0.108485 -0.0499967 1.2 17 32 12
-0.106621 -0.0499967 1.2 18 33 13
-0.104932 -0.05008 1.202 18 33 13
-0.10298 -0.0500384 1.201 18 33 13
-0.101115 -0.0500384 1.201 19 34 14
-0.0991668 -0.0499967 1.2 17 32 12
-0.0973031 -0.0499967 1.2 17 32 12
-0.0954395 -0.0499967 1.2 17 32 12
-0.0934979 -0.049955 1.199 17 32 12
-0.0915593 -0.0499134 1.198 18 33 13
-0.0896239 -0.0498717 1.197 18 33 13
-0.087765 -0.0498717 1.197 17 32 12
-0.0858342 -0.0498301 1.196 17 32 12
-0.0839066 -0.0497884 1.195 17 32 12
-0.081982 -0.0497467 1.194 18 33 13
-0.0801277 -0.0497467 1.194 17 32 12
-0.0781423 -0.0496634 1.192 17 32 12
-0.076291 -0.0496634 1.192 18 33 13
-0.0744398 -0.0496634 1.192 18 33 13
-0.0725886 -0.0496634 1.192 17 32 12
-0.0707374 -0.0496634 1.192 15 30 10
-0.0688862 -0.0496634 1.192 16 31 11
-0.067035 -0.0496634 1.192 17 32 12
-0.0651838 -0.0496634 1.192 17 32 12
-0.0633857 -0.0497051 1.193 16 31 11
-0.0616361 -0.0497884 1.195 16 31 11
-0.0597802 -0.0497884 1.195 16 31 11
-0.0579243 -0.0497884 1.195 16 31 11
-0.0561153 -0.0498301 1.196 16 31 11
-0.0542125 -0.0497884 1.195 16 31 11
-0.0523129 -0.0497467 1.194 15 30 10
-0.0504585 -0.0497467 1.194 16 31 11
-0.0485228 -0.0496634 1.192 15 30 10
-0.0466324 -0.0496217 1.191 15 30 10
-0.0447076 -0.0495384 1.189 15 30 10
-0.042825 -0.0494967 1.188 13 28 8
-0.0409455 -0.0494551 1.187 13 28 8
-0.0390361 -0.0493718 1.185 15 30 10
-0.0371958 -0.0493718 1.185 15 30 10
-0.0353256 -0.0493301 1.184 15 30 10
-0.0334868 -0.0493301 1.184 16 31 11
-0.0316213 -0.0492884 1.183 17 32 12
