ply
format ascii 1.0
comment Created by Open3D
element vertex 1309
property double x
property double y
property double z
property uchar red
property uchar green
property uchar blue
end_header
-0.0610267 0.00690344 1.056 91 203 255
-0.0593867 0.00690344 1.056 89 202 253
-0.0577467 0.00690344 1.056 82 195 246
-0.0561067 0.00690344 1.056 89 201 248
-0.0544667 0.00690344 1.056 94 206 253
-0.0528267 0.00690344 1.056 100 214 255
-0.0511867 0.00690344 1.056 102 216 255
-0.0494997 0.0068969 1.055 103 219 254
-0.0477706 0.00688383 1.053 111 227 255
-0.0461352 0.00688383 1.053 108 226 254
-0.0444576 0.00687729 1.052 103 221 249
-0.0427831 0.00687075 1.051 112 231 251
-0.0411509 0.00687075 1.051 117 236 255
-0.0395186 0.00687075 1.051 135 235 250
-0.0378864 0.00687075 1.051 131 231 246
-0.0362542 0.00687075 1.051 176 251 255
-0.0346878 0.00688383 1.053 184 255 255
-0.0330838 0.00689036 1.054 202 246 255
-0.0315066 0.00690344 1.056 175 219 233
-0.0298949 0.00690998 1.057 194 221 233
-0.0283068 0.00692305 1.059 193 220 232
-0.0266873 0.00692959 1.06 220 242 255
-0.0250647 0.00693613 1.061 216 238 251
-0.0234169 0.00693613 1.061 207 226 240
-0.0217897 0.00694266 1.062 201 220 234
-0.0185085 0.0069492 1.063 199 216 230
-0.015221 0.00695574 1.064 236 252 255
-0.0135813 0.00696227 1.065 232 249 255
-0.0119274 0.00696227 1.065 211 228 237
-0.010283 0.00696881 1.066 213 227 235
-0.00862749 0.00696881 1.066 213 227 235
-0.0069785 0.00697535 1.067 238 251 255
-0.00532141 0.00697535 1.067 241 254 255
-0.00366432 0.00697535 1.067 241 254 255
-0.00200724 0.00697535 1.067 233 246 252
-0.000349821 0.00696881 1.066 217 229 237
0.00130571 0.00696881 1.066 208 220 228
0.00295847 0.00696227 1.065 204 223 232
0.00627232 0.00696881 1.066 208 239 251
0.00793529 0.00697535 1.067 198 229 241
0.00960137 0.00698189 1.068 176 237 247
0.01126 0.00698189 1.068 173 234 244
0.0129307 0.00698842 1.069 144 240 246
0.0146046 0.00699496 1.07 143 239 245
0.0162967 0.00700804 1.072 125 243 247
0.0179783 0.00701457 1.073 127 245 249
0.0196631 0.00702111 1.074 126 251 254
0.021331 0.00702111 1.074 127 252 255
0.022999 0.00702111 1.074 122 252 254
0.0246899 0.00702765 1.075 122 252 254
0.0263594 0.00702765 1.075 124 254 254
0.0280289 0.00702765 1.075 127 255 255
0.0296984 0.00702765 1.075 129 255 255
0.0313971 0.00703419 1.076 125 255 255
0.0330682 0.00703419 1.076 125 255 255
0.0347715 0.00704072 1.077 120 250 250
0.0364442 0.00704072 1.077 121 251 251
0.0381522 0.00704726 1.078 124 254 254
0.0398633 0.0070538 1.079 122 252 252
0.0415775 0.00706033 1.08 115 245 245
0.0432548 0.00706033 1.08 122 252 252
0.0449321 0.00706033 1.08 132 255 255
0.0466525 0.00706687 1.081 129 255 255
0.0483313 0.00706687 1.081 124 254 255
0.0500102 0.00706687 1.081 124 254 255
0.0517368 0.00707341 1.082 120 250 252
0.0534172 0.00707341 1.082 131 255 255
0.0550976 0.00707341 1.082 134 255 255
0.0567779 0.00707341 1.082 133 255 255
0.0584583 0.00707341 1.082 129 255 255
0.0601387 0.00707341 1.082 131 255 255
0.0618191 0.00707341 1.082 128 254 253
0.0634995 0.00707341 1.082 135 255 254
0.0652401 0.00707995 1.083 136 255 255
0.0668602 0.00707341 1.082 138 255 255
0.0685406 0.00707341 1.082 138 255 255
0.0702859 0.00707995 1.083 140 255 255
0.0719678 0.00707995 1.083 140 255 255
0.0736498 0.00707995 1.083 140 255 255
0.0754013 0.00708648 1.084 140 255 255
0.0770848 0.00708648 1.084 142 255 255
0.0788409 0.00709302 1.085 142 255 255
0.0806002 0.00709956 1.086 142 255 255
0.0822868 0.00709956 1.086 142 255 255
0.0840507 0.0071061 1.087 144 255 254
0.0858177 0.00711263 1.088 145 255 255
0.0875074 0.00711263 1.088 147 255 255
0.0892791 0.00711917 1.089 147 255 255
0.0910539 0.00712571 1.09 151 255 255
0.0929169 0.00713878 1.092 151 255 255
0.0946128 0.00713878 1.092 160 255 254
0.0964851 0.00715186 1.094 160 255 254
0.0982739 0.0071584 1.095 165 255 255
0.100157 0.00717147 1.097 165 255 255
0.101954 0.00717801 1.098 172 255 252
0.103848 0.00719108 1.1 173 255 253
0.105556 0.00719108 1.1 191 255 255
0.107752 0.00722377 1.105 189 255 255
0.11209 0.0072826 1.114 12 67 62
0.114944 0.00735452 1.125 22 54 43
0.125726 0.00758332 1.16 47 73 47
0.128627 0.0076487 1.17 53 79 53
0.133617 0.00772714 1.182 54 82 49
0.135797 0.00774676 1.185 52 79 44
0.137869 0.00775983 1.187 52 79 44
0.139713 0.00775983 1.187 52 79 44
0.141556 0.00775983 1.187 49 76 41
0.1434 0.00775983 1.187 53 80 45
0.145243 0.00775983 1.187 52 79 44
0.147211 0.00776637 1.188 53 80 45
0.149306 0.00777944 1.19 53 80 45
0.151155 0.00777944 1.19 53 81 43
0.153003 0.00777944 1.19 53 81 43
0.154981 0.00778598 1.191 58 84 45
0.156831 0.00778598 1.191 58 84 45
0.158813 0.00779252 1.192 57 83 42
0.160665 0.00779252 1.192 57 83 42
0.162516 0.00779252 1.192 57 83 42
0.164367 0.00779252 1.192 56 82 41
0.166358 0.00779906 1.193 58 84 43
0.168211 0.00779906 1.193 61 87 46
0.170063 0.00779906 1.193 60 86 45
0.17206 0.00780559 1.194 61 87 46
0.173915 0.00780559 1.194 63 87 46
0.175769 0.00780559 1.194 63 87 46
0.177623 0.00780559 1.194 63 87 46
0.179477 0.00780559 1.194 64 88 47
0.181332 0.00780559 1.194 63 87 46
0.183186 0.00780559 1.194 63 87 46
0.18504 0.00780559 1.194 64 88 47
0.186895 0.00780559 1.194 64 88 47
0.188749 0.00780559 1.194 64 88 47
0.190603 0.00780559 1.194 64 88 47
0.192619 0.00781213 1.195 64 88 47
0.194475 0.00781213 1.195 64 88 47
0.196331 0.00781213 1.195 66 90 49
0.198021 0.00780559 1.194 65 89 48
0.199708 0.00779906 1.193 64 88 47
0.20156 0.00779906 1.193 63 87 46
0.203413 0.00779906 1.193 63 87 46
0.205094 0.00779252 1.192 64 88 47
0.206945 0.00779252 1.192 65 89 48
0.208796 0.00779252 1.192 65 89 48
0.210471 0.00778598 1.191 68 92 51
0.21232 0.00778598 1.191 65 89 48
0.21399 0.00777944 1.19 64 88 47
0.215838 0.00777944 1.19 64 88 47
0.217687 0.00777944 1.19 65 89 48
0.219535 0.00777944 1.19 66 90 49
0.221383 0.00777944 1.19 72 96 55
0.223231 0.00777944 1.19 72 96 55
0.225079 0.00777944 1.19 62 86 45
0.226927 0.00777944 1.19 59 83 42
0.228775 0.00777944 1.19 59 83 42
0.230623 0.00777944 1.19 55 79 38
0.232471 0.00777944 1.19 57 79 38
0.23432 0.00777944 1.19 55 77 36
0.236366 0.00778598 1.191 53 75 36
0.238216 0.00778598 1.191 51 73 34
0.240065 0.00778598 1.191 50 73 36
0.242118 0.00779252 1.192 45 68 31
0.243969 0.00779252 1.192 43 65 31
0.245821 0.00779252 1.192 42 64 30
0.247672 0.00779252 1.192 48 66 37
0.249732 0.00779906 1.193 31 49 20
0.251796 0.00780559 1.194 34 52 23
0.253863 0.00781213 1.195 33 51 22
0.255719 0.00781213 1.195 33 51 24
0.257575 0.00781213 1.195 32 50 23
0.259648 0.00781867 1.196 33 48 22
0.261724 0.0078252 1.197 33 48 22
0.263583 0.0078252 1.197 33 47 23
0.265442 0.0078252 1.197 33 47 23
0.267301 0.0078252 1.197 33 47 23
0.26916 0.0078252 1.197 33 47 23
0.271019 0.0078252 1.197 33 47 23
0.272878 0.0078252 1.197 34 48 24
0.274736 0.0078252 1.197 34 48 24
0.276595 0.0078252 1.197 34 48 24
0.278222 0.00781867 1.196 33 48 22
0.279845 0.00781213 1.195 33 48 22
0.281701 0.00781213 1.195 34 49 23
0.28332 0.00780559 1.194 34 49 23
0.285174 0.00780559 1.194 34 49 23
0.286788 0.00779906 1.193 34 49 23
0.288399 0.00779252 1.192 34 49 23
0.29025 0.00779252 1.192 34 49 23
0.292101 0.00779252 1.192 34 49 23
0.293706 0.00778598 1.191 33 48 22
0.295555 0.00778598 1.191 32 49 24
0.297405 0.00778598 1.191 34 51 26
0.299003 0.00777944 1.19 34 51 26
0.300852 0.00777944 1.19 34 51 26
0.3027 0.00777944 1.19 31 48 23
0.304548 0.00777944 1.19 30 47 22
0.306396 0.00777944 1.19 31 48 23
0.308503 0.00778598 1.191 33 50 25
0.310613 0.00779252 1.192 33 50 25
0.312464 0.00779252 1.192 36 53 28
0.314316 0.00779252 1.192 34 51 26
0.316167 0.00779252 1.192 34 51 26
0.318018 0.00779252 1.192 34 51 26
0.319869 0.00779252 1.192 34 51 26
0.321721 0.00779252 1.192 36 53 28
0.3233 0.00778598 1.191 34 51 26
0.324877 0.00777944 1.19 36 53 28
0.326725 0.00777944 1.19 37 54 29
0.328573 0.00777944 1.19 40 57 32
0.330421 0.00777944 1.19 41 58 33
0.332269 0.00777944 1.19 43 61 34
0.333837 0.00777291 1.189 44 62 35
0.335683 0.00777291 1.189 45 63 34
0.33753 0.00777291 1.189 43 61 32
0.339376 0.00777291 1.189 45 63 34
0.341223 0.00777291 1.189 46 64 35
0.34307 0.00777291 1.189 47 62 34
0.344916 0.00777291 1.189 47 62 34
0.346763 0.00777291 1.189 47 62 34
0.348609 0.00777291 1.189 48 63 35
0.350161 0.00776637 1.188 43 57 33
0.352006 0.00776637 1.188 42 56 32
0.353553 0.00775983 1.187 67 75 52
0.355397 0.00775983 1.187 80 88 65
0.356939 0.00775329 1.186 77 87 68
0.358478 0.00774676 1.185 29 39 20
0.360015 0.00774022 1.184 36 45 29
0.361548 0.00773368 1.183 50 59 43
0.362464 0.00771407 1.18 39 44 31
0.36337 0.00769446 1.177 33 38 25
0.362716 0.00764216 1.169 56 62 61
0.360477 0.00755717 1.156 33 39 38
0.360079 0.00751141 1.149 95 104 103
0.359974 0.00747219 1.143 152 161 160
0.35985 0.00743296 1.137 158 166 168
0.36098 0.00741989 1.135 167 175 177
0.362103 0.00740681 1.133 174 180 187
0.363863 0.00740681 1.133 143 149 156
0.368527 0.00746565 1.142 93 100 109
-0.144584 0.00835118 1.032 207 225 237
-0.142982 0.00835118 1.032 209 227 239
-0.141379 0.00835118 1.032 204 221 235
-0.139776 0.00835118 1.032 192 209 223
-0.138174 0.00835118 1.032 182 199 213
-0.136571 0.00835118 1.032 170 187 201
-0.134968 0.00835118 1.032 160 177 191
-0.133495 0.00835927 1.033 175 192 206
-0.132018 0.00836736 1.034 197 212 233
-0.130538 0.00837545 1.035 192 207 228
-0.128931 0.00837545 1.035 169 184 203
-0.127446 0.00838355 1.036 169 184 203
-0.125838 0.00838355 1.036 176 191 210
-0.124349 0.00839164 1.037 168 183 202
-0.122738 0.00839164 1.037 173 190 211
-0.121244 0.00839973 1.038 183 200 221
-0.119632 0.00839973 1.038 186 203 224
-0.118134 0.00840782 1.039 183 200 221
-0.116632 0.00841592 1.04 178 198 218
-0.115017 0.00841592 1.04 172 192 212
-0.113511 0.00842401 1.041 174 194 214
-0.111895 0.00842401 1.041 194 214 234
-0.110278 0.00842401 1.041 203 222 245
-0.108765 0.0084321 1.042 199 218 241
-0.107147 0.0084321 1.042 195 214 237
-0.10563 0.00844019 1.043 179 198 221
-0.10401 0.00844019 1.043 174 193 216
-0.102489 0.00844828 1.044 173 192 215
-0.100867 0.00844828 1.044 178 198 223
-0.0993411 0.00845638 1.045 203 223 248
-0.0978117 0.00846447 1.046 194 215 244
-0.0961872 0.00846447 1.046 168 189 218
-0.0945627 0.00846447 1.046 162 192 220
-0.0929383 0.00846447 1.046 172 202 230
-0.0913138 0.00846447 1.046 179 214 248
-0.0896893 0.00846447 1.046 180 215 249
-0.0880648 0.00846447 1.046 156 200 242
-0.0864404 0.00846447 1.046 134 178 220
-0.0848159 0.00846447 1.046 106 172 210
-0.0831914 0.00846447 1.046 110 176 214
-0.0816449 0.00847256 1.047 100 182 224
-0.0800189 0.00847256 1.047 129 211 253
-0.0784677 0.00848065 1.048 119 214 255
-0.0769135 0.00848875 1.049 113 208 253
-0.0753561 0.00849684 1.05 97 201 251
-0.0737956 0.00850493 1.051 92 196 246
-0.0722321 0.00851302 1.052 91 199 251
-0.0706654 0.00852111 1.053 90 198 250
-0.06903 0.00852111 1.053 88 198 250
-0.0675227 0.0085373 1.055 89 199 251
-0.0658842 0.0085373 1.055 86 199 250
-0.0643067 0.00854539 1.056 82 195 246
-0.0626667 0.00854539 1.056 88 201 252
-0.0610267 0.00854539 1.056 91 204 255
-0.0593867 0.00854539 1.056 87 201 249
-0.0577467 0.00854539 1.056 82 196 244
-0.0561067 0.00854539 1.056 87 200 244
-0.0545182 0.00855348 1.057 98 211 255
-0.0528767 0.00855348 1.057 104 219 255
-0.0511867 0.00854539 1.056 105 220 255
-0.0494997 0.0085373 1.055 107 225 253
-0.0478159 0.00852921 1.054 111 229 255
-0.0461352 0.00852111 1.053 116 236 255
-0.0444576 0.00851302 1.052 113 233 255
-0.0428238 0.00851302 1.052 124 243 255
-0.0411509 0.00850493 1.051 127 246 255
-0.0395186 0.00850493 1.051 147 248 255
-0.0378864 0.00850493 1.051 154 255 255
-0.0362886 0.00851302 1.052 186 255 255
-0.0346878 0.00852111 1.053 186 255 255
-0.0330838 0.00852921 1.054 197 243 252
-0.0315066 0.00854539 1.056 192 238 247
-0.0298949 0.00855348 1.057 214 239 250
-0.0283068 0.00856967 1.059 218 243 254
-0.0266873 0.00857776 1.06 226 246 255
-0.0250647 0.00858585 1.061 216 236 248
-0.023439 0.00859394 1.062 207 226 235
-0.0217897 0.00859394 1.062 206 225 234
-0.0185085 0.00860204 1.063 226 243 252
-0.015221 0.00861013 1.064 241 254 255
-0.0135813 0.00861822 1.065 240 254 255
-0.0119274 0.00861822 1.065 222 236 239
-0.010283 0.00862631 1.066 221 233 235
-0.00862749 0.00862631 1.066 242 254 255
-0.0069785 0.00863441 1.067 245 254 255
-0.00532141 0.00863441 1.067 245 254 255
-0.00366776 0.0086425 1.068 245 255 255
-0.00200724 0.00863441 1.067 245 255 255
-0.000349821 0.00862631 1.066 245 254 255
0.00130571 0.00862631 1.066 244 253 255
0.00295847 0.00861822 1.065 238 253 254
0.00461245 0.00861822 1.065 240 255 255
0.00792785 0.00862631 1.066 215 247 250
0.00959238 0.00863441 1.067 188 250 252
0.01126 0.0086425 1.068 178 240 242
0.0129307 0.00865059 1.069 157 251 252
0.0146046 0.00865868 1.07 157 251 252
0.0162967 0.00867487 1.072 139 253 254
0.0179783 0.00868296 1.073 145 255 255
0.0196631 0.00869105 1.074 137 255 255
0.0213509 0.00869914 1.075 131 255 254
0.0230204 0.00869914 1.075 129 255 254
0.0246899 0.00869914 1.075 129 255 254
0.0263594 0.00869914 1.075 129 255 254
0.028055 0.00870724 1.076 129 255 254
0.0297261 0.00870724 1.076 129 255 255
0.0313971 0.00870724 1.076 127 255 254
0.0330989 0.00871533 1.077 129 255 255
0.0347715 0.00871533 1.077 129 255 255
0.0364442 0.00871533 1.077 129 255 255
0.0381522 0.00872342 1.078 129 255 255
0.0398633 0.00873151 1.079 130 255 255
0.041539 0.00873151 1.079 133 255 255
0.0432548 0.0087396 1.08 133 255 255
0.0449737 0.0087477 1.081 127 255 254
0.0466956 0.00875579 1.082 125 253 252
0.048376 0.00875579 1.082 127 255 254
0.0500564 0.00875579 1.082 129 255 255
0.0517368 0.00875579 1.082 127 255 254
0.0534665 0.00876388 1.083 129 255 252
0.0550976 0.00875579 1.082 131 255 254
0.0567779 0.00875579 1.082 133 255 254
0.0584043 0.0087477 1.081 133 255 254
0.0600831 0.0087477 1.081 138 255 254
0.0618191 0.00875579 1.082 138 255 254
0.0634995 0.00875579 1.082 142 255 254
0.0651799 0.00875579 1.082 142 255 254
0.0668602 0.00875579 1.082 144 255 254
0.0684773 0.0087477 1.081 144 255 254
0.070221 0.00875579 1.082 144 255 254
0.0719678 0.00876388 1.083 144 255 254
0.0736498 0.00876388 1.083 144 255 254
0.0753317 0.00876388 1.083 144 255 254
0.0770137 0.00876388 1.083 144 255 254
0.0787683 0.00877197 1.084 144 255 254
0.080526 0.00878007 1.085 144 255 254
0.082211 0.00878007 1.085 144 255 254
0.0839734 0.00878816 1.086 146 255 254
0.08566 0.00878816 1.086 147 255 255
0.0875074 0.00880434 1.088 149 255 255
0.0892791 0.00881244 1.089 149 255 255
0.0909704 0.00881244 1.089 157 255 253
0.0928318 0.00882862 1.091 158 255 254
0.0946128 0.00883671 1.092 167 255 255
0.0964851 0.0088529 1.094 167 255 255
0.0982739 0.00886099 1.095 171 255 253
0.100157 0.00887717 1.097 171 255 253
0.102046 0.00889336 1.099 179 255 253
0.103942 0.00890954 1.101 179 255 253
0.105652 0.00890954 1.101 199 255 255
0.107459 0.00891763 1.102 197 255 255
0.111989 0.00900665 1.113 19 68 61
0.114637 0.00907948 1.122 21 51 40
0.125292 0.00935461 1.156 42 68 42
0.128297 0.00944363 1.167 46 72 46
0.133391 0.00954883 1.18 47 72 42
0.135797 0.00958929 1.185 44 70 37
0.137753 0.00959738 1.186 49 75 42
0.139477 0.00958929 1.185 52 79 44
0.141437 0.00959738 1.186 51 78 43
0.143279 0.00959738 1.186 53 80 45
0.145243 0.00960547 1.187 52 79 44
0.147087 0.00960547 1.187 52 79 44
0.149056 0.00961357 1.188 53 80 45
0.151028 0.00962166 1.189 53 81 43
0.152874 0.00962166 1.189 53 81 43
0.154851 0.00962975 1.19 57 83 44
0.156699 0.00962975 1.19 57 83 44
0.15868 0.00963784 1.191 56 82 43
0.160665 0.00964593 1.192 57 83 44
0.162516 0.00964593 1.192 57 83 42
0.164367 0.00964593 1.192 56 82 41
0.166218 0.00964593 1.192 56 82 41
0.16807 0.00964593 1.192 60 86 45
0.169921 0.00964593 1.192 60 86 45
0.171772 0.00964593 1.192 60 86 45
0.173623 0.00964593 1.192 57 83 42
0.175474 0.00964593 1.192 57 83 42
0.177326 0.00964593 1.192 63 87 46
0.179327 0.00965403 1.193 64 88 47
0.181332 0.00966212 1.194 63 87 46
0.183186 0.00966212 1.194 63 87 46
0.18504 0.00966212 1.194 64 88 47
0.186895 0.00966212 1.194 64 88 47
0.188749 0.00966212 1.194 65 89 48
0.190603 0.00966212 1.194 65 89 48
0.192458 0.00966212 1.194 64 88 47
0.194312 0.00966212 1.194 65 89 48
0.196166 0.00966212 1.194 66 90 49
0.198021 0.00966212 1.194 66 90 49
0.199708 0.00965403 1.193 66 90 49
0.20156 0.00965403 1.193 65 89 48
0.203413 0.00965403 1.193 64 88 47
0.205094 0.00964593 1.192 65 89 48
0.206945 0.00964593 1.192 66 90 49
0.208796 0.00964593 1.192 66 90 49
0.210471 0.00963784 1.191 68 92 51
0.21232 0.00963784 1.191 65 89 48
0.21399 0.00962975 1.19 64 88 47
0.215838 0.00962975 1.19 64 88 47
0.217687 0.00962975 1.19 65 89 48
0.219535 0.00962975 1.19 66 90 49
0.221383 0.00962975 1.19 67 91 50
0.223231 0.00962975 1.19 71 95 54
0.225079 0.00962975 1.19 60 84 43
0.226927 0.00962975 1.19 59 83 42
0.228967 0.00963784 1.191 61 83 42
0.230817 0.00963784 1.191 58 80 39
0.232667 0.00963784 1.191 57 79 38
0.234516 0.00963784 1.191 54 76 35
0.236366 0.00963784 1.191 52 74 35
0.238216 0.00963784 1.191 51 73 34
0.240267 0.00964593 1.192 50 73 36
0.242118 0.00964593 1.192 46 69 32
0.243969 0.00964593 1.192 41 63 29
0.245821 0.00964593 1.192 43 65 31
0.24788 0.00965403 1.193 46 64 35
0.249942 0.00966212 1.194 30 48 19
0.251796 0.00966212 1.194 34 52 25
0.253863 0.00967021 1.195 33 51 24
0.255719 0.00967021 1.195 32 50 23
0.257575 0.00967021 1.195 32 50 23
0.25943 0.00967021 1.195 33 47 23
0.261286 0.00967021 1.195 33 47 23
0.263142 0.00967021 1.195 33 47 23
0.26522 0.0096783 1.196 33 47 23
0.267077 0.0096783 1.196 32 46 22
0.268935 0.0096783 1.196 32 46 22
0.270792 0.0096783 1.196 32 46 22
0.27265 0.0096783 1.196 34 48 24
0.274507 0.0096783 1.196 34 48 24
0.276364 0.0096783 1.196 33 47 23
0.277989 0.00967021 1.195 33 48 22
0.279845 0.00967021 1.195 33 48 22
0.281465 0.00966212 1.194 35 50 24
0.28332 0.00966212 1.194 34 49 23
0.284935 0.00965403 1.193 35 50 24
0.286547 0.00964593 1.192 34 49 23
0.288399 0.00964593 1.192 34 49 23
0.29025 0.00964593 1.192 34 49 23
0.291856 0.00963784 1.191 31 49 22
0.293706 0.00963784 1.191 32 50 23
0.295555 0.00963784 1.191 32 49 24
0.297405 0.00963784 1.191 33 50 25
0.299003 0.00962975 1.19 32 49 24
0.300852 0.00962975 1.19 33 50 25
0.3027 0.00962975 1.19 32 49 24
0.304548 0.00962975 1.19 31 48 23
0.306653 0.00963784 1.191 33 50 25
0.308503 0.00963784 1.191 33 50 25
0.310613 0.00964593 1.192 33 50 25
0.312464 0.00964593 1.192 36 53 28
0.314316 0.00964593 1.192 34 51 26
0.316167 0.00964593 1.192 34 51 26
0.318018 0.00964593 1.192 36 53 28
0.319869 0.00964593 1.192 36 53 28
0.321721 0.00964593 1.192 37 54 29
0.3233 0.00963784 1.191 37 54 29
0.324877 0.00962975 1.19 37 54 29
0.326725 0.00962975 1.19 39 56 31
0.328297 0.00962166 1.189 40 57 32
0.330144 0.00962166 1.189 43 60 35
0.33199 0.00962166 1.189 44 62 35
0.335683 0.00962166 1.189 46 64 37
0.339376 0.00962166 1.189 47 65 36
0.341223 0.00962166 1.189 46 64 35
0.343358 0.00962975 1.19 46 64 35
0.345206 0.00962975 1.19 45 63 34
0.347054 0.00962975 1.19 45 63 34
0.348902 0.00962975 1.19 46 64 35
0.350456 0.00962166 1.189 44 57 31
0.352302 0.00962166 1.189 42 55 29
0.353851 0.00961357 1.188 55 63 40
0.355696 0.00961357 1.188 109 117 94
0.35724 0.00960547 1.187 132 140 117
0.358781 0.00959738 1.186 25 33 10
0.360319 0.00958929 1.185 38 45 25
0.361854 0.0095812 1.184 58 65 45
0.362464 0.00954883 1.18 35 39 21
0.363679 0.00953264 1.178 38 42 24
0.363026 0.00946791 1.17 114 122 115
0.360166 0.00934652 1.155 45 53 46
0.359659 0.00924132 1.142 152 161 160
0.359534 0.00919277 1.136 158 166 168
0.360662 0.00917659 1.134 167 175 177
0.361784 0.0091604 1.132 169 177 184
0.363542 0.0091604 1.132 137 145 152
0.368204 0.00923323 1.141 93 101 108
0.371273 0.0092656 1.145 96 104 111
-0.144584 0.00995581 1.032 211 229 241
-0.142982 0.00995581 1.032 205 223 235
-0.141379 0.00995581 1.032 189 206 220
-0.139776 0.00995581 1.032 167 184 198
-0.138174 0.00995581 1.032 167 183 200
-0.136571 0.00995581 1.032 167 183 200
-0.134968 0.00995581 1.032 162 177 196
-0.133495 0.00996546 1.033 177 192 211
-0.132018 0.00997511 1.034 190 207 228
-0.130538 0.00998476 1.035 183 200 221
-0.128931 0.00998476 1.035 165 182 203
-0.127446 0.0099944 1.036 169 186 207
-0.125838 0.0099944 1.036 171 188 209
-0.124349 0.010004 1.037 166 183 204
-0.122856 0.0100137 1.038 172 191 214
-0.121244 0.0100137 1.038 183 202 225
-0.119632 0.0100137 1.038 169 190 213
-0.118134 0.0100233 1.039 155 176 199
-0.116632 0.010033 1.04 154 177 201
-0.115017 0.010033 1.04 155 178 202
-0.113511 0.0100426 1.041 157 176 204
-0.111895 0.0100426 1.041 163 182 210
-0.110278 0.0100426 1.041 186 208 235
-0.108765 0.0100523 1.042 188 210 237
-0.10725 0.0100619 1.043 176 198 225
-0.10563 0.0100619 1.043 172 194 221
-0.10401 0.0100619 1.043 174 198 225
-0.102391 0.0100619 1.043 168 192 219
-0.100867 0.0100716 1.044 175 202 233
-0.099246 0.0100716 1.044 185 212 243
-0.0977182 0.0100812 1.045 166 202 234
-0.0960952 0.0100812 1.045 155 191 223
-0.0945627 0.0100909 1.046 148 191 222
-0.0928494 0.0100812 1.045 152 195 226
-0.0913138 0.0100909 1.046 166 218 249
-0.0896893 0.0100909 1.046 160 212 243
-0.0879806 0.0100812 1.045 129 190 227
-0.0863577 0.0100812 1.045 120 181 218
-0.0847348 0.0100812 1.045 110 188 222
-0.0831119 0.0100812 1.045 122 200 234
-0.0815669 0.0100909 1.046 132 223 255
-0.0800189 0.0101005 1.047 135 226 255
-0.0783929 0.0101005 1.047 112 217 255
-0.0768402 0.0101102 1.048 101 206 247
-0.0752843 0.0101198 1.049 90 200 247
-0.0737254 0.0101295 1.05 82 192 239
-0.0721634 0.0101391 1.051 86 196 248
-0.0705983 0.0101488 1.052 84 194 246
-0.06903 0.0101584 1.053 89 199 251
-0.0674587 0.0101681 1.054 98 208 255
-0.0658842 0.0101777 1.055 92 205 255
-0.0643067 0.0101873 1.056 87 200 251
-0.0626667 0.0101873 1.056 88 201 252
-0.0610267 0.0101873 1.056 91 204 255
-0.0593867 0.0101873 1.056 85 199 247
-0.0578014 0.010197 1.057 85 199 247
-0.0561598 0.010197 1.057 100 213 255
-0.0545182 0.010197 1.057 110 223 255
-0.0528767 0.010197 1.057 113 229 255
-0.0511867 0.0101873 1.056 110 226 255
-0.0494997 0.0101777 1.055 110 230 253
-0.0478613 0.0101777 1.055 110 230 253
-0.0461352 0.0101584 1.053 115 237 255
-0.0444576 0.0101488 1.052 115 237 255
-0.0428238 0.0101488 1.052 126 247 255
-0.0411509 0.0101391 1.051 129 250 255
-0.0395186 0.0101391 1.051 154 255 255
-0.0378864 0.0101391 1.051 157 255 255
-0.0362886 0.0101488 1.052 184 255 255
-0.0346878 0.0101584 1.053 182 255 255
-0.0331152 0.0101777 1.055 209 254 255
-0.0315066 0.0101873 1.056 213 255 255
-0.0299232 0.0102066 1.058 231 255 255
-0.0283068 0.0102163 1.059 230 254 255
-0.0266873 0.0102259 1.06 235 254 255
-0.0250647 0.0102356 1.061 226 245 252
-0.023439 0.0102452 1.062 215 229 237
-0.0217897 0.0102452 1.062 211 225 233
-0.0185085 0.0102549 1.063 241 255 255
-0.0168734 0.0102645 1.064 241 255 255
-0.015221 0.0102645 1.064 241 255 255
-0.0135813 0.0102742 1.065 243 255 255
-0.0119274 0.0102742 1.065 239 251 253
-0.010283 0.0102838 1.066 243 255 255
-0.00863559 0.0102935 1.067 243 255 255
-0.0069785 0.0102935 1.067 245 255 255
-0.00532141 0.0102935 1.067 245 255 255
-0.00366776 0.0103031 1.068 245 255 255
-0.00200724 0.0102935 1.067 245 255 255
-0.000350149 0.0102935 1.067 245 255 255
0.00130571 0.0102838 1.066 245 255 255
0.00295847 0.0102742 1.065 243 255 255
0.00627232 0.0102838 1.066 229 255 255
0.00792785 0.0102838 1.066 229 255 255
0.00959238 0.0102935 1.067 202 255 255
0.01126 0.0103031 1.068 191 248 249
0.0129307 0.0103128 1.069 162 254 254
0.0146046 0.0103224 1.07 162 254 254
0.0162967 0.0103417 1.072 143 255 253
0.0179783 0.0103513 1.073 141 255 251
0.0196814 0.0103706 1.075 133 255 252
0.0213509 0.0103706 1.075 133 255 252
0.0230204 0.0103706 1.075 133 255 254
0.0246899 0.0103706 1.075 133 255 254
0.0263839 0.0103803 1.076 131 255 254
0.028055 0.0103803 1.076 131 255 254
0.0297261 0.0103803 1.076 129 255 252
0.0313971 0.0103803 1.076 129 255 252
0.0330989 0.0103899 1.077 131 255 254
0.0347715 0.0103899 1.077 131 255 254
0.0364442 0.0103899 1.077 131 255 254
0.0381876 0.0104092 1.079 131 255 254
0.0398633 0.0104092 1.079 131 255 254
0.0415775 0.0104189 1.08 131 255 254
0.0432948 0.0104285 1.081 131 255 254
0.0450153 0.0104382 1.082 129 255 252
0.0466956 0.0104382 1.082 131 255 254
0.048376 0.0104382 1.082 131 255 254
0.0500564 0.0104382 1.082 131 255 254
0.0517846 0.0104478 1.083 131 255 254
0.0534665 0.0104478 1.083 133 255 254
0.0551485 0.0104478 1.083 134 255 255
0.0567779 0.0104382 1.082 139 255 255
0.0584583 0.0104382 1.082 139 255 255
0.0601387 0.0104382 1.082 145 255 255
0.061762 0.0104285 1.081 145 255 255
0.0634408 0.0104285 1.081 146 255 254
0.0651196 0.0104285 1.081 146 255 254
0.0667985 0.0104285 1.081 147 255 255
0.0684139 0.0104189 1.08 147 255 255
0.0701561 0.0104285 1.081 147 255 255
0.0719014 0.0104382 1.082 147 255 255
0.0735818 0.0104382 1.082 146 255 254
0.0752622 0.0104382 1.082 146 255 254
0.0769425 0.0104382 1.082 146 255 254
0.0786229 0.0104382 1.082 146 255 254
0.0803775 0.0104478 1.083 146 255 254
0.0821352 0.0104575 1.084 146 255 254
0.083896 0.0104671 1.085 149 255 255
0.08566 0.0104768 1.086 149 255 255
0.0873466 0.0104768 1.086 157 255 253
0.0891151 0.0104864 1.087 158 255 254
0.0909704 0.0105057 1.089 165 255 255
0.0927467 0.0105153 1.09 165 255 255
0.0946128 0.0105346 1.092 173 255 253
0.0964851 0.0105539 1.094 174 255 254
0.0982739 0.0105636 1.095 180 255 255
0.100157 0.0105829 1.097 178 255 254
0.102139 0.0106118 1.1 184 255 253
0.103942 0.0106215 1.101 184 255 253
0.105748 0.0106311 1.102 205 255 255
0.107752 0.0106601 1.105 203 255 255
0.111687 0.0107083 1.11 24 69 61
0.114433 0.0108048 1.12 22 53 40
0.117209 0.0109012 1.13 30 61 48
0.127967 0.0112292 1.164 43 68 45
0.133052 0.0113546 1.177 46 71 41
0.135682 0.0114222 1.184 47 73 40
0.137521 0.0114222 1.184 49 75 42
0.13936 0.0114222 1.184 49 75 42
0.141318 0.0114318 1.185 48 74 41
0.143158 0.0114318 1.185 51 77 44
0.145121 0.0114415 1.186 51 77 44
0.147087 0.0114511 1.187 52 79 44
0.14893 0.0114511 1.187 53 80 45
0.150901 0.0114608 1.188 53 81 43
0.152746 0.0114608 1.188 53 81 43
0.154721 0.0114704 1.189 56 82 43
0.156699 0.0114801 1.19 56 82 43
0.158547 0.0114801 1.19 57 83 44
0.160395 0.0114801 1.19 58 84 45
0.162243 0.0114801 1.19 57 83 42
0.164229 0.0114897 1.191 56 82 41
0.166079 0.0114897 1.191 57 83 42
0.16807 0.0114994 1.192 58 84 43
0.169921 0.0114994 1.192 62 86 45
0.171772 0.0114994 1.192 62 86 45
0.173623 0.0114994 1.192 60 84 43
0.175474 0.0114994 1.192 55 79 38
0.177326 0.0114994 1.192 66 90 49
0.179177 0.0114994 1.192 72 96 55
0.18118 0.011509 1.193 64 88 47
0.183033 0.011509 1.193 63 87 46
0.184885 0.011509 1.193 63 87 46
0.186738 0.011509 1.193 64 88 47
0.188591 0.011509 1.193 65 89 48
0.190444 0.011509 1.193 65 89 48
0.192297 0.011509 1.193 65 89 48
0.194312 0.0115186 1.194 66 90 49
0.196166 0.0115186 1.194 67 91 50
0.197855 0.011509 1.193 67 91 50
0.199708 0.011509 1.193 67 91 50
0.20156 0.011509 1.193 68 92 51
0.203243 0.0114994 1.192 66 90 49
0.205094 0.0114994 1.192 66 90 49
0.206945 0.0114994 1.192 66 90 49
0.208621 0.0114897 1.191 67 91 50
0.210471 0.0114897 1.191 68 92 51
0.212142 0.0114801 1.19 64 88 47
0.21399 0.0114801 1.19 64 88 47
0.215838 0.0114801 1.19 64 88 47
0.217687 0.0114801 1.19 65 89 48
0.219535 0.0114801 1.19 65 89 48
0.221383 0.0114801 1.19 65 89 48
0.223231 0.0114801 1.19 66 90 49
0.225079 0.0114801 1.19 62 86 45
0.227118 0.0114897 1.191 60 84 43
0.228967 0.0114897 1.191 60 82 41
0.230817 0.0114897 1.191 58 80 39
0.232667 0.0114897 1.191 57 79 38
0.234516 0.0114897 1.191 51 73 32
0.236565 0.0114994 1.192 52 74 35
0.238416 0.0114994 1.192 52 74 35
0.240267 0.0114994 1.192 51 72 35
0.242118 0.0114994 1.192 47 68 31
0.244174 0.011509 1.193 46 66 32
0.246027 0.011509 1.193 46 66 32
0.24788 0.011509 1.193 41 59 30
0.249942 0.0115186 1.194 30 48 19
0.251796 0.0115186 1.194 34 52 23
0.25365 0.0115186 1.194 34 52 23
0.255505 0.0115186 1.194 34 49 23
0.257575 0.0115283 1.195 31 46 20
0.25943 0.0115283 1.195 31 45 21
0.261286 0.0115283 1.195 31 45 21
0.263142 0.0115283 1.195 35 47 23
0.264998 0.0115283 1.195 35 47 23
0.266854 0.0115283 1.195 33 47 23
0.26871 0.0115283 1.195 34 48 24
0.270566 0.0115283 1.195 35 49 25
0.272422 0.0115283 1.195 36 50 26
0.274277 0.0115283 1.195 35 49 25
0.276133 0.0115283 1.195 34 48 24
0.277989 0.0115283 1.195 34 48 24
0.279611 0.0115186 1.194 33 47 23
0.281229 0.011509 1.193 34 49 23
0.283082 0.011509 1.193 34 49 23
0.284696 0.0114994 1.192 35 50 24
0.286547 0.0114994 1.192 34 49 23
0.288399 0.0114994 1.192 34 49 23
0.29025 0.0114994 1.192 35 50 24
0.292101 0.0114994 1.192 32 50 23
0.293952 0.0114994 1.192 33 51 24
0.295803 0.0114994 1.192 32 49 24
0.297655 0.0114994 1.192 32 49 24
0.299255 0.0114897 1.191 33 50 25
0.301104 0.0114897 1.191 34 51 26
0.302954 0.0114897 1.191 31 48 23
0.304804 0.0114897 1.191 32 49 24
0.306911 0.0114994 1.192 32 49 24
0.308762 0.0114994 1.192 32 49 24
0.310613 0.0114994 1.192 34 51 26
0.312727 0.011509 1.193 36 53 28
0.314316 0.0114994 1.192 36 53 28
0.316432 0.011509 1.193 34 51 26
0.318285 0.011509 1.193 36 53 28
0.320138 0.011509 1.193 37 54 29
0.321721 0.0114994 1.192 37 54 29
0.323572 0.0114994 1.192 37 54 29
0.32515 0.0114897 1.191 38 55 30
0.326725 0.0114801 1.19 41 58 33
0.328573 0.0114801 1.19 48 65 40
0.330421 0.0114801 1.19 52 69 44
0.332269 0.0114801 1.19 46 64 37
0.334117 0.0114801 1.19 45 63 36
0.335966 0.0114801 1.19 46 64 37
0.337814 0.0114801 1.19 47 65 38
0.339662 0.0114801 1.19 47 65 36
0.34151 0.0114801 1.19 45 63 34
0.343358 0.0114801 1.19 46 64 35
0.345206 0.0114801 1.19 45 63 34
0.347054 0.0114801 1.19 46 64 35
0.348902 0.0114801 1.19 46 64 35
0.35075 0.0114801 1.19 45 57 33
0.352599 0.0114801 1.19 42 54 30
0.354149 0.0114704 1.189 57 65 42
0.355995 0.0114704 1.189 121 129 106
0.35724 0.0114511 1.187 138 144 121
0.359084 0.0114511 1.187 27 33 10
0.360319 0.0114318 1.185 38 43 18
0.362159 0.0114318 1.185 66 71 46
0.363078 0.0114029 1.182 40 42 18
0.364296 0.0113836 1.18 46 48 24
0.363336 0.0112968 1.171 118 121 113
0.360477 0.0111521 1.156 62 65 57
0.359974 0.0110266 1.143 151 160 159
0.359534 0.0109591 1.136 155 163 165
0.360662 0.0109398 1.134 167 175 177
0.361784 0.0109205 1.132 171 177 184
0.363542 0.0109205 1.132 138 144 151
0.367881 0.0109977 1.14 94 102 109
-0.144444 0.0115492 1.031 216 234 246
-0.142843 0.0115492 1.031 204 222 234
-0.141242 0.0115492 1.031 173 190 204
-0.139776 0.0115604 1.032 169 186 200
-0.138174 0.0115604 1.032 169 187 204
-0.136571 0.0115604 1.032 165 183 200
-0.134968 0.0115604 1.032 162 179 200
-0.133495 0.0115717 1.033 188 205 226
-0.132018 0.0115829 1.034 185 205 225
-0.130538 0.0115941 1.035 172 192 212
-0.128931 0.0115941 1.035 160 179 202
-0.127446 0.0116053 1.036 162 181 204
-0.125959 0.0116165 1.037 160 181 204
-0.124349 0.0116165 1.037 163 184 207
-0.122856 0.0116277 1.038 163 186 210
-0.121244 0.0116277 1.038 169 192 216
-0.119632 0.0116277 1.038 161 184 208
-0.11802 0.0116277 1.038 154 177 201
-0.11652 0.0116389 1.039 151 175 202
-0.115017 0.0116501 1.04 153 177 204
-0.113511 0.0116613 1.041 154 177 206
-0.111895 0.0116613 1.041 159 182 211
-0.110278 0.0116613 1.041 168 193 222
-0.108765 0.0116725 1.042 169 194 223
-0.107147 0.0116725 1.042 168 195 226
-0.10563 0.0116837 1.043 170 197 228
-0.10401 0.0116837 1.043 165 198 232
-0.102391 0.0116837 1.043 167 200 234
-0.100867 0.0116949 1.044 162 202 235
-0.099246 0.0116949 1.044 159 199 232
-0.0976247 0.0116949 1.044 144 198 229
-0.0960952 0.0117061 1.045 143 197 228
-0.0944723 0.0117061 1.045 136 196 230
-0.0928494 0.0117061 1.045 140 200 234
-0.0912265 0.0117061 1.045 144 216 248
-0.0896036 0.0117061 1.045 142 214 246
-0.0878964 0.0116949 1.044 123 203 237
-0.0862751 0.0116949 1.044 135 215 249
-0.0846537 0.0116949 1.044 135 227 255
-0.0830323 0.0116949 1.044 138 230 255
-0.081489 0.0117061 1.045 132 233 255
-0.0799425 0.0117173 1.046 127 228 255
-0.078318 0.0117173 1.046 109 216 255
-0.0767668 0.0117285 1.047 100 207 248
-0.0752126 0.0117397 1.048 91 200 249
-0.0736552 0.0117509 1.049 83 192 241
-0.0721634 0.0117733 1.051 89 198 247
-0.0705983 0.0117845 1.052 85 194 243
-0.06903 0.0117957 1.053 92 200 252
-0.0673947 0.0117957 1.053 95 203 255
-0.0658218 0.0118069 1.054 89 202 253
-0.0642458 0.0118181 1.055 88 201 252
-0.0626667 0.0118293 1.056 88 202 250
-0.0610267 0.0118293 1.056 91 205 253
-0.0593867 0.0118293 1.056 89 205 248
-0.0578014 0.0118405 1.057 95 211 254
-0.0561598 0.0118405 1.057 114 224 255
-0.0545182 0.0118405 1.057 114 224 255
-0.0528767 0.0118405 1.057 121 235 255
-0.0511867 0.0118293 1.056 116 230 255
-0.0494997 0.0118181 1.055 118 240 255
-0.0478613 0.0118181 1.055 116 238 255
-0.0461352 0.0117957 1.053 111 235 246
-0.0444999 0.0117957 1.053 118 242 253
-0.0428238 0.0117845 1.052 136 255 255
-0.04119 0.0117845 1.052 140 255 255
-0.0395562 0.0117845 1.052 154 255 255
-0.0379224 0.0117845 1.052 153 255 255
-0.0363231 0.0117957 1.053 179 254 255
-0.0347207 0.0118069 1.054 183 255 255
-0.0331152 0.0118181 1.055 215 255 255
-0.0315365 0.0118405 1.057 215 255 255
-0.0299232 0.0118517 1.058 235 255 255
-0.0283335 0.0118741 1.06 235 255 255
-0.0267125 0.0118853 1.061 239 255 255
-0.0250883 0.0118965 1.062 239 255 255
-0.023439 0.0118965 1.062 237 252 253
-0.0201593 0.0119077 1.063 245 255 255
-0.0185259 0.0119189 1.064 245 255 255
-0.0168734 0.0119189 1.064 245 255 255
-0.015221 0.0119189 1.064 245 255 255
-0.0135813 0.0119301 1.065 247 255 254
-0.0119274 0.0119301 1.065 247 255 254
-0.010283 0.0119413 1.066 247 255 254
-0.00863559 0.0119525 1.067 247 255 254
-0.00698504 0.0119637 1.068 247 255 254
-0.0053264 0.0119637 1.068 247 255 254
-0.00366776 0.0119637 1.068 247 255 254
-0.00200724 0.0119525 1.067 247 255 254
-0.000350149 0.0119525 1.067 249 255 254
0.00130571 0.0119413 1.066 249 255 254
0.00295847 0.0119301 1.065 247 255 254
0.00461245 0.0119301 1.065 247 255 254
0.00792785 0.0119413 1.066 233 255 255
0.00958339 0.0119413 1.066 205 255 255
0.01126 0.0119637 1.068 197 253 252
0.0129307 0.0119749 1.069 166 255 254
0.0146046 0.0119861 1.07 164 255 252
0.0162967 0.0120085 1.072 146 255 254
0.0179783 0.0120197 1.073 145 255 253
0.0196814 0.0120421 1.075 139 255 253
0.0213509 0.0120421 1.075 139 255 253
0.0230204 0.0120421 1.075 135 255 254
0.0246899 0.0120421 1.075 135 255 254
0.0263839 0.0120533 1.076 135 255 254
0.028055 0.0120533 1.076 135 255 254
0.0297261 0.0120533 1.076 135 255 254
0.0313971 0.0120533 1.076 135 255 254
0.0330989 0.0120645 1.077 135 255 254
0.0347715 0.0120645 1.077 135 255 254
0.036478 0.0120757 1.078 135 255 254
0.0381876 0.0120869 1.079 135 255 254
0.0399002 0.0120981 1.08 135 255 254
0.0415775 0.0120981 1.08 135 255 254
0.0433349 0.0121205 1.082 135 255 254
0.0450569 0.0121318 1.083 135 255 254
0.0467388 0.0121318 1.083 135 255 254
0.0484207 0.0121318 1.083 135 255 254
0.0501027 0.0121318 1.083 135 255 254
0.0517846 0.0121318 1.083 135 255 254
0.0534665 0.0121318 1.083 140 255 254
0.0551485 0.0121318 1.083 141 255 255
0.0568304 0.0121318 1.083 150 255 254
0.0584583 0.0121205 1.082 150 255 254
0.0600831 0.0121093 1.081 154 255 254
0.061762 0.0121093 1.081 153 255 253
0.0634408 0.0121093 1.081 153 255 253
0.0651196 0.0121093 1.081 153 255 253
0.0667367 0.0120981 1.08 153 255 253
0.0684139 0.0120981 1.08 153 255 253
0.0700912 0.0120981 1.08 151 255 253
0.0718349 0.0121093 1.081 151 255 253
0.0735138 0.0121093 1.081 151 255 253
0.0751926 0.0121093 1.081 150 255 252
0.0769425 0.0121205 1.082 150 255 252
0.0786229 0.0121205 1.082 150 255 252
0.0803775 0.0121318 1.083 151 255 253
0.0820595 0.0121318 1.083 151 255 253
0.0838187 0.012143 1.084 155 255 253
0.0855811 0.0121542 1.085 156 255 254
0.0873466 0.0121654 1.086 165 255 255
0.0890332 0.0121654 1.086 165 255 255
0.0908868 0.0121878 1.088 174 255 254
0.0926616 0.012199 1.089 173 255 253
0.0946128 0.0122326 1.092 180 255 254
0.0964851 0.012255 1.094 180 255 254
0.0982739 0.0122662 1.095 182 255 253
0.100157 0.0122886 1.097 184 255 255
0.102139 0.0123222 1.1 192 255 255
0.104036 0.0123446 1.102 192 255 255
0.105844 0.0123558 1.103 213 255 255
0.107752 0.0123782 1.105 212 255 255
0.111587 0.012423 1.109 35 76 66
0.114024 0.0125014 1.116 27 55 43
0.116794 0.0126134 1.126 32 60 48
0.127527 0.0129943 1.16 43 68 45
0.130778 0.0131399 1.173 46 71 43
0.135567 0.0132519 1.183 46 71 41
0.137405 0.0132519 1.183 48 73 43
0.139242 0.0132519 1.183 48 74 41
0.141198 0.0132632 1.184 48 74 41
0.143037 0.0132632 1.184 51 77 44
0.144998 0.0132744 1.185 51 77 44
0.146963 0.0132856 1.186 52 79 44
0.14893 0.0132968 1.187 53 80 45
0.150773 0.0132968 1.187 54 82 44
0.152746 0.013308 1.188 53 81 43
0.154591 0.013308 1.188 55 84 44
0.156567 0.0133192 1.189 54 83 43
0.158414 0.0133192 1.189 57 83 44
0.160395 0.0133304 1.19 57 83 44
0.162243 0.0133304 1.19 58 84 43
0.164091 0.0133304 1.19 57 83 42
0.165939 0.0133304 1.19 58 84 43
0.167929 0.0133416 1.191 60 86 45
0.169778 0.0133416 1.191 61 87 46
0.171772 0.0133528 1.192 61 87 46
0.173623 0.0133528 1.192 60 86 45
0.175474 0.0133528 1.192 61 87 46
0.177326 0.0133528 1.192 72 96 55
0.179177 0.0133528 1.192 72 96 55
0.181028 0.0133528 1.192 66 90 49
0.182879 0.0133528 1.192 65 89 48
0.18473 0.0133528 1.192 65 89 48
0.186582 0.0133528 1.192 64 88 47
0.188433 0.0133528 1.192 64 88 47
0.190284 0.0133528 1.192 66 90 49
0.192135 0.0133528 1.192 65 89 48
0.193987 0.0133528 1.192 66 90 49
0.195838 0.0133528 1.192 67 91 50
0.197689 0.0133528 1.192 68 92 51
0.19954 0.0133528 1.192 66 90 49
0.201391 0.0133528 1.192 66 90 49
0.203243 0.0133528 1.192 64 88 47
0.204922 0.0133416 1.191 66 90 49
0.206771 0.0133416 1.191 66 90 49
0.208621 0.0133416 1.191 66 90 49
0.210294 0.0133304 1.19 67 91 50
0.212142 0.0133304 1.19 67 91 50
0.21399 0.0133304 1.19 67 91 50
0.215838 0.0133304 1.19 67 91 50
0.217687 0.0133304 1.19 66 90 49
0.219535 0.0133304 1.19 65 89 48
0.221383 0.0133304 1.19 65 89 48
0.223418 0.0133416 1.191 64 88 47
0.225268 0.0133416 1.191 62 86 45
0.227118 0.0133416 1.191 59 83 42
0.228967 0.0133416 1.191 55 79 38
0.231011 0.0133528 1.192 56 80 39
0.232862 0.0133528 1.192 57 79 38
0.234713 0.0133528 1.192 55 77 36
0.236565 0.0133528 1.192 51 75 36
0.238416 0.0133528 1.192 50 74 35
0.240267 0.0133528 1.192 46 70 31
0.242118 0.0133528 1.192 46 70 31
0.244174 0.013364 1.193 46 68 34
0.246027 0.013364 1.193 42 64 30
0.24788 0.013364 1.193 38 56 27
0.249732 0.013364 1.193 36 54 25
0.251796 0.0133752 1.194 34 52 23
0.25365 0.0133752 1.194 33 51 22
0.255291 0.013364 1.193 34 49 23
0.257143 0.013364 1.193 32 47 21
0.258996 0.013364 1.193 33 47 23
0.260849 0.013364 1.193 32 46 22
0.262702 0.013364 1.193 35 47 23
0.264555 0.013364 1.193 36 48 24
0.266407 0.013364 1.193 35 49 25
0.26826 0.013364 1.193 35 49 25
0.270113 0.013364 1.193 36 49 28
0.271966 0.013364 1.193 36 49 28
0.274048 0.0133752 1.194 36 49 28
0.275902 0.0133752 1.194 35 48 27
0.277524 0.013364 1.193 35 49 25
0.279377 0.013364 1.193 35 49 25
0.280994 0.0133528 1.192 36 50 26
0.282845 0.0133528 1.192 34 48 24
0.284696 0.0133528 1.192 35 49 25
0.286547 0.0133528 1.192 34 48 24
0.288399 0.0133528 1.192 33 47 23
0.29025 0.0133528 1.192 34 48 24
0.292101 0.0133528 1.192 31 48 23
0.293952 0.0133528 1.192 32 49 24
0.295803 0.0133528 1.192 32 49 24
0.297655 0.0133528 1.192 32 49 24
0.299506 0.0133528 1.192 33 50 25
0.301357 0.0133528 1.192 33 50 25
0.303208 0.0133528 1.192 31 48 23
0.30506 0.0133528 1.192 31 48 23
0.306911 0.0133528 1.192 32 49 24
0.308762 0.0133528 1.192 32 49 24
0.311134 0.0133752 1.194 34 51 26
0.312989 0.0133752 1.194 36 53 28
0.314843 0.0133752 1.194 32 49 24
0.316697 0.0133752 1.194 33 50 25
0.318552 0.0133752 1.194 34 51 26
0.320406 0.0133752 1.194 36 53 28
0.32199 0.013364 1.193 36 53 28
0.323572 0.0133528 1.192 37 54 29
0.325423 0.0133528 1.192 37 54 29
0.327 0.0133416 1.191 38 55 30
0.328849 0.0133416 1.191 45 62 37
0.330421 0.0133304 1.19 51 68 43
0.332269 0.0133304 1.19 47 65 38
0.334117 0.0133304 1.19 46 64 37
0.335966 0.0133304 1.19 46 64 37
0.337814 0.0133304 1.19 48 66 39
0.339662 0.0133304 1.19 57 75 48
0.34151 0.0133304 1.19 50 68 41
0.343358 0.0133304 1.19 47 65 36
0.345206 0.0133304 1.19 47 65 36
0.347054 0.0133304 1.19 50 68 39
0.348902 0.0133304 1.19 48 66 37
0.35075 0.0133304 1.19 46 61 35
0.352599 0.0133304 1.19 42 57 31
0.354447 0.0133304 1.19 64 72 49
0.356295 0.0133304 1.19 125 133 110
0.357842 0.0133192 1.189 141 148 123
0.359084 0.0132968 1.187 31 38 13
0.360623 0.0132856 1.186 38 40 14
0.362159 0.0132744 1.185 68 70 44
0.363078 0.0132407 1.182 45 45 19
0.364605 0.0132295 1.181 52 52 26
0.363957 0.0131399 1.173 119 124 111
0.359659 0.0127927 1.142 154 163 161
0.359217 0.0127143 1.135 154 163 162
0.360662 0.0127031 1.134 166 175 174
0.361784 0.0126806 1.132 172 178 185
0.363221 0.0126694 1.131 133 139 146
0.367559 0.0127591 1.139 96 104 111
0.369976 0.0127815 1.141 98 106 113
-0.144444 0.0131523 1.031 222 238 250
-0.142843 0.0131523 1.031 207 223 235
-0.141242 0.0131523 1.031 173 189 206
-0.139641 0.0131523 1.031 170 186 203
-0.138174 0.0131651 1.032 169 186 205
-0.136571 0.0131651 1.032 167 184 203
-0.134968 0.0131651 1.032 177 197 217
-0.133495 0.0131778 1.033 190 210 230
-0.132018 0.0131906 1.034 183 204 227
-0.130538 0.0132034 1.035 172 193 216
-0.128931 0.0132034 1.035 160 184 206
-0.127446 0.0132161 1.036 156 180 202
-0.125959 0.0132289 1.037 158 183 207
-0.124349 0.0132289 1.037 170 195 219
-0.122738 0.0132289 1.037 168 192 219
-0.121244 0.0132416 1.038 166 190 217
-0.119632 0.0132416 1.038 153 181 209
-0.11802 0.0132416 1.038 149 177 205
-0.11652 0.0132544 1.039 152 180 208
-0.114907 0.0132544 1.039 157 185 213
-0.113402 0.0132671 1.04 156 188 220
-0.111787 0.0132671 1.04 152 184 216
-0.110278 0.0132799 1.041 149 183 215
-0.108661 0.0132799 1.041 148 182 214
-0.107147 0.0132927 1.042 146 188 221
-0.10563 0.0133054 1.043 150 192 225
-0.10401 0.0133054 1.043 144 196 227
-0.102391 0.0133054 1.043 144 196 227
-0.100867 0.0133182 1.044 130 194 223
-0.099246 0.0133182 1.044 129 193 222
-0.0976247 0.0133182 1.044 121 194 224
-0.0960952 0.0133309 1.045 124 197 227
-0.0944723 0.0133309 1.045 127 209 238
-0.0928494 0.0133309 1.045 143 225 254
-0.0913138 0.0133437 1.046 136 228 255
-0.0896036 0.0133309 1.045 137 229 255
-0.0878964 0.0133182 1.044 135 231 255
-0.0862751 0.0133182 1.044 137 233 255
-0.0846537 0.0133182 1.044 129 229 255
-0.0830323 0.0133182 1.044 121 221 249
-0.081411 0.0133182 1.044 121 230 255
-0.0797896 0.0133182 1.044 121 230 255
-0.0782431 0.0133309 1.045 106 216 255
-0.0766935 0.0133437 1.046 93 203 243
-0.0751408 0.0133564 1.047 84 196 243
-0.073585 0.0133692 1.048 80 192 239
-0.0720261 0.013382 1.049 84 199 245
-0.0705312 0.0134075 1.051 87 202 248
-0.0689645 0.0134202 1.052 93 207 255
-0.0673947 0.013433 1.053 91 205 253
-0.0658218 0.0134457 1.054 88 202 250
-0.0642458 0.0134585 1.055 84 198 246
-0.0626667 0.0134713 1.056 86 201 247
-0.0610267 0.0134713 1.056 89 204 250
-0.0593867 0.0134713 1.056 90 204 246
-0.0578014 0.013484 1.057 90 204 246
-0.0561598 0.013484 1.057 95 209 239
-0.0545182 0.013484 1.057 101 215 245
-0.0528767 0.013484 1.057 120 239 255
-0.0511867 0.0134713 1.056 113 232 255
-0.0494997 0.0134585 1.055 116 239 252
-0.0478613 0.0134585 1.055 117 240 253
-0.046179 0.0134457 1.054 120 246 252
-0.0444999 0.013433 1.053 126 252 255
-0.0428238 0.0134202 1.052 138 255 255
-0.04119 0.0134202 1.052 137 255 255
-0.0395562 0.0134202 1.052 154 255 255
-0.0379585 0.013433 1.053 155 255 255
-0.0363576 0.0134457 1.054 181 255 255
-0.0347537 0.0134585 1.055 186 255 255
-0.033178 0.013484 1.057 219 255 255
-0.0315663 0.0134968 1.058 218 255 255
-0.0299515 0.0135095 1.059 236 255 255
-0.0283603 0.013535 1.061 237 255 255
-0.0267377 0.0135478 1.062 243 255 255
-0.0250883 0.0135478 1.062 243 255 255
-0.0218102 0.0135605 1.063 245 255 255
-0.0201783 0.0135733 1.064 245 255 254
-0.0185259 0.0135733 1.064 245 255 254
-0.0168734 0.0135733 1.064 247 255 254
-0.0152353 0.0135861 1.065 247 255 254
-0.0135813 0.0135861 1.065 247 255 254
-0.0119274 0.0135861 1.065 247 255 254
-0.010283 0.0135988 1.066 247 255 254
-0.00863559 0.0136116 1.067 247 255 254
-0.00698504 0.0136243 1.068 247 255 254
-0.0053264 0.0136243 1.068 247 255 254
-0.00366776 0.0136243 1.068 249 255 254
-0.00200724 0.0136116 1.067 249 255 254
-0.000349821 0.0135988 1.066 249 255 254
0.00130571 0.0135988 1.066 249 255 254
0.00295847 0.0135861 1.065 247 255 254
0.00461245 0.0135861 1.065 247 255 254
0.00626643 0.0135861 1.065 237 255 254
0.00958339 0.0135988 1.066 207 255 255
0.01126 0.0136243 1.068 205 255 253
0.0129307 0.0136371 1.069 170 255 252
0.0146046 0.0136498 1.07 168 254 250
0.0162967 0.0136754 1.072 148 255 252
0.0179783 0.0136881 1.073 147 255 251
0.0196631 0.0137009 1.074 139 255 253
0.0213509 0.0137136 1.075 139 255 253
0.0230204 0.0137136 1.075 137 255 253
0.0246899 0.0137136 1.075 137 255 253
0.0263839 0.0137264 1.076 137 255 253
0.028055 0.0137264 1.076 137 255 253
0.0297261 0.0137264 1.076 137 255 253
0.0313971 0.0137264 1.076 137 255 253
0.0330989 0.0137391 1.077 137 255 254
0.0347715 0.0137391 1.077 137 255 254
0.0365118 0.0137647 1.079 137 255 254
0.0381876 0.0137647 1.079 137 255 254
0.0399002 0.0137774 1.08 137 255 254
0.0415775 0.0137774 1.08 137 255 254
0.0432948 0.0137902 1.081 137 255 254
0.0450569 0.0138157 1.083 137 255 254
0.0467388 0.0138157 1.083 137 255 254
0.0484207 0.0138157 1.083 137 255 254
0.0501027 0.0138157 1.083 139 255 253
0.0517846 0.0138157 1.083 139 255 253
0.0535159 0.0138284 1.084 151 255 255
0.0551485 0.0138157 1.083 154 255 255
0.0568304 0.0138157 1.083 166 255 255
0.0584583 0.0138029 1.082 166 255 255
0.0600831 0.0137902 1.081 163 255 255
0.061762 0.0137902 1.081 162 255 254
0.0634408 0.0137902 1.081 161 255 253
0.0651196 0.0137902 1.081 161 255 253
0.0667367 0.0137774 1.08 159 255 253
0.0684773 0.0137902 1.081 159 255 253
0.0701561 0.0137902 1.081 157 255 253
0.0719014 0.0138029 1.082 157 255 253
0.0735138 0.0137902 1.081 157 255 253
0.0751926 0.0137902 1.081 157 255 253
0.0768714 0.0137902 1.081 157 255 253
0.0785503 0.0137902 1.081 157 255 253
0.0803033 0.0138029 1.082 157 255 253
0.0820595 0.0138157 1.083 158 255 254
0.0838187 0.0138284 1.084 166 255 252
0.0855811 0.0138412 1.085 167 255 253
0.0872661 0.0138412 1.085 178 255 254
0.0890332 0.013854 1.086 180 255 255
0.0908868 0.0138795 1.088 183 255 255
0.0927467 0.013905 1.09 182 255 255
0.0946128 0.0139305 1.092 188 255 253
0.0964851 0.013956 1.094 188 255 253
0.0983636 0.0139815 1.096 190 255 255
0.100248 0.014007 1.098 191 255 255
0.102139 0.0140326 1.1 197 255 254
0.104036 0.0140581 1.102 197 255 254
0.105844 0.0140708 1.103 217 255 255
0.107654 0.0140836 1.104 216 255 254
0.111285 0.0141091 1.106 45 82 70
0.113718 0.0141984 1.113 29 58 43
0.11638 0.0143132 1.122 33 62 47
0.126868 0.0147214 1.154 42 66 45
0.130221 0.0149 1.168 48 73 45
0.135224 0.0150531 1.18 47 72 42
0.137172 0.0150659 1.181 47 72 42
0.139007 0.0150659 1.181 47 72 42
0.140841 0.0150659 1.181 48 73 43
0.142916 0.0150914 1.183 51 77 44
0.144998 0.0151169 1.185 52 78 45
0.146839 0.0151169 1.185 51 77 44
0.148805 0.0151296 1.186 51 77 44
0.150773 0.0151424 1.187 52 79 44
0.152617 0.0151424 1.187 53 80 45
0.154591 0.0151552 1.188 54 82 44
0.156567 0.0151679 1.189 54 82 44
0.158414 0.0151679 1.189 56 82 43
0.160395 0.0151807 1.19 56 82 43
0.162243 0.0151807 1.19 57 83 44
0.164091 0.0151807 1.19 58 84 45
0.165939 0.0151807 1.19 58 84 43
0.167788 0.0151807 1.19 61 87 46
0.169778 0.0151934 1.191 61 87 46
0.171628 0.0151934 1.191 62 88 47
0.173478 0.0151934 1.191 62 86 45
0.175327 0.0151934 1.191 62 86 45
0.177177 0.0151934 1.191 66 90 49
0.179177 0.0152062 1.192 63 87 46
0.181028 0.0152062 1.192 65 89 48
0.182879 0.0152062 1.192 65 89 48
0.18473 0.0152062 1.192 65 89 48
0.186425 0.0151934 1.191 64 88 47
0.188275 0.0151934 1.191 64 88 47
0.190125 0.0151934 1.191 66 90 49
0.191974 0.0151934 1.191 66 90 49
0.193824 0.0151934 1.191 66 90 49
0.195673 0.0151934 1.191 67 91 50
0.197523 0.0151934 1.191 67 91 50
0.199205 0.0151807 1.19 66 90 49
0.201054 0.0151807 1.19 64 88 47
0.202902 0.0151807 1.19 64 88 47
0.20475 0.0151807 1.19 66 90 49
0.206598 0.0151807 1.19 66 90 49
0.208446 0.0151807 1.19 65 89 48
0.210294 0.0151807 1.19 66 90 49
0.212142 0.0151807 1.19 67 91 50
0.21399 0.0151807 1.19 67 91 50
