ply
format ascii 1.0
comment Created by Open3D
element vertex 1344
property double x
property double y
property double z
property uchar red
property uchar green
property uchar blue
end_header
-0.0549909 0.048608 1.035 114 143 174
-0.0533835 0.048608 1.035 127 156 187
-0.0517761 0.048608 1.035 121 153 183
-0.0501203 0.048561 1.034 120 152 182
-0.0485144 0.048561 1.034 127 159 189
-0.0468632 0.048514 1.033 129 161 191
-0.0451713 0.0484201 1.031 129 161 191
-0.0435701 0.0484201 1.031 124 156 186
-0.0419283 0.0483731 1.03 123 155 185
-0.0403286 0.0483731 1.03 123 155 185
-0.038729 0.0483731 1.03 124 156 186
-0.0371294 0.0483731 1.03 125 157 187
-0.0355643 0.0484201 1.031 125 157 189
-0.0339631 0.0484201 1.031 120 152 184
-0.0323619 0.0484201 1.031 124 153 186
-0.0307906 0.0484671 1.032 137 166 199
-0.0291878 0.0484671 1.032 147 176 207
-0.0275851 0.0484671 1.032 148 177 208
-0.0260075 0.048514 1.033 148 180 210
-0.0243796 0.0484671 1.032 150 182 212
-0.0227769 0.0484671 1.032 138 170 200
-0.0211742 0.0484671 1.032 138 170 200
-0.0195714 0.0484671 1.032 139 171 201
-0.0179687 0.0484671 1.032 139 171 201
-0.016366 0.0484671 1.032 141 173 203
-0.0147632 0.0484671 1.032 138 170 200
-0.0131605 0.0484671 1.032 139 171 201
-0.0115578 0.0484671 1.032 139 171 201
-0.00995505 0.0484671 1.032 141 173 203
-0.00835232 0.0484671 1.032 141 173 203
-0.00674305 0.0484201 1.031 141 173 203
-0.00514187 0.0484201 1.031 142 174 204
-0.00354069 0.0484201 1.031 142 174 204
-0.00193951 0.0484201 1.031 145 177 207
-0.000338335 0.0484201 1.031 144 176 206
0.00126284 0.0484201 1.031 142 174 204
0.00286402 0.0484201 1.031 143 175 205
0.0044652 0.0484201 1.031 144 176 206
0.00606638 0.0484201 1.031 144 176 206
0.00766756 0.0484201 1.031 145 177 207
0.00926873 0.0484201 1.031 144 176 206
0.0108699 0.0484201 1.031 142 174 204
0.0124711 0.0484201 1.031 142 174 204
0.0140723 0.0484201 1.031 142 174 204
0.0156734 0.0484201 1.031 143 175 205
0.0172746 0.0484201 1.031 145 177 207
0.0188758 0.0484201 1.031 146 178 208
0.020477 0.0484201 1.031 144 176 206
0.0220996 0.0484671 1.032 144 176 206
0.0237023 0.0484671 1.032 145 177 207
0.025305 0.0484671 1.032 148 180 210
0.0269338 0.048514 1.033 151 183 213
0.0285658 0.048561 1.034 153 185 215
0.0302299 0.0486549 1.036 156 188 218
0.0318696 0.0487019 1.037 163 195 225
0.0351921 0.0488428 1.04 148 182 207
0.0369135 0.0489837 1.043 149 183 208
0.0386441 0.0491246 1.046 216 254 255
0.0403456 0.0492185 1.048 217 255 255
0.0420533 0.0493124 1.05 217 255 255
0.0438088 0.0494533 1.053 217 255 255
0.0456167 0.0496412 1.057 219 253 255
0.0697203 0.0557935 1.188 33 47 30
0.0715051 0.0557465 1.187 33 47 30
0.0735339 0.0558874 1.19 34 48 31
0.0753187 0.0558405 1.189 33 47 30
0.0770354 0.0557465 1.187 34 49 29
0.0788789 0.0557465 1.187 36 51 31
0.0807223 0.0557465 1.187 36 51 31
0.0825658 0.0557465 1.187 36 51 31
0.084267 0.0556526 1.185 34 50 28
0.0861074 0.0556526 1.185 34 50 28
0.0878735 0.0556056 1.184 34 50 28
0.0897123 0.0556056 1.184 33 49 27
0.0915511 0.0556056 1.184 33 50 25
0.0934687 0.0556526 1.185 33 50 25
0.0953091 0.0556526 1.185 36 53 28
0.0972314 0.0556996 1.186 36 53 28
0.0989898 0.0556526 1.185 34 52 25
0.101 0.0557465 1.187 34 52 25
0.10293 0.0557935 1.188 34 52 25
0.104952 0.0558874 1.19 37 55 28
0.1068 0.0558874 1.19 37 55 28
0.108648 0.0558874 1.19 37 55 28
0.110589 0.0559344 1.191 37 55 28
0.112439 0.0559344 1.191 36 54 27
0.114288 0.0559344 1.191 37 55 28
0.116235 0.0559814 1.192 40 58 31
0.117988 0.0559344 1.191 38 58 31
0.119837 0.0559344 1.191 38 58 31
0.121687 0.0559344 1.191 36 56 29
0.123537 0.0559344 1.191 37 57 30
0.125386 0.0559344 1.191 37 57 30
0.127236 0.0559344 1.191 36 56 29
0.128977 0.0558874 1.19 36 56 29
0.130935 0.0559344 1.191 37 57 30
0.132896 0.0559814 1.192 39 59 32
0.134861 0.0560283 1.193 39 59 32
0.136828 0.0560753 1.194 39 59 32
0.138799 0.0561222 1.195 38 58 31
0.140654 0.0561222 1.195 40 62 35
0.14251 0.0561222 1.195 42 64 37
0.144487 0.0561692 1.196 42 64 37
0.146344 0.0561692 1.196 39 61 34
0.148202 0.0561692 1.196 40 62 33
0.149934 0.0561222 1.195 49 71 42
0.151663 0.0560753 1.194 50 72 43
0.153388 0.0560283 1.193 51 73 44
0.155111 0.0559814 1.192 48 71 39
0.156962 0.0559814 1.192 51 74 42
0.158813 0.0559814 1.192 50 71 39
0.160665 0.0559814 1.192 44 65 33
0.162516 0.0559814 1.192 51 73 39
0.164367 0.0559814 1.192 52 74 40
0.166218 0.0559814 1.192 50 72 38
0.16807 0.0559814 1.192 49 71 37
0.169921 0.0559814 1.192 53 75 41
0.171772 0.0559814 1.192 58 80 46
0.173769 0.0560283 1.193 57 79 45
0.175474 0.0559814 1.192 58 80 46
0.177326 0.0559814 1.192 57 80 43
0.179177 0.0559814 1.192 56 79 42
0.181028 0.0559814 1.192 55 78 41
0.182726 0.0559344 1.191 55 78 41
0.184421 0.0558874 1.19 59 82 45
0.186269 0.0558874 1.19 59 82 45
0.187801 0.0557935 1.188 60 84 45
0.189486 0.0557465 1.187 64 88 49
0.191168 0.0556996 1.186 63 87 48
0.192847 0.0556526 1.185 64 88 49
0.194688 0.0556526 1.185 64 88 49
0.196528 0.0556526 1.185 64 88 49
0.198034 0.0555587 1.183 65 89 50
0.199871 0.0555587 1.183 66 90 51
0.201708 0.0555587 1.183 66 90 51
0.203545 0.0555587 1.183 68 92 53
0.205383 0.0555587 1.183 68 92 53
0.20722 0.0555587 1.183 71 95 56
0.209057 0.0555587 1.183 71 95 54
0.211073 0.0556056 1.184 70 94 53
0.212911 0.0556056 1.184 71 95 54
0.214932 0.0556526 1.185 71 95 54
0.216772 0.0556526 1.185 71 95 54
0.218797 0.0556996 1.186 72 96 55
0.220825 0.0557465 1.187 79 103 62
0.222668 0.0557465 1.187 79 103 62
0.224701 0.0557935 1.188 66 91 47
0.226736 0.0558405 1.189 65 90 46
0.228775 0.0558874 1.19 66 91 47
0.230623 0.0558874 1.19 64 89 45
0.232471 0.0558874 1.19 63 87 46
0.234516 0.0559344 1.191 60 84 43
0.236366 0.0559344 1.191 59 83 44
0.238216 0.0559344 1.191 58 82 43
0.240065 0.0559344 1.191 60 81 44
0.241915 0.0559344 1.191 55 76 39
0.243765 0.0559344 1.191 53 69 38
0.245408 0.0558874 1.19 53 69 38
0.247256 0.0558874 1.19 48 67 35
0.249104 0.0558874 1.19 52 71 39
0.250953 0.0558874 1.19 40 58 29
0.252801 0.0558874 1.19 40 58 29
0.254649 0.0558874 1.19 41 59 32
0.256497 0.0558874 1.19 43 61 34
0.258345 0.0558874 1.19 43 60 35
0.260193 0.0558874 1.19 41 58 33
0.262041 0.0558874 1.19 40 57 32
0.263889 0.0558874 1.19 40 57 32
0.265961 0.0559344 1.191 41 58 33
0.26781 0.0559344 1.191 43 60 35
0.26966 0.0559344 1.191 38 57 32
0.271738 0.0559814 1.192 38 57 32
0.273589 0.0559814 1.192 37 56 31
0.275902 0.0560753 1.194 37 56 31
0.277757 0.0560753 1.194 36 55 30
0.279845 0.0561222 1.195 37 56 31
0.281701 0.0561222 1.195 38 58 31
0.283557 0.0561222 1.195 37 57 30
0.285652 0.0561692 1.196 38 58 31
0.287749 0.0562162 1.197 38 58 31
0.289608 0.0562162 1.197 38 58 31
0.291711 0.0562631 1.198 38 58 31
0.294061 0.0563571 1.2 37 57 30
0.295925 0.0563571 1.2 37 57 30
0.298037 0.056404 1.201 38 58 31
0.300152 0.056451 1.202 39 59 32
0.30227 0.056498 1.203 39 59 32
0.304138 0.056498 1.203 39 59 32
0.305752 0.056451 1.202 38 58 31
0.307619 0.056451 1.202 38 58 31
0.309228 0.056404 1.201 38 58 31
0.310834 0.0563571 1.2 37 57 30
0.312698 0.0563571 1.2 38 58 29
0.314562 0.0563571 1.2 37 57 28
0.316161 0.0563101 1.199 38 58 29
0.317758 0.0562631 1.198 39 59 30
0.319352 0.0562162 1.197 39 59 30
0.320943 0.0561692 1.196 39 59 30
0.32253 0.0561222 1.195 41 61 32
0.323843 0.0560283 1.193 43 63 34
0.325423 0.0559814 1.192 47 62 34
0.327 0.0559344 1.191 55 70 42
0.328021 0.0557935 1.188 57 72 44
0.329588 0.0557465 1.187 55 70 42
0.331153 0.0556996 1.186 57 72 44
0.332994 0.0556996 1.186 56 71 43
0.334836 0.0556996 1.186 55 73 44
0.336394 0.0556526 1.185 58 76 47
0.33852 0.0556996 1.186 58 76 47
0.340362 0.0556996 1.186 61 79 50
0.342204 0.0556996 1.186 60 78 49
0.344336 0.0557465 1.187 57 75 46
0.346179 0.0557465 1.187 58 76 47
0.348023 0.0557465 1.187 60 78 49
0.349866 0.0557465 1.187 61 79 50
0.35171 0.0557465 1.187 61 79 50
0.353255 0.0556996 1.186 61 78 53
0.355097 0.0556996 1.186 59 76 51
0.356638 0.0556526 1.185 54 68 53
0.358478 0.0556526 1.185 44 58 43
0.360015 0.0556056 1.184 45 55 50
0.361242 0.0555117 1.182 84 94 89
0.363078 0.0555117 1.182 41 50 49
0.364914 0.0555117 1.182 39 48 47
0.364577 0.055183 1.175 38 48 50
0.363908 0.0548072 1.167 38 48 50
0.360604 0.053774 1.145 178 187 191
0.360799 0.0535392 1.14 176 186 193
0.361298 0.0533514 1.136 182 192 199
0.363062 0.0533514 1.136 196 206 213
0.364826 0.0533514 1.136 182 192 199
0.368204 0.0535862 1.141 99 108 117
0.371922 0.053868 1.147 99 108 117
-0.145705 0.0504599 1.04 128 151 180
-0.143813 0.0503628 1.038 136 159 188
-0.142064 0.0503143 1.037 128 155 186
-0.140589 0.0503628 1.038 124 151 182
-0.138843 0.0503143 1.037 118 145 176
-0.137232 0.0503143 1.037 125 152 183
-0.135622 0.0503143 1.037 123 152 185
-0.134011 0.0503143 1.037 117 146 179
-0.132401 0.0503143 1.037 108 137 170
-0.130791 0.0503143 1.037 120 149 182
-0.12918 0.0503143 1.037 136 164 199
-0.12757 0.0503143 1.037 136 164 199
-0.125959 0.0503143 1.037 138 167 200
-0.124349 0.0503143 1.037 139 168 201
-0.122738 0.0503143 1.037 141 170 201
-0.121128 0.0503143 1.037 139 168 199
-0.119517 0.0503143 1.037 140 169 200
-0.117793 0.0502658 1.036 140 169 200
-0.116184 0.0502658 1.036 139 168 199
-0.114575 0.0502658 1.036 138 167 198
-0.112966 0.0502658 1.036 137 166 197
-0.111357 0.0502658 1.036 131 160 191
-0.109748 0.0502658 1.036 122 151 182
-0.108035 0.0502173 1.035 123 152 183
-0.106427 0.0502173 1.035 120 152 182
-0.10482 0.0502173 1.035 120 152 182
-0.103213 0.0502173 1.035 120 152 182
-0.101605 0.0502173 1.035 121 153 183
-0.0999012 0.0501688 1.034 121 153 183
-0.0982954 0.0501688 1.034 130 162 192
-0.0966896 0.0501688 1.034 135 167 197
-0.0950837 0.0501688 1.034 132 164 194
-0.0934779 0.0501688 1.034 131 163 193
-0.091872 0.0501688 1.034 129 161 191
-0.0902662 0.0501688 1.034 128 160 190
-0.0886604 0.0501688 1.034 135 167 197
-0.0870545 0.0501688 1.034 138 170 200
-0.0855313 0.0502173 1.035 134 166 196
-0.0839239 0.0502173 1.035 134 166 196
-0.0823166 0.0502173 1.035 134 166 196
-0.0807871 0.0502658 1.036 138 170 200
-0.0791782 0.0502658 1.036 130 162 192
-0.0775693 0.0502658 1.036 118 150 180
-0.0759603 0.0502658 1.036 117 149 179
-0.0743514 0.0502658 1.036 121 153 183
-0.0727424 0.0502658 1.036 122 154 184
-0.0711335 0.0502658 1.036 122 154 186
-0.0695245 0.0502658 1.036 122 154 186
-0.0679156 0.0502658 1.036 123 155 187
-0.0663067 0.0502658 1.036 123 155 187
-0.0646977 0.0502658 1.036 124 156 188
-0.0630888 0.0502658 1.036 121 153 185
-0.0614798 0.0502658 1.036 131 163 195
-0.0598709 0.0502658 1.036 148 180 212
-0.0582619 0.0502658 1.036 116 145 178
-0.056653 0.0502658 1.036 104 133 166
-0.055044 0.0502658 1.036 117 146 179
-0.0533835 0.0502173 1.035 129 158 191
-0.0517761 0.0502173 1.035 121 153 183
-0.0501687 0.0502173 1.035 121 153 183
-0.0485144 0.0501688 1.034 121 153 183
-0.0468632 0.0501202 1.033 124 156 186
-0.0452151 0.0500717 1.032 127 159 189
-0.0435701 0.0500232 1.031 124 156 186
-0.041969 0.0500232 1.031 124 156 186
-0.0403286 0.0499747 1.03 124 156 186
-0.038729 0.0499747 1.03 125 157 189
-0.0371654 0.0500232 1.031 127 159 191
-0.0355643 0.0500232 1.031 127 159 191
-0.0339631 0.0500232 1.031 122 154 186
-0.0323933 0.0500717 1.032 120 149 182
-0.0307906 0.0500717 1.032 138 167 200
-0.0292161 0.0501202 1.033 150 179 212
-0.0276118 0.0501202 1.033 151 180 213
-0.0244269 0.0501688 1.034 151 180 211
-0.022821 0.0501688 1.034 143 175 205
-0.0212152 0.0501688 1.034 139 171 201
-0.0196094 0.0501688 1.034 142 174 204
-0.0179861 0.0501202 1.033 142 174 204
-0.0163818 0.0501202 1.033 142 174 204
-0.0147775 0.0501202 1.033 141 173 203
-0.0131605 0.0500717 1.032 136 168 198
-0.0115578 0.0500717 1.032 137 169 199
-0.00995505 0.0500717 1.032 141 173 203
-0.00835232 0.0500717 1.032 141 173 203
-0.00674305 0.0500232 1.031 141 173 203
-0.00514187 0.0500232 1.031 142 174 204
-0.00354069 0.0500232 1.031 142 174 204
-0.00193951 0.0500232 1.031 143 175 205
-0.000338335 0.0500232 1.031 143 175 205
0.00126284 0.0500232 1.031 143 175 205
0.00286402 0.0500232 1.031 144 176 206
0.0044652 0.0500232 1.031 144 176 206
0.00606638 0.0500232 1.031 145 177 207
0.00766756 0.0500232 1.031 144 176 206
0.00926873 0.0500232 1.031 143 175 205
0.0108699 0.0500232 1.031 143 175 205
0.0124711 0.0500232 1.031 145 177 207
0.0140586 0.0499747 1.03 146 178 208
0.0156582 0.0499747 1.03 146 178 208
0.0172579 0.0499747 1.03 146 178 208
0.0188758 0.0500232 1.031 146 178 208
0.020477 0.0500232 1.031 145 177 207
0.0220782 0.0500232 1.031 144 176 206
0.0237023 0.0500717 1.032 144 176 206
0.025305 0.0500717 1.032 148 180 210
0.0269338 0.0501202 1.033 149 181 211
0.0285658 0.0501688 1.034 149 181 211
0.0302299 0.0502658 1.036 153 185 215
0.0319004 0.0503628 1.038 160 192 222
0.035226 0.0505084 1.041 148 179 205
0.0369135 0.0506054 1.043 160 191 217
0.0386441 0.050751 1.046 214 254 255
0.0403071 0.0507995 1.047 215 255 255
0.0420533 0.0509451 1.05 219 255 255
0.0438088 0.0510906 1.053 219 255 255
0.0455736 0.0512362 1.056 216 251 255
0.0698377 0.0577377 1.19 33 47 30
0.0716858 0.0577377 1.19 34 48 31
0.0734721 0.0576892 1.189 34 49 29
0.0753187 0.0576892 1.189 34 49 29
0.0771652 0.0576892 1.189 34 49 29
0.0788789 0.0575922 1.187 34 49 29
0.0807223 0.0575922 1.187 34 49 29
0.0824962 0.0575437 1.186 34 49 29
0.084267 0.0574951 1.185 34 50 28
0.0861074 0.0574951 1.185 34 50 28
0.0879477 0.0574951 1.185 33 49 27
0.0897881 0.0574951 1.185 33 49 27
0.0916284 0.0574951 1.185 33 50 25
0.0934687 0.0574951 1.185 33 50 25
0.0953091 0.0574951 1.185 43 60 35
0.0972314 0.0575437 1.186 37 54 29
0.0991568 0.0575922 1.187 36 54 27
0.101 0.0575922 1.187 36 54 27
0.10293 0.0576407 1.188 34 52 25
0.104864 0.0576892 1.189 37 55 28
0.1068 0.0577377 1.19 38 56 29
0.108648 0.0577377 1.19 37 55 28
0.110496 0.0577377 1.19 37 55 28
0.112344 0.0577377 1.19 37 55 28
0.114192 0.0577377 1.19 34 54 27
0.11604 0.0577377 1.19 37 57 30
0.117889 0.0577377 1.19 37 57 30
0.119737 0.0577377 1.19 37 57 30
0.121585 0.0577377 1.19 35 55 28
0.123433 0.0577377 1.19 36 56 29
0.125386 0.0577862 1.191 36 56 29
0.127236 0.0577862 1.191 36 56 29
0.129086 0.0577862 1.191 35 55 28
0.131045 0.0578348 1.192 37 57 30
0.132896 0.0578348 1.192 39 59 32
0.134861 0.0578833 1.193 39 59 32
0.136828 0.0579318 1.194 41 61 34
0.138799 0.0579803 1.195 39 59 32
0.140654 0.0579803 1.195 39 59 32
0.14263 0.0580288 1.196 43 63 36
0.144487 0.0580288 1.196 44 64 37
0.146344 0.0580288 1.196 41 61 34
0.148078 0.0579803 1.195 34 56 27
0.149934 0.0579803 1.195 39 61 32
0.151663 0.0579318 1.194 41 63 34
0.153388 0.0578833 1.193 41 63 34
0.155111 0.0578348 1.192 41 62 30
0.156962 0.0578348 1.192 41 62 30
0.158813 0.0578348 1.192 41 62 30
0.160665 0.0578348 1.192 41 62 30
0.162516 0.0578348 1.192 44 66 32
0.164367 0.0578348 1.192 42 64 30
0.166218 0.0578348 1.192 42 64 30
0.16807 0.0578348 1.192 42 64 30
0.169921 0.0578348 1.192 42 64 30
0.171916 0.0578833 1.193 51 73 39
0.173769 0.0578833 1.193 51 73 39
0.175622 0.0578833 1.193 55 77 43
0.177326 0.0578348 1.192 57 80 43
0.179177 0.0578348 1.192 56 79 42
0.181028 0.0578348 1.192 55 78 41
0.182879 0.0578348 1.192 56 79 42
0.184421 0.0577377 1.19 59 82 45
0.186269 0.0577377 1.19 57 80 43
0.187801 0.0576407 1.188 59 83 44
0.189486 0.0575922 1.187 64 88 49
0.191168 0.0575437 1.186 60 84 45
0.192847 0.0574951 1.185 62 86 47
0.194688 0.0574951 1.185 64 88 49
0.196528 0.0574951 1.185 63 87 48
0.198201 0.0574466 1.184 65 89 50
0.20004 0.0574466 1.184 64 88 49
0.201708 0.0573981 1.183 65 89 50
0.203545 0.0573981 1.183 70 94 55
0.205383 0.0573981 1.183 71 95 56
0.20722 0.0573981 1.183 71 95 56
0.209234 0.0574466 1.184 71 95 54
0.211073 0.0574466 1.184 70 94 53
0.213091 0.0574951 1.185 71 95 54
0.214932 0.0574951 1.185 71 95 54
0.216955 0.0575437 1.186 71 95 54
0.218797 0.0575437 1.186 72 96 55
0.220825 0.0575922 1.187 80 104 63
0.222668 0.0575922 1.187 79 103 62
0.224701 0.0576407 1.188 65 89 48
0.226736 0.0576892 1.189 66 90 49
0.228775 0.0577377 1.19 65 89 48
0.230623 0.0577377 1.19 64 88 47
0.232471 0.0577377 1.19 63 87 46
0.234516 0.0577862 1.191 62 86 45
0.236366 0.0577862 1.191 66 90 51
0.238216 0.0577862 1.191 64 88 49
0.240065 0.0577862 1.191 59 82 45
0.241915 0.0577862 1.191 56 79 42
0.24356 0.0577377 1.19 55 71 40
0.245408 0.0577377 1.19 50 66 35
0.247256 0.0577377 1.19 43 62 30
0.249104 0.0577377 1.19 46 65 33
0.250953 0.0577377 1.19 44 62 33
0.252801 0.0577377 1.19 41 59 30
0.254649 0.0577377 1.19 43 61 34
0.256497 0.0577377 1.19 41 59 32
0.258345 0.0577377 1.19 40 58 31
0.260193 0.0577377 1.19 40 58 31
0.262041 0.0577377 1.19 40 58 31
0.263889 0.0577377 1.19 41 59 32
0.265961 0.0577862 1.191 43 60 35
0.26781 0.0577862 1.191 43 60 35
0.26966 0.0577862 1.191 40 57 32
0.271738 0.0578348 1.192 40 57 32
0.273589 0.0578348 1.192 38 57 32
0.275671 0.0578833 1.193 38 57 32
0.277757 0.0579318 1.194 37 56 31
0.279845 0.0579803 1.195 37 56 31
0.281701 0.0579803 1.195 39 59 32
0.283557 0.0579803 1.195 37 57 30
0.28589 0.0580774 1.197 38 58 31
0.28799 0.0581259 1.198 37 57 30
0.290092 0.0581744 1.199 36 56 29
0.291954 0.0581744 1.199 37 57 30
0.294061 0.0582229 1.2 37 57 30
0.296172 0.0582714 1.201 37 57 30
0.298533 0.0583685 1.203 37 57 30
0.300402 0.0583685 1.203 38 58 31
0.302521 0.058417 1.204 39 59 32
0.304391 0.058417 1.204 38 58 31
0.306006 0.0583685 1.203 38 58 31
0.307875 0.0583685 1.203 38 58 31
0.309743 0.0583685 1.203 38 58 31
0.311352 0.05832 1.202 38 58 31
0.313219 0.05832 1.202 39 59 30
0.314824 0.0582714 1.201 38 58 29
0.316425 0.0582229 1.2 38 58 29
0.318024 0.0581744 1.199 39 59 30
0.319619 0.0581259 1.198 41 61 32
0.321211 0.0580774 1.197 41 61 32
0.3228 0.0580288 1.196 42 62 33
0.324115 0.0579318 1.194 44 64 35
0.325423 0.0578348 1.192 47 65 36
0.327 0.0577862 1.191 50 68 39
0.328021 0.0576407 1.188 55 70 42
0.329588 0.0575922 1.187 60 75 47
0.331153 0.0575437 1.186 66 81 53
0.332714 0.0574951 1.185 59 74 46
0.334554 0.0574951 1.185 52 71 39
0.336678 0.0575437 1.186 58 77 45
0.33852 0.0575437 1.186 59 78 46
0.340362 0.0575437 1.186 60 79 47
0.342204 0.0575437 1.186 61 80 48
0.344046 0.0575437 1.186 57 76 44
0.346179 0.0575922 1.187 57 75 46
0.348023 0.0575922 1.187 59 77 48
0.349571 0.0575437 1.186 61 79 50
0.351413 0.0575437 1.186 61 79 50
0.353255 0.0575437 1.186 61 78 53
0.355097 0.0575437 1.186 58 75 50
0.356638 0.0574951 1.185 52 66 49
0.358478 0.0574951 1.185 46 60 43
0.360015 0.0574466 1.184 45 55 50
0.361242 0.0573496 1.182 89 99 94
0.362771 0.0573011 1.181 52 61 60
0.364605 0.0573011 1.181 41 50 49
0.364267 0.0569614 1.174 36 46 48
0.363908 0.0566218 1.167 36 46 48
0.360604 0.0555544 1.145 179 188 192
0.360799 0.0553118 1.14 176 186 193
0.361934 0.0552147 1.138 185 195 202
0.363062 0.0551177 1.136 198 208 215
0.364826 0.0551177 1.136 183 193 200
0.367881 0.0553118 1.14 97 106 115
0.371922 0.0556514 1.147 103 112 121
-0.145845 0.052127 1.041 109 132 161
-0.14409 0.0520769 1.04 131 154 183
-0.142475 0.0520769 1.04 131 158 189
-0.140589 0.0519768 1.038 126 153 184
-0.138843 0.0519267 1.037 124 153 184
-0.137232 0.0519267 1.037 136 165 196
-0.135622 0.0519267 1.037 132 161 194
-0.134011 0.0519267 1.037 119 148 181
-0.132401 0.0519267 1.037 109 138 171
-0.130791 0.0519267 1.037 108 137 170
-0.12918 0.0519267 1.037 111 136 174
-0.12757 0.0519267 1.037 110 135 173
-0.125959 0.0519267 1.037 114 141 174
-0.124349 0.0519267 1.037 118 145 178
-0.122738 0.0519267 1.037 125 152 185
-0.121128 0.0519267 1.037 128 155 188
-0.119402 0.0518766 1.036 131 158 191
-0.117793 0.0518766 1.036 133 160 193
-0.116184 0.0518766 1.036 133 162 195
-0.114575 0.0518766 1.036 136 165 198
-0.112966 0.0518766 1.036 136 165 198
-0.111357 0.0518766 1.036 137 166 199
-0.109642 0.0518266 1.035 138 167 198
-0.108035 0.0518266 1.035 139 168 199
-0.106427 0.0518266 1.035 139 168 199
-0.10482 0.0518266 1.035 137 166 197
-0.103213 0.0518266 1.035 134 166 196
-0.101507 0.0517765 1.034 132 164 194
-0.0999012 0.0517765 1.034 130 162 192
-0.0982954 0.0517765 1.034 130 162 192
-0.096596 0.0517264 1.033 125 157 187
-0.0949918 0.0517264 1.033 118 150 180
-0.0933875 0.0517264 1.033 120 152 182
-0.0917832 0.0517264 1.033 122 154 184
-0.0901789 0.0517264 1.033 125 157 187
-0.0886604 0.0517765 1.034 127 159 189
-0.0870545 0.0517765 1.034 128 160 190
-0.0854487 0.0517765 1.034 128 160 190
-0.0839239 0.0518266 1.035 135 167 197
-0.0823166 0.0518266 1.035 138 170 200
-0.0807092 0.0518266 1.035 136 168 198
-0.0791782 0.0518766 1.036 134 166 196
-0.0775693 0.0518766 1.036 133 162 193
-0.0759603 0.0518766 1.036 127 156 187
-0.0743514 0.0518766 1.036 125 154 185
-0.0727424 0.0518766 1.036 125 154 185
-0.0711335 0.0518766 1.036 126 155 186
-0.0695245 0.0518766 1.036 126 155 186
-0.0679156 0.0518766 1.036 125 154 187
-0.0663067 0.0518766 1.036 125 154 187
-0.0646977 0.0518766 1.036 126 155 188
-0.0630888 0.0518766 1.036 123 152 185
-0.0614798 0.0518766 1.036 140 169 202
-0.0598709 0.0518766 1.036 153 182 215
-0.0582619 0.0518766 1.036 102 134 166
-0.056653 0.0518766 1.036 103 135 167
-0.055044 0.0518766 1.036 117 149 181
-0.0534351 0.0518766 1.036 125 157 189
-0.0517761 0.0518266 1.035 121 153 183
-0.0501687 0.0518266 1.035 121 153 183
-0.0485144 0.0517765 1.034 120 152 182
-0.0469086 0.0517765 1.034 118 150 180
-0.0452589 0.0517264 1.033 113 145 175
-0.0436124 0.0516763 1.032 115 147 177
-0.041969 0.0516263 1.031 121 153 183
-0.0403678 0.0516263 1.031 123 155 185
-0.0387666 0.0516263 1.031 125 157 189
-0.0371654 0.0516263 1.031 127 159 191
-0.0355987 0.0516763 1.032 134 166 198
-0.033996 0.0516763 1.032 132 164 196
-0.0308204 0.0517264 1.033 143 171 206
-0.0276386 0.0517765 1.034 142 174 206
-0.0260327 0.0517765 1.034 144 176 208
-0.0244505 0.0518266 1.035 143 175 207
-0.022821 0.0517765 1.034 141 173 205
-0.0212152 0.0517765 1.034 138 170 202
-0.0196094 0.0517765 1.034 142 174 206
-0.0180035 0.0517765 1.034 142 174 206
-0.0163977 0.0517765 1.034 143 175 205
-0.0147775 0.0517264 1.033 143 175 205
-0.0131605 0.0516763 1.032 145 177 207
-0.0115578 0.0516763 1.032 148 180 210
-0.00995505 0.0516763 1.032 151 183 213
-0.00834423 0.0516263 1.031 150 182 212
-0.00674305 0.0516263 1.031 144 176 206
-0.00514187 0.0516263 1.031 138 170 200
-0.00354069 0.0516263 1.031 141 173 203
-0.00193951 0.0516263 1.031 141 173 203
-0.000338335 0.0516263 1.031 141 173 203
0.00126284 0.0516263 1.031 141 173 203
0.00286402 0.0516263 1.031 144 176 206
0.0044652 0.0516263 1.031 144 176 206
0.00606638 0.0516263 1.031 144 176 206
0.00766756 0.0516263 1.031 144 176 206
0.00925974 0.0515762 1.03 143 175 205
0.0108594 0.0515762 1.03 142 174 204
0.012459 0.0515762 1.03 145 177 207
0.0140586 0.0515762 1.03 145 177 207
0.0156582 0.0515762 1.03 146 178 208
0.0172579 0.0515762 1.03 146 178 208
0.0188575 0.0515762 1.03 146 178 208
0.020477 0.0516263 1.031 145 177 207
0.0220782 0.0516263 1.031 146 178 208
0.0237023 0.0516763 1.032 151 183 213
0.025305 0.0516763 1.032 149 181 211
0.0269078 0.0516763 1.032 149 181 211
0.0285658 0.0517765 1.034 150 182 212
0.0302299 0.0518766 1.036 146 178 208
0.0319004 0.0519768 1.038 158 190 220
0.0351921 0.0520769 1.04 145 179 204
0.0369135 0.0522272 1.043 173 207 232
0.0386441 0.0523774 1.046 214 255 255
0.0403071 0.0524275 1.047 215 255 255
0.0420132 0.0525276 1.049 219 255 255
0.0438088 0.0527279 1.053 219 255 255
0.0455736 0.0528781 1.056 214 248 255
0.0698377 0.059588 1.19 33 47 30
0.0716858 0.059588 1.19 34 48 31
0.0734721 0.059538 1.189 34 49 29
0.0752553 0.0594879 1.188 34 49 29
0.0771652 0.059538 1.189 34 49 29
0.0788789 0.0594378 1.187 36 51 31
0.0807223 0.0594378 1.187 34 50 28
0.0825658 0.0594378 1.187 34 50 28
0.0843381 0.0593877 1.186 34 50 28
0.0861074 0.0593377 1.185 37 53 31
0.0879477 0.0593377 1.185 36 52 30
0.0897881 0.0593377 1.185 37 53 31
0.0916284 0.0593377 1.185 36 53 28
0.0934687 0.0593377 1.185 36 53 28
0.0953895 0.0593877 1.186 39 56 31
0.0972314 0.0593877 1.186 38 55 30
0.0991568 0.0594378 1.187 37 55 28
0.101 0.0594378 1.187 37 55 28
0.102844 0.0594378 1.187 36 54 27
0.104864 0.059538 1.189 36 54 27
0.10671 0.059538 1.189 38 56 29
0.108648 0.059588 1.19 37 55 28
0.110496 0.059588 1.19 38 56 29
0.112344 0.059588 1.19 39 57 30
0.114192 0.059588 1.19 35 55 28
0.11604 0.059588 1.19 36 56 29
0.117889 0.059588 1.19 36 56 29
0.119737 0.059588 1.19 37 57 30
0.121585 0.059588 1.19 36 56 29
0.123433 0.059588 1.19 36 56 29
0.125281 0.059588 1.19 36 56 29
0.127129 0.059588 1.19 37 57 30
0.128977 0.059588 1.19 36 56 29
0.130935 0.0596381 1.191 38 58 31
0.132785 0.0596381 1.191 38 58 31
0.134748 0.0596882 1.192 38 58 31
0.136713 0.0597383 1.193 39 59 32
0.138682 0.0597883 1.194 38 58 31
0.140654 0.0598384 1.195 37 59 32
0.14251 0.0598384 1.195 39 61 34
0.144366 0.0598384 1.195 40 62 35
0.146222 0.0598384 1.195 40 62 35
0.148078 0.0598384 1.195 37 59 32
0.149934 0.0598384 1.195 32 54 27
0.151663 0.0597883 1.194 33 55 26
0.153388 0.0597383 1.193 37 59 30
0.155111 0.0596882 1.192 35 57 28
0.156962 0.0596882 1.192 41 63 34
0.158813 0.0596882 1.192 44 65 33
0.160665 0.0596882 1.192 44 65 33
0.162516 0.0596882 1.192 46 68 34
0.164367 0.0596882 1.192 46 68 34
0.166218 0.0596882 1.192 48 70 36
0.16807 0.0596882 1.192 46 68 34
0.169921 0.0596882 1.192 49 71 37
0.171772 0.0596882 1.192 52 74 40
0.173623 0.0596882 1.192 52 74 40
0.175474 0.0596882 1.192 52 74 40
0.177326 0.0596882 1.192 55 77 43
0.179177 0.0596882 1.192 55 77 43
0.181028 0.0596882 1.192 55 78 41
0.182879 0.0596882 1.192 56 79 42
0.184576 0.0596381 1.191 58 81 44
0.186269 0.059588 1.19 51 74 37
0.187959 0.059538 1.189 55 79 40
0.189486 0.0594378 1.187 65 89 50
0.191329 0.0594378 1.187 59 83 44
0.19301 0.0593877 1.186 60 84 45
0.194688 0.0593377 1.185 59 83 44
0.196528 0.0593377 1.185 55 79 40
0.198201 0.0592876 1.184 60 84 45
0.20004 0.0592876 1.184 63 87 48
0.201879 0.0592876 1.184 64 88 49
0.203717 0.0592876 1.184 67 91 52
0.205556 0.0592876 1.184 66 90 51
0.207395 0.0592876 1.184 65 89 50
0.209234 0.0592876 1.184 68 92 53
0.211251 0.0593377 1.185 68 92 53
0.213091 0.0593377 1.185 70 94 53
0.214932 0.0593377 1.185 71 95 54
0.216955 0.0593877 1.186 71 95 54
0.218981 0.0594378 1.187 71 95 54
0.220825 0.0594378 1.187 72 96 55
0.222668 0.0594378 1.187 73 97 56
0.224701 0.0594879 1.188 68 92 51
0.226736 0.059538 1.189 66 90 49
0.228775 0.059588 1.19 66 90 49
0.230623 0.059588 1.19 65 89 48
0.232471 0.059588 1.19 63 87 48
0.23432 0.059588 1.19 62 86 47
0.236168 0.059588 1.19 66 90 51
0.238016 0.059588 1.19 65 89 50
0.239864 0.059588 1.19 58 78 44
0.241712 0.059588 1.19 54 74 40
0.24356 0.059588 1.19 53 73 39
0.245408 0.059588 1.19 48 68 34
0.247256 0.059588 1.19 45 64 32
0.249104 0.059588 1.19 44 63 31
0.251163 0.0596381 1.191 44 62 33
0.253013 0.0596381 1.191 43 61 32
0.254863 0.0596381 1.191 43 61 34
0.256497 0.059588 1.19 40 58 31
0.258345 0.059588 1.19 40 57 32
0.260193 0.059588 1.19 40 57 32
0.262041 0.059588 1.19 40 57 32
0.263889 0.059588 1.19 41 58 33
0.265737 0.059588 1.19 41 58 33
0.26781 0.0596381 1.191 40 57 32
0.26966 0.0596381 1.191 40 57 32
0.271738 0.0596882 1.192 39 56 31
0.273589 0.0596882 1.192 38 57 32
0.275671 0.0597383 1.193 38 57 32
0.277757 0.0597883 1.194 38 57 32
0.279845 0.0598384 1.195 38 57 32
0.281701 0.0598384 1.195 38 57 32
0.283794 0.0598885 1.196 35 54 29
0.28589 0.0599386 1.197 36 56 29
0.28799 0.0599886 1.198 35 55 28
0.290334 0.0600888 1.2 36 56 29
0.292198 0.0600888 1.2 37 57 30
0.294552 0.0601889 1.202 38 58 31
0.296665 0.060239 1.203 38 58 31
0.298533 0.060239 1.203 37 57 30
0.300901 0.0603391 1.205 38 58 31
0.302772 0.0603391 1.205 38 58 31
0.304644 0.0603391 1.205 38 58 31
0.306515 0.0603391 1.205 38 58 31
0.308387 0.0603391 1.205 38 58 31
0.309743 0.060239 1.203 39 59 30
0.311611 0.060239 1.203 39 59 30
0.31348 0.060239 1.203 41 61 32
0.315086 0.0601889 1.202 41 61 32
0.316689 0.0601389 1.201 38 58 29
0.318289 0.0600888 1.2 41 61 32
0.319886 0.0600387 1.199 41 61 32
0.321211 0.0599386 1.197 41 61 32
0.3228 0.0598885 1.196 44 62 33
0.324115 0.0597883 1.194 44 62 33
0.325696 0.0597383 1.193 44 62 33
0.327274 0.0596882 1.192 45 63 34
0.328021 0.0594879 1.188 55 70 42
0.329588 0.0594378 1.187 66 81 53
0.331432 0.0594378 1.187 64 80 49
0.332994 0.0593877 1.186 60 76 45
0.334836 0.0593877 1.186 60 76 45
0.336678 0.0593877 1.186 62 78 47
0.33852 0.0593877 1.186 60 79 47
0.340362 0.0593877 1.186 62 81 49
0.342204 0.0593877 1.186 64 83 51
0.344336 0.0594378 1.187 55 74 42
0.346179 0.0594378 1.187 58 77 45
0.348023 0.0594378 1.187 58 77 45
0.349866 0.0594378 1.187 58 76 47
0.35171 0.0594378 1.187 59 77 48
0.353553 0.0594378 1.187 59 77 50
0.355097 0.0593877 1.186 58 76 49
0.356939 0.0593877 1.186 58 72 55
0.358478 0.0593377 1.185 47 61 44
0.360015 0.0592876 1.184 45 55 50
0.361242 0.0591874 1.182 93 103 98
0.362771 0.0591374 1.181 45 56 55
0.364605 0.0591374 1.181 39 50 49
0.364267 0.0587869 1.174 36 45 49
0.363596 0.0583863 1.166 37 46 50
0.360604 0.0573347 1.145 181 190 194
0.361116 0.0571344 1.141 176 186 193
0.361616 0.0569341 1.137 185 195 202
0.362742 0.056834 1.135 196 206 213
0.364826 0.056884 1.136 184 194 201
0.367559 0.0570343 1.139 94 103 112
0.371597 0.0573848 1.146 105 114 123
-0.146126 0.0538489 1.043 73 96 120
-0.144229 0.0537456 1.041 118 141 165
-0.142475 0.053694 1.04 133 157 189
-0.140724 0.0536424 1.039 121 145 177
-0.139111 0.0536424 1.039 121 148 179
-0.137232 0.0535391 1.037 135 162 193
-0.135753 0.0535908 1.038 137 166 199
-0.134011 0.0535391 1.037 129 158 191
-0.132401 0.0535391 1.037 114 140 175
-0.130791 0.0535391 1.037 102 128 163
-0.12918 0.0535391 1.037 117 143 178
-0.12757 0.0535391 1.037 118 144 179
-0.125959 0.0535391 1.037 114 140 175
-0.124349 0.0535391 1.037 121 147 182
-0.122738 0.0535391 1.037 122 149 182
-0.121011 0.0534875 1.036 122 149 182
-0.119402 0.0534875 1.036 124 153 186
-0.117793 0.0534875 1.036 125 154 187
-0.116184 0.0534875 1.036 122 151 184
-0.114575 0.0534875 1.036 120 149 182
-0.112966 0.0534875 1.036 120 149 182
-0.11125 0.0534359 1.035 130 159 192
-0.109642 0.0534359 1.035 136 165 196
-0.108035 0.0534359 1.035 138 167 198
-0.106427 0.0534359 1.035 139 168 199
-0.10482 0.0534359 1.035 134 163 194
-0.103113 0.0533842 1.034 132 164 194
-0.101507 0.0533842 1.034 132 164 194
-0.0998046 0.0533326 1.033 134 166 196
-0.0982003 0.0533326 1.033 134 166 196
-0.096596 0.0533326 1.033 120 152 182
-0.0948998 0.053281 1.032 120 152 182
-0.0932971 0.053281 1.032 121 153 183
-0.0917832 0.0533326 1.033 120 152 182
-0.0901789 0.0533326 1.033 120 152 182
-0.0886604 0.0533842 1.034 120 152 182
-0.0870545 0.0533842 1.034 120 152 182
-0.0854487 0.0533842 1.034 121 153 183
-0.0839239 0.0534359 1.035 129 161 191
-0.0823166 0.0534359 1.035 130 162 192
-0.0807092 0.0534359 1.035 130 159 190
-0.0791782 0.0534875 1.036 125 154 185
-0.0775693 0.0534875 1.036 122 151 182
-0.0759603 0.0534875 1.036 125 154 185
-0.0743514 0.0534875 1.036 123 155 185
-0.0727424 0.0534875 1.036 123 155 185
-0.0711335 0.0534875 1.036 122 154 186
-0.0695245 0.0534875 1.036 123 155 187
-0.0679156 0.0534875 1.036 124 156 188
-0.0663067 0.0534875 1.036 124 156 188
-0.0646977 0.0534875 1.036 120 152 184
-0.0630888 0.0534875 1.036 122 154 186
-0.0614798 0.0534875 1.036 138 170 202
-0.0598709 0.0534875 1.036 145 177 209
-0.0582619 0.0534875 1.036 98 127 160
-0.056653 0.0534875 1.036 108 137 170
-0.055044 0.0534875 1.036 122 154 186
-0.0534351 0.0534875 1.036 120 152 184
-0.0517761 0.0534359 1.035 117 149 179
-0.0501687 0.0534359 1.035 118 150 180
-0.0485144 0.0533842 1.034 118 150 180
-0.0469086 0.0533842 1.034 120 152 182
-0.0453028 0.0533842 1.034 114 146 176
-0.0436547 0.0533326 1.033 115 147 177
-0.0420097 0.053281 1.032 122 154 184
-0.0404069 0.053281 1.032 123 155 185
-0.0388042 0.053281 1.032 127 159 191
-0.0372015 0.053281 1.032 127 159 191
-0.0355987 0.053281 1.032 129 161 193
-0.0324247 0.0533326 1.033 137 165 200
-0.0308502 0.0533842 1.034 144 172 207
-0.0292444 0.0533842 1.034 136 165 198
-0.0276386 0.0533842 1.034 145 174 207
-0.0260327 0.0533842 1.034 148 177 210
-0.0244505 0.0534359 1.035 144 173 206
-0.0228431 0.0534359 1.035 137 166 197
-0.0212357 0.0534359 1.035 143 172 203
-0.0196283 0.0534359 1.035 142 174 204
-0.0180035 0.0533842 1.034 143 175 205
-0.0163977 0.0533842 1.034 145 177 207
-0.0147919 0.0533842 1.034 144 176 206
-0.0131605 0.053281 1.032 152 184 214
-0.011569 0.0533326 1.033 148 180 210
-0.00995505 0.053281 1.032 148 180 210
-0.00834423 0.0532294 1.031 148 180 210
-0.00674305 0.0532294 1.031 150 184 214
-0.00513688 0.0531777 1.03 147 181 211
-0.00354069 0.0532294 1.031 144 178 208
-0.00193951 0.0532294 1.031 143 177 207
-0.000338335 0.0532294 1.031 142 176 206
0.00126162 0.0531777 1.03 142 176 206
0.00286124 0.0531777 1.03 144 178 208
0.00446087 0.0531777 1.03 142 176 206
0.00606049 0.0531777 1.03 139 173 203
0.00766012 0.0531777 1.03 139 173 203
0.00925974 0.0531777 1.03 139 173 203
0.0108594 0.0531777 1.03 141 175 205
0.012459 0.0531777 1.03 144 178 208
0.0140586 0.0531777 1.03 142 176 206
0.015643 0.0531261 1.029 142 176 206
0.0172579 0.0531777 1.03 143 177 207
0.0188575 0.0531777 1.03 144 178 208
0.0204571 0.0531777 1.03 144 178 208
0.0220782 0.0532294 1.031 146 178 208
0.0236793 0.0532294 1.031 149 181 211
0.025305 0.053281 1.032 151 183 213
0.0269078 0.053281 1.032 148 180 210
0.0285658 0.0533842 1.034 150 182 212
0.0302299 0.0534875 1.036 152 184 214
0.0319004 0.0535908 1.038 156 188 218
0.035226 0.0537456 1.041 150 182 205
0.0368781 0.0537973 1.042 193 225 248
0.0386072 0.0539522 1.045 215 255 255
0.0403071 0.0540554 1.047 215 255 255
0.0420132 0.0541587 1.049 219 255 255
0.0437672 0.0543136 1.052 219 255 255
0.0455736 0.0545201 1.056 209 241 251
0.0698377 0.0614383 1.19 32 47 27
0.0716256 0.0613867 1.189 33 48 28
0.0734721 0.0613867 1.189 32 47 27
0.0752553 0.0613351 1.188 33 48 28
0.0770354 0.0612835 1.187 32 47 27
0.0788789 0.0612835 1.187 33 48 28
0.0807223 0.0612835 1.187 33 49 27
0.0824962 0.0612318 1.186 34 50 28
0.084267 0.0611802 1.185 34 50 28
0.0861074 0.0611802 1.185 37 53 31
0.0879477 0.0611802 1.185 37 53 31
0.0897881 0.0611802 1.185 37 53 31
0.0916284 0.0611802 1.185 36 53 28
0.0934687 0.0611802 1.185 37 54 29
0.0953895 0.0612318 1.186 39 56 31
0.0972314 0.0612318 1.186 38 55 30
0.0991568 0.0612835 1.187 36 54 27
0.101 0.0612835 1.187 37 55 28
0.102844 0.0612835 1.187 36 54 27
0.104775 0.0613351 1.188 37 55 28
0.10662 0.0613351 1.188 39 57 30
0.108465 0.0613351 1.188 37 55 28
0.11031 0.0613351 1.188 39 57 30
0.11225 0.0613867 1.189 39 57 30
0.114096 0.0613867 1.189 34 54 27
0.115943 0.0613867 1.189 35 55 28
0.11769 0.0613351 1.188 35 55 28
0.119535 0.0613351 1.188 36 56 29
0.12138 0.0613351 1.188 37 57 30
0.123225 0.0613351 1.188 36 56 29
0.12507 0.0613351 1.188 36 56 29
0.127022 0.0613867 1.189 37 57 30
0.128869 0.0613867 1.189 36 56 29
0.130825 0.0614383 1.19 37 57 30
0.132673 0.0614383 1.19 36 56 29
0.134522 0.0614383 1.19 38 58 31
0.136599 0.0615416 1.192 41 61 34
0.13845 0.0615416 1.192 39 59 32
0.140301 0.0615416 1.192 41 61 34
0.142272 0.0615932 1.193 41 61 34
0.144245 0.0616449 1.194 39 59 32
0.1461 0.0616449 1.194 41 61 34
0.147954 0.0616449 1.194 39 59 32
0.149808 0.0616449 1.194 38 58 31
0.151536 0.0615932 1.193 34 54 27
0.15326 0.0615416 1.192 36 56 29
0.155111 0.0615416 1.192 37 57 28
0.156962 0.0615416 1.192 43 63 34
0.15868 0.06149 1.191 44 64 35
0.16053 0.06149 1.191 44 64 35
0.16238 0.06149 1.191 48 69 37
0.164229 0.06149 1.191 48 69 37
0.166079 0.06149 1.191 48 70 36
0.167929 0.06149 1.191 50 72 38
0.169921 0.0615416 1.192 51 73 39
0.171772 0.0615416 1.192 52 74 40
0.173623 0.0615416 1.192 51 73 39
0.175474 0.0615416 1.192 52 74 40
0.177326 0.0615416 1.192 53 75 41
0.179177 0.0615416 1.192 53 75 41
0.181028 0.0615416 1.192 55 78 41
0.182879 0.0615416 1.192 56 79 42
0.184576 0.06149 1.191 57 80 43
0.186269 0.0614383 1.19 55 78 41
0.187959 0.0613867 1.189 50 73 36
0.189646 0.0613351 1.188 60 83 46
0.191329 0.0612835 1.187 58 82 43
0.193173 0.0612835 1.187 59 83 44
0.194688 0.0611802 1.185 58 82 43
0.196528 0.0611802 1.185 58 82 43
0.198368 0.0611802 1.185 57 81 42
0.200209 0.0611802 1.185 62 86 47
0.202049 0.0611802 1.185 63 87 48
0.203717 0.0611286 1.184 64 88 49
0.20573 0.0611802 1.185 63 87 48
0.20757 0.0611802 1.185 64 88 49
0.209411 0.0611802 1.185 67 91 52
0.211251 0.0611802 1.185 67 91 52
0.213091 0.0611802 1.185 68 92 51
0.214932 0.0611802 1.185 70 94 53
0.216955 0.0612318 1.186 71 95 54
0.218981 0.0612835 1.187 71 95 54
0.220825 0.0612835 1.187 71 95 54
0.222668 0.0612835 1.187 68 92 51
0.224701 0.0613351 1.188 68 92 51
0.226736 0.0613867 1.189 67 91 50
0.228775 0.0614383 1.19 71 95 54
0.230623 0.0614383 1.19 62 86 45
0.232471 0.0614383 1.19 52 76 37
0.23432 0.0614383 1.19 51 75 36
0.236168 0.0614383 1.19 49 72 35
0.238016 0.0614383 1.19 48 71 34
0.240065 0.06149 1.191 48 68 34
0.241915 0.06149 1.191 48 68 34
0.243969 0.0615416 1.192 52 71 39
0.245821 0.0615416 1.192 51 70 38
0.247464 0.06149 1.191 48 67 35
0.249314 0.06149 1.191 46 65 33
0.251163 0.06149 1.191 43 61 32
0.253013 0.06149 1.191 41 59 30
0.254863 0.06149 1.191 41 59 32
0.256712 0.06149 1.191 40 58 31
0.258562 0.06149 1.191 39 57 30
0.260412 0.06149 1.191 40 58 31
0.262261 0.06149 1.191 41 58 33
0.264333 0.0615416 1.192 40 57 32
0.266184 0.0615416 1.192 40 57 32
0.26781 0.06149 1.191 40 57 32
0.26966 0.06149 1.191 41 58 33
0.271738 0.0615416 1.192 40 57 32
0.273589 0.0615416 1.192 40 57 32
0.275671 0.0615932 1.193 40 57 32
0.277757 0.0616449 1.194 40 57 32
0.279845 0.0616965 1.195 40 57 32
0.281701 0.0616965 1.195 39 58 33
0.283794 0.0617481 1.196 37 56 31
0.28589 0.0617997 1.197 37 57 30
0.28799 0.0618514 1.198 37 57 30
0.290334 0.0619546 1.2 41 61 34
0.292198 0.0619546 1.2 39 59 32
0.294552 0.0620579 1.202 41 61 34
0.296665 0.0621095 1.203 39 59 32
0.298781 0.0621611 1.204 38 58 31
0.300901 0.0622128 1.205 38 58 31
0.302772 0.0622128 1.205 38 58 31
0.304897 0.0622644 1.206 38 58 31
0.306515 0.0622128 1.205 41 61 34
0.308387 0.0622128 1.205 39 59 32
0.31 0.0621611 1.204 41 61 32
0.311611 0.0621095 1.203 39 59 30
0.31348 0.0621095 1.203 36 56 27
0.315086 0.0620579 1.202 36 56 27
0.316689 0.0620063 1.201 36 56 27
0.318289 0.0619546 1.2 41 61 32
0.319619 0.0618514 1.198 42 62 33
0.321211 0.0617997 1.197 42 62 33
0.3228 0.0617481 1.196 45 63 34
0.324386 0.0616965 1.195 46 64 35
0.325696 0.0615932 1.193 48 66 37
0.327274 0.0615416 1.192 44 62 33
0.328573 0.0614383 1.19 55 71 40
0.329588 0.0612835 1.187 67 83 52
0.331432 0.0612835 1.187 62 78 47
0.333275 0.0612835 1.187 62 78 47
0.335119 0.0612835 1.187 62 78 47
0.336962 0.0612835 1.187 62 78 47
0.338806 0.0612835 1.187 58 77 45
0.340649 0.0612835 1.187 61 80 48
0.342492 0.0612835 1.187 62 81 49
0.344336 0.0612835 1.187 60 79 47
0.346179 0.0612835 1.187 59 78 46
0.348023 0.0612835 1.187 59 78 46
0.349866 0.0612835 1.187 60 78 49
0.35171 0.0612835 1.187 59 77 48
0.353553 0.0612835 1.187 59 77 50
0.355397 0.0612835 1.187 59 77 50
0.35724 0.0612835 1.187 65 79 62
0.358781 0.0612318 1.186 48 62 45
0.360015 0.0611286 1.184 45 55 50
0.361242 0.0610253 1.182 93 103 98
0.362771 0.0609737 1.181 43 54 53
0.364296 0.0609221 1.18 39 50 49
0.363957 0.0605607 1.173 35 44 48
0.363596 0.0601993 1.166 38 47 51
0.360919 0.0591667 1.146 183 192 196
0.361116 0.0589085 1.141 177 187 194
0.361616 0.058702 1.137 182 192 199
0.363062 0.0586504 1.136 195 205 212
0.364826 0.0586504 1.136 185 195 202
0.367236 0.0587536 1.138 92 101 110
0.371597 0.0591667 1.146 101 110 119
-0.146546 0.0556302 1.046 64 86 104
-0.144506 0.0554706 1.043 114 136 154
-0.142612 0.0553643 1.041 128 152 184
-0.14086 0.0553111 1.04 109 133 165
-0.139245 0.0553111 1.04 111 140 173
-0.137365 0.0552047 1.038 131 160 193
-0.135753 0.0552047 1.038 134 163 196
-0.134011 0.0551515 1.037 130 159 192
-0.132401 0.0551515 1.037 100 126 161
-0.130791 0.0551515 1.037 96 122 157
-0.12918 0.0551515 1.037 106 132 167
-0.12757 0.0551515 1.037 113 139 174
-0.125959 0.0551515 1.037 121 144 180
-0.124349 0.0551515 1.037 129 152 188
-0.122738 0.0551515 1.037 126 150 184
-0.121128 0.0551515 1.037 124 148 182
-0.119402 0.0550984 1.036 125 152 185
-0.117793 0.0550984 1.036 128 155 188
-0.116184 0.0550984 1.036 128 155 188
-0.114575 0.0550984 1.036 129 156 189
-0.112966 0.0550984 1.036 127 156 189
-0.11125 0.0550452 1.035 127 156 189
-0.109642 0.0550452 1.035 124 153 186
-0.108035 0.0550452 1.035 125 154 187
-0.106427 0.0550452 1.035 132 161 194
-0.104719 0.054992 1.034 132 161 194
-0.103113 0.054992 1.034 131 163 193
-0.101507 0.054992 1.034 131 163 193
-0.0998046 0.0549388 1.033 132 164 194
-0.0982003 0.0549388 1.033 134 166 196
-0.096596 0.0549388 1.033 131 163 193
-0.0948998 0.0548856 1.032 138 170 200
-0.0932971 0.0548856 1.032 139 171 201
-0.0917832 0.0549388 1.033 139 171 201
-0.0901789 0.0549388 1.033 138 170 200
-0.0886604 0.054992 1.034 135 167 197
-0.0870545 0.054992 1.034 125 157 187
-0.0855313 0.0550452 1.035 123 155 185
-0.0839239 0.0550452 1.035 134 166 196
-0.0823166 0.0550452 1.035 130 162 192
-0.0807092 0.0550452 1.035 120 149 182
-0.0791018 0.0550452 1.035 112 141 174
-0.0774944 0.0550452 1.035 112 144 176
-0.0759603 0.0550984 1.036 112 144 176
-0.0743514 0.0550984 1.036 114 146 178
-0.0726722 0.0550452 1.035 120 152 184
-0.0710648 0.0550452 1.035 118 150 182
-0.0694574 0.0550452 1.035 123 155 187
-0.06785 0.0550452 1.035 125 157 189
-0.0662426 0.0550452 1.035 124 156 188
-0.0646353 0.0550452 1.035 126 155 188
-0.0630279 0.0550452 1.035 127 156 189
-0.0614798 0.0550984 1.036 141 173 205
-0.0598709 0.0550984 1.036 138 170 202
-0.0582619 0.0550984 1.036 100 129 162
-0.056653 0.0550984 1.036 109 138 171
-0.055044 0.0550984 1.036 122 154 186
-0.0534351 0.0550984 1.036 120 152 184
-0.0517761 0.0550452 1.035 118 150 180
-0.0501687 0.0550452 1.035 116 148 178
-0.0485614 0.0550452 1.035 128 160 190
-0.0469086 0.054992 1.034 131 163 193
-0.0453028 0.054992 1.034 125 157 187
-0.0436969 0.054992 1.034 122 154 184
-0.0420504 0.0549388 1.033 122 154 184
-0.0404069 0.0548856 1.032 123 155 185
-0.0388042 0.0548856 1.032 124 156 188
-0.0356332 0.0549388 1.033 121 153 185
-0.034029 0.0549388 1.033 122 154 186
-0.0324561 0.054992 1.034 134 164 201
-0.0308502 0.054992 1.034 143 173 210
-0.0292444 0.054992 1.034 143 171 206
-0.0276653 0.0550452 1.035 150 178 213
-0.0260579 0.0550452 1.035 145 177 209
-0.0244741 0.0550984 1.036 142 174 206
-0.0228431 0.0550452 1.035 142 174 206
-0.0212357 0.0550452 1.035 141 173 205
-0.0196283 0.0550452 1.035 142 174 204
-0.0180209 0.0550452 1.035 141 173 203
-0.0163977 0.054992 1.034 142 174 204
-0.0147919 0.054992 1.034 143 175 205
-0.0131733 0.0549388 1.033 145 177 207
-0.011569 0.0549388 1.033 146 178 208
-0.00995505 0.0548856 1.032 146 178 208
-0.00834423 0.0548324 1.031 146 178 208
-0.00674305 0.0548324 1.031 146 180 210
-0.00513688 0.0547793 1.03 146 180 210
-0.00353726 0.0547793 1.03 146 180 210
-0.00193763 0.0547793 1.03 144 178 208
-0.000338007 0.0547793 1.03 144 178 208
0.00126162 0.0547793 1.03 144 178 208
0.00286124 0.0547793 1.03 144 178 208
0.00446087 0.0547793 1.03 142 176 206
0.00606049 0.0547793 1.03 142 176 206
0.00766012 0.0547793 1.03 143 177 207
0.00925974 0.0547793 1.03 142 176 206
0.0108594 0.0547793 1.03 142 176 206
0.0124469 0.0547261 1.029 144 176 206
0.014045 0.0547261 1.029 144 176 206
0.015643 0.0547261 1.029 145 177 207
0.0172411 0.0547261 1.029 144 176 206
0.0188575 0.0547793 1.03 145 177 207
0.0204571 0.0547793 1.03 146 178 208
0.0220567 0.0547793 1.03 146 178 208
0.0236793 0.0548324 1.031 148 180 210
0.025305 0.0548856 1.032 148 180 210
0.0269078 0.0548856 1.032 148 180 210
0.0285658 0.054992 1.034 152 184 214
0.0302299 0.0550984 1.036 156 188 218
0.0335447 0.0552579 1.039 145 177 207
0.035226 0.0553643 1.041 150 185 207
0.0369135 0.0554706 1.043 207 242 255
0.0386072 0.055577 1.045 215 255 255
0.0403071 0.0556834 1.047 215 255 255
0.0420132 0.0557897 1.049 219 255 255
0.069779 0.0632355 1.189 33 48 28
0.0715653 0.0631823 1.188 33 48 28
0.0734103 0.0631823 1.188 33 48 28
0.075192 0.0631291 1.187 34 49 29
0.0770354 0.0631291 1.187 33 49 27
0.0788789 0.0631291 1.187 33 49 27
0.0806543 0.0630759 1.186 33 49 27
0.0824962 0.0630759 1.186 34 50 28
0.084267 0.0630227 1.185 36 52 30
0.0861074 0.0630227 1.185 37 53 31
0.0879477 0.0630227 1.185 38 54 32
0.0897881 0.0630227 1.185 38 54 32
0.0916284 0.0630227 1.185 38 55 30
0.0934687 0.0630227 1.185 38 55 30
0.0953091 0.0630227 1.185 38 56 29
0.0972314 0.0630759 1.186 38 56 29
0.0990733 0.0630759 1.186 38 56 29
0.100915 0.0630759 1.186 38 56 29
0.102844 0.0631291 1.187 37 55 28
0.104687 0.0631291 1.187 37 55 28
0.106531 0.0631291 1.187 38 56 29
0.108465 0.0631823 1.188 37 55 28
0.110218 0.0631291 1.187 40 58 31
0.112061 0.0631291 1.187 40 58 31
0.113904 0.0631291 1.187 36 56 29
0.115748 0.0631291 1.187 36 56 29
0.117591 0.0631291 1.187 36 56 29
0.119435 0.0631291 1.187 36 56 29
0.121278 0.0631291 1.187 37 57 30
0.123122 0.0631291 1.187 37 57 30
0.124965 0.0631291 1.187 36 56 29
0.126809 0.0631291 1.187 38 58 31
0.12876 0.0631823 1.188 37 57 30
0.130605 0.0631823 1.188 38 58 31
0.132673 0.0632887 1.19 38 58 31
0.134522 0.0632887 1.19 41 61 34
0.136484 0.0633418 1.191 41 61 34
0.13845 0.063395 1.192 38 58 31
0.140301 0.063395 1.192 41 61 34
0.142153 0.063395 1.192 41 61 34
0.144125 0.0634482 1.193 39 61 34
0.145977 0.0634482 1.193 40 62 35
0.147954 0.0635014 1.194 39 61 34
0.149683 0.0634482 1.193 36 58 31
0.151536 0.0634482 1.193 39 61 34
0.15326 0.063395 1.192 47 69 42
0.155111 0.063395 1.192 42 64 35
0.156831 0.0633418 1.191 43 65 36
0.158547 0.0632887 1.19 43 65 36
0.160395 0.0632887 1.19 42 64 35
0.162243 0.0632887 1.19 46 69 37
0.164091 0.0632887 1.19 47 70 38
0.165939 0.0632887 1.19 47 70 38
0.167929 0.0633418 1.191 48 71 39
0.169778 0.0633418 1.191 49 73 39
0.171772 0.063395 1.192 50 74 40
0.173623 0.063395 1.192 51 75 41
0.175474 0.063395 1.192 51 75 41
0.177326 0.063395 1.192 51 75 41
0.179177 0.063395 1.192 51 75 41
0.181028 0.063395 1.192 53 77 43
0.182879 0.063395 1.192 54 78 44
0.184576 0.0633418 1.191 54 79 42
0.186269 0.0632887 1.19 53 78 41
0.187959 0.0632355 1.189 56 79 42
0.189646 0.0631823 1.188 58 81 44
0.191329 0.0631291 1.187 59 82 45
0.193173 0.0631291 1.187 59 82 45
0.194852 0.0630759 1.186 58 82 43
0.196694 0.0630759 1.186 58 82 43
0.198368 0.0630227 1.185 62 86 47
0.200209 0.0630227 1.185 63 87 48
0.202049 0.0630227 1.185 63 87 48
0.203889 0.0630227 1.185 63 87 48
0.20573 0.0630227 1.185 63 87 48
0.20757 0.0630227 1.185 63 87 48
0.209411 0.0630227 1.185 66 90 51
0.211251 0.0630227 1.185 66 90 51
0.213091 0.0630227 1.185 67 91 52
0.215113 0.0630759 1.186 67 91 52
0.217138 0.0631291 1.187 70 94 53
0.218981 0.0631291 1.187 73 97 56
0.221011 0.0631823 1.188 72 96 55
0.222856 0.0631823 1.188 70 94 53
0.224701 0.0631823 1.188 67 91 50
0.226736 0.0632355 1.189 60 84 43
0.228775 0.0632887 1.19 63 87 48
0.230623 0.0632887 1.19 59 83 44
0.232471 0.0632887 1.19 58 81 44
0.23432 0.0632887 1.19 60 83 46
0.236168 0.0632887 1.19 58 81 44
0.238016 0.0632887 1.19 57 80 43
0.240065 0.0633418 1.191 55 77 43
0.242118 0.063395 1.192 49 71 37
0.243969 0.063395 1.192 51 72 40
0.245821 0.063395 1.192 53 74 42
0.247672 0.063395 1.192 51 69 42
0.249523 0.063395 1.192 51 69 42
0.251374 0.063395 1.192 40 58 31
0.253226 0.063395 1.192 40 58 31
0.255077 0.063395 1.192 43 61 34
0.256928 0.063395 1.192 41 59 32
0.258779 0.063395 1.192 41 58 33
0.26063 0.063395 1.192 41 58 33
0.262482 0.063395 1.192 43 60 35
0.264333 0.063395 1.192 38 55 30
0.266184 0.063395 1.192 39 56 31
0.268035 0.063395 1.192 40 57 32
0.269886 0.063395 1.192 41 58 33
0.271738 0.063395 1.192 40 57 32
0.273818 0.0634482 1.193 40 57 32
0.275671 0.0634482 1.193 39 56 31
0.277757 0.0635014 1.194 40 57 32
0.279611 0.0635014 1.194 40 57 32
0.281701 0.0635546 1.195 38 57 32
0.283557 0.0635546 1.195 39 58 33
0.28589 0.0636609 1.197 38 57 32
0.28799 0.0637141 1.198 39 58 33
0.290334 0.0638205 1.2 39 59 32
0.292198 0.0638205 1.2 38 58 31
0.294552 0.0639269 1.202 39 59 32
0.296665 0.06398 1.203 39 59 32
0.298781 0.0640332 1.204 39 59 32
0.300901 0.0640864 1.205 39 59 32
0.302772 0.0640864 1.205 38 58 31
0.304897 0.0641396 1.206 38 58 31
0.306515 0.0640864 1.205 39 59 32
0.308387 0.0640864 1.205 38 58 31
0.31 0.0640332 1.204 41 61 32
0.311611 0.06398 1.203 41 61 32
0.31348 0.06398 1.203 36 56 27
0.315086 0.0639269 1.202 34 54 25
0.316689 0.0638737 1.201 36 56 27
