ply
format ascii 1.0
comment Created by Open3D
element vertex 1348
property double x
property double y
property double z
property uchar red
property uchar green
property uchar blue
end_header
0.193498 -0.221472 1.189 34 56 22
0.195509 -0.221659 1.19 34 56 22
0.197357 -0.221659 1.19 34 56 22
0.19954 -0.222031 1.192 32 54 20
0.201391 -0.222031 1.192 36 58 24
0.203243 -0.222031 1.192 34 56 22
0.205266 -0.222217 1.193 32 54 20
0.207119 -0.222217 1.193 34 55 23
0.209147 -0.222404 1.194 34 55 23
0.211178 -0.22259 1.195 35 56 24
0.213034 -0.22259 1.195 32 53 21
0.214889 -0.22259 1.195 32 53 21
0.216745 -0.22259 1.195 32 53 21
0.218601 -0.22259 1.195 34 56 22
0.220457 -0.22259 1.195 35 57 23
0.222313 -0.22259 1.195 36 58 24
0.224169 -0.22259 1.195 35 57 23
0.226025 -0.22259 1.195 31 53 19
0.227881 -0.22259 1.195 30 52 18
0.229544 -0.222404 1.194 30 52 18
0.231205 -0.222217 1.193 29 51 17
0.232862 -0.222031 1.192 30 50 16
0.234713 -0.222031 1.192 23 43 9
0.236366 -0.221845 1.191 26 45 13
0.238216 -0.221845 1.191 25 44 12
0.240065 -0.221845 1.191 25 44 12
0.241915 -0.221845 1.191 27 46 14
0.243765 -0.221845 1.191 26 44 15
0.245821 -0.222031 1.192 24 42 13
0.247672 -0.222031 1.192 23 41 12
0.249732 -0.222217 1.193 22 40 11
0.251796 -0.222404 1.194 20 38 11
0.253863 -0.22259 1.195 19 37 10
0.255719 -0.22259 1.195 18 36 9
0.258006 -0.222962 1.197 17 35 8
0.259865 -0.222962 1.197 18 35 10
0.261942 -0.223149 1.198 19 36 11
0.263803 -0.223149 1.198 18 35 10
0.265663 -0.223149 1.198 19 36 11
0.267524 -0.223149 1.198 18 35 10
0.26916 -0.222962 1.197 18 35 10
0.271019 -0.222962 1.197 17 34 9
0.272878 -0.222962 1.197 16 33 8
0.274277 -0.22259 1.195 16 32 10
0.276133 -0.22259 1.195 16 32 10
0.277757 -0.222404 1.194 20 36 14
0.279377 -0.222217 1.193 19 35 13
0.280994 -0.222031 1.192 19 34 14
0.282845 -0.222031 1.192 18 33 13
0.284457 -0.221845 1.191 18 33 13
0.286067 -0.221659 1.19 15 30 10
0.287915 -0.221659 1.19 16 31 11
0.289763 -0.221659 1.19 16 31 11
0.291611 -0.221659 1.19 18 33 13
0.293459 -0.221659 1.19 18 33 13
0.295555 -0.221845 1.191 18 34 12
0.297405 -0.221845 1.191 19 35 13
0.299506 -0.222031 1.192 19 35 13
0.301357 -0.222031 1.192 19 35 13
0.305315 -0.222217 1.193 19 35 13
0.307426 -0.222404 1.194 20 36 14
0.309539 -0.22259 1.195 20 36 14
0.311395 -0.22259 1.195 19 35 13
0.313251 -0.22259 1.195 19 35 13
0.31537 -0.222776 1.196 19 35 13
0.317228 -0.222776 1.196 18 34 12
0.319085 -0.222776 1.196 19 35 13
0.320943 -0.222776 1.196 19 35 13
0.3228 -0.222776 1.196 18 36 14
0.324658 -0.222776 1.196 18 36 14
0.326515 -0.222776 1.196 18 36 14
0.328372 -0.222776 1.196 18 36 14
0.329954 -0.22259 1.195 18 36 14
0.33181 -0.22259 1.195 18 36 14
0.333665 -0.22259 1.195 20 38 16
0.335521 -0.22259 1.195 21 39 17
0.337377 -0.22259 1.195 21 38 18
0.338949 -0.222404 1.194 20 37 17
0.340804 -0.222404 1.194 22 39 19
0.342371 -0.222217 1.193 23 40 20
0.343935 -0.222031 1.192 21 38 18
0.345786 -0.222031 1.192 21 38 18
0.347346 -0.221845 1.191 21 38 18
0.348902 -0.221659 1.19 20 37 17
0.350161 -0.221286 1.188 20 37 17
0.35171 -0.2211 1.187 18 35 15
0.353255 -0.220914 1.186 20 36 19
0.354798 -0.220727 1.185 20 36 19
0.356036 -0.220355 1.183 20 36 19
0.357268 -0.219982 1.181 21 37 20
0.358798 -0.219796 1.18 18 34 19
0.36002 -0.219423 1.178 13 29 14
0.361235 -0.219051 1.176 14 27 19
0.362753 -0.218865 1.175 45 58 50
0.363957 -0.218492 1.173 13 23 18
0.365155 -0.21812 1.171 12 22 17
0.366033 -0.217561 1.168 19 29 24
0.365013 -0.215884 1.159 12 22 17
0.36523 -0.214953 1.154 17 26 25
0.365114 -0.213835 1.148 80 89 88
0.36498 -0.212718 1.142 86 96 98
0.365469 -0.211973 1.138 86 96 98
0.365622 -0.211041 1.133 88 98 100
0.366733 -0.210669 1.131 85 95 97
-0.144164 -0.19007 1.029 236 232 225
-0.142566 -0.19007 1.029 236 232 225
-0.141105 -0.190254 1.03 237 233 226
-0.139505 -0.190254 1.03 236 232 225
-0.137906 -0.190254 1.03 235 231 224
-0.136438 -0.190439 1.031 236 232 225
-0.134837 -0.190439 1.031 236 232 225
-0.133365 -0.190624 1.032 236 232 225
-0.132018 -0.190993 1.034 237 233 226
-0.130412 -0.190993 1.034 237 233 226
-0.128931 -0.191178 1.035 237 233 226
-0.127446 -0.191363 1.036 236 232 225
-0.125838 -0.191363 1.036 234 230 223
-0.124229 -0.191363 1.036 234 230 223
-0.12262 -0.191363 1.036 235 231 224
-0.121128 -0.191547 1.037 236 232 225
-0.119517 -0.191547 1.037 236 232 225
-0.117907 -0.191547 1.037 236 232 225
-0.116408 -0.191732 1.038 235 231 224
-0.114796 -0.191732 1.038 235 231 224
-0.113184 -0.191732 1.038 236 232 225
-0.11168 -0.191917 1.039 235 231 224
-0.110172 -0.192101 1.04 235 231 224
-0.108557 -0.192101 1.04 235 231 224
-0.107044 -0.192286 1.041 232 231 223
-0.105529 -0.192471 1.042 232 231 223
-0.10401 -0.192656 1.043 234 233 225
-0.102489 -0.19284 1.044 230 229 221
-0.100964 -0.193025 1.045 227 228 220
-0.0994361 -0.19321 1.046 225 226 218
-0.0979052 -0.193394 1.047 224 225 217
-0.0963711 -0.193579 1.048 226 227 219
-0.0948339 -0.193764 1.049 227 228 220
-0.0932048 -0.193764 1.049 226 227 219
-0.091663 -0.193949 1.05 226 227 219
-0.0900323 -0.193949 1.05 226 227 219
-0.0884858 -0.194133 1.051 226 227 219
-0.0868536 -0.194133 1.051 226 227 219
-0.0852213 -0.194133 1.051 224 227 219
-0.0836686 -0.194318 1.052 224 227 219
-0.0820348 -0.194318 1.052 225 227 221
-0.0804775 -0.194503 1.053 225 227 221
-0.0788421 -0.194503 1.053 225 227 221
-0.0773534 -0.194872 1.055 231 233 227
-0.0757867 -0.195057 1.056 230 231 228
-0.0741467 -0.195057 1.056 194 195 192
-0.0725754 -0.195242 1.057 182 187 183
-0.0693578 -0.195426 1.058 250 255 251
-0.0677787 -0.195611 1.059 243 248 244
-0.066134 -0.195611 1.059 237 242 238
-0.0645503 -0.195796 1.06 234 239 235
-0.0629041 -0.195796 1.06 233 238 234
-0.0613156 -0.19598 1.061 236 241 237
-0.0596679 -0.19598 1.061 237 242 238
-0.0580201 -0.19598 1.061 235 240 236
-0.0563723 -0.19598 1.061 235 241 234
-0.0547246 -0.19598 1.061 235 241 234
-0.0530268 -0.195796 1.06 240 246 239
-0.0513806 -0.195796 1.06 239 245 238
-0.0497343 -0.195796 1.06 242 245 237
-0.0480881 -0.195796 1.06 242 245 237
-0.0463981 -0.195611 1.059 242 245 237
-0.0447534 -0.195611 1.059 244 247 239
-0.0431088 -0.195611 1.059 249 250 242
-0.0414641 -0.195611 1.059 248 249 241
-0.0398194 -0.195611 1.059 251 250 242
-0.0381748 -0.195611 1.059 249 248 240
-0.0365301 -0.195611 1.059 251 250 242
-0.0348854 -0.195611 1.059 251 250 242
-0.0332722 -0.195796 1.06 251 250 242
-0.031626 -0.195796 1.06 250 249 241
-0.030008 -0.19598 1.061 249 248 240
-0.0283603 -0.19598 1.061 250 249 241
-0.025112 -0.19635 1.063 248 247 239
-0.0234832 -0.196534 1.064 253 249 242
-0.0218512 -0.196719 1.065 253 249 242
-0.0202162 -0.196904 1.066 253 249 242
-0.0185955 -0.197273 1.068 252 248 241
-0.0169527 -0.197458 1.069 252 248 241
-0.0153069 -0.197643 1.07 252 248 241
-0.0136706 -0.198012 1.072 255 251 244
-0.012017 -0.198197 1.073 253 249 242
-0.0103698 -0.198566 1.075 252 248 241
-0.00871652 -0.198936 1.077 252 248 241
-0.00705698 -0.199305 1.079 253 249 242
-0.00539123 -0.199675 1.081 252 248 241
-0.00371927 -0.200044 1.083 250 246 239
-0.00204298 -0.200598 1.086 250 246 239
-0.00035704 -0.200968 1.088 250 246 239
0.00133389 -0.201152 1.089 251 247 240
0.0030307 -0.201522 1.091 250 246 239
0.00472939 -0.201706 1.092 250 246 239
0.0064253 -0.201706 1.092 250 246 239
0.00813609 -0.202076 1.094 251 247 240
0.00983511 -0.202076 1.094 252 248 241
0.0115341 -0.202076 1.094 250 246 239
0.0132452 -0.202261 1.095 250 246 239
0.0149458 -0.202261 1.095 252 248 241
0.0166464 -0.202261 1.095 253 249 242
0.018347 -0.202261 1.095 253 249 242
0.0200658 -0.202445 1.096 255 255 249
0.021768 -0.202445 1.096 255 253 246
0.0234915 -0.20263 1.097 215 210 205
0.0251952 -0.20263 1.097 220 215 210
0.0268989 -0.20263 1.097 232 230 224
0.0286025 -0.20263 1.097 240 238 232
0.0303338 -0.202815 1.098 250 249 241
0.0338058 -0.203184 1.1 189 192 179
0.0355141 -0.203184 1.1 84 87 74
0.0400987 -0.20928 1.133 34 42 19
0.0467792 -0.215745 1.168 31 52 20
0.0490924 -0.217961 1.18 32 53 21
0.0509682 -0.218146 1.181 31 52 20
0.052847 -0.218331 1.182 34 55 23
0.054914 -0.219254 1.187 30 51 19
0.0568053 -0.219439 1.188 30 51 19
0.0586997 -0.219624 1.189 30 51 19
0.0605462 -0.219624 1.189 30 51 19
0.0624452 -0.219808 1.19 31 52 20
0.0642934 -0.219808 1.19 30 51 19
0.0660859 -0.219624 1.189 30 51 19
0.0679324 -0.219624 1.189 31 52 20
0.0697203 -0.219439 1.188 32 53 21
0.0715051 -0.219254 1.187 31 52 20
0.0733485 -0.219254 1.187 31 52 20
0.075192 -0.219254 1.187 31 52 20
0.0769705 -0.219069 1.186 31 52 20
0.078746 -0.218885 1.185 31 52 20
0.0805863 -0.218885 1.185 31 52 20
0.0822876 -0.218515 1.183 31 52 20
0.0841248 -0.218515 1.183 34 55 23
0.0858894 -0.218331 1.182 34 55 23
0.0877251 -0.218331 1.182 37 59 25
0.089485 -0.218146 1.181 30 52 18
0.0913191 -0.218146 1.181 29 51 17
0.0931532 -0.218146 1.181 30 52 18
0.0949874 -0.218146 1.181 30 52 18
0.0969035 -0.218331 1.182 30 52 18
0.0986556 -0.218146 1.181 29 51 17
0.100575 -0.218331 1.182 29 51 17
0.102497 -0.218515 1.183 29 51 17
0.104423 -0.2187 1.184 29 51 17
0.106261 -0.2187 1.184 31 53 19
0.108192 -0.218885 1.185 31 53 19
0.110125 -0.219069 1.186 29 51 17
0.112061 -0.219254 1.187 30 52 18
0.113904 -0.219254 1.187 31 53 19
0.115845 -0.219439 1.188 30 52 18
0.117889 -0.219808 1.19 29 51 17
0.119837 -0.219993 1.191 29 51 17
0.121789 -0.220178 1.192 31 53 19
0.12364 -0.220178 1.192 31 53 19
0.125702 -0.220547 1.194 31 53 19
0.127556 -0.220547 1.194 31 53 19
0.129519 -0.220732 1.195 34 56 22
0.131485 -0.220917 1.196 31 53 19
0.133342 -0.220917 1.196 31 53 19
0.135313 -0.221101 1.197 32 54 20
0.137172 -0.221101 1.197 32 54 20
0.139031 -0.221101 1.197 31 53 19
0.141008 -0.221286 1.198 30 52 18
0.142868 -0.221286 1.198 31 53 19
0.144608 -0.221101 1.197 30 52 18
0.146467 -0.221101 1.197 30 52 18
0.148078 -0.220732 1.195 30 52 18
0.149557 -0.220178 1.192 31 53 19
0.151155 -0.219808 1.19 31 53 19
0.152874 -0.219624 1.189 32 54 20
0.15446 -0.219254 1.187 32 54 20
0.15604 -0.218885 1.185 32 54 20
0.157614 -0.218515 1.183 32 54 20
0.159317 -0.218331 1.182 35 57 23
0.161016 -0.218146 1.181 35 57 23
0.16285 -0.218146 1.181 35 57 23
0.164684 -0.218146 1.181 35 57 23
0.166519 -0.218146 1.181 35 57 23
0.168353 -0.218146 1.181 35 57 23
0.170331 -0.218331 1.182 35 57 23
0.172167 -0.218331 1.182 36 58 24
0.17415 -0.218515 1.183 36 58 24
0.175987 -0.218515 1.183 37 59 25
0.177974 -0.2187 1.184 37 59 25
0.179965 -0.218885 1.185 35 57 23
0.181805 -0.218885 1.185 36 58 24
0.183801 -0.219069 1.186 37 59 25
0.185799 -0.219254 1.187 36 58 24
0.187643 -0.219254 1.187 32 54 20
0.189486 -0.219254 1.187 35 57 23
0.191491 -0.219439 1.188 36 58 24
0.193498 -0.219624 1.189 34 56 22
0.195345 -0.219624 1.189 32 54 20
0.197357 -0.219808 1.19 34 56 22
0.199205 -0.219808 1.19 32 54 20
0.201222 -0.219993 1.191 35 57 23
0.203243 -0.220178 1.192 36 58 24
0.205094 -0.220178 1.192 34 56 22
0.207119 -0.220362 1.193 35 57 23
0.208971 -0.220362 1.193 34 56 22
0.211001 -0.220547 1.194 37 59 25
0.212855 -0.220547 1.194 34 56 22
0.21471 -0.220547 1.194 32 54 20
0.216564 -0.220547 1.194 32 54 20
0.218418 -0.220547 1.194 34 56 22
0.220273 -0.220547 1.194 34 56 22
0.222127 -0.220547 1.194 32 54 20
0.223981 -0.220547 1.194 34 56 22
0.225836 -0.220547 1.194 32 54 20
0.22769 -0.220547 1.194 29 51 17
0.229352 -0.220362 1.193 29 51 17
0.231011 -0.220178 1.192 30 52 18
0.232862 -0.220178 1.192 32 52 18
0.234713 -0.220178 1.192 29 49 15
0.236366 -0.219993 1.191 34 54 20
0.238016 -0.219808 1.19 23 43 9
0.239864 -0.219808 1.19 26 45 13
0.241712 -0.219808 1.19 27 46 14
0.24356 -0.219808 1.19 26 44 15
0.245821 -0.220178 1.192 26 44 15
0.247672 -0.220178 1.192 25 43 16
0.249732 -0.220362 1.193 22 40 13
0.251796 -0.220547 1.194 22 40 13
0.253863 -0.220732 1.195 20 38 11
0.255719 -0.220732 1.195 20 38 11
0.25779 -0.220917 1.196 18 36 9
0.259865 -0.221101 1.197 19 36 11
0.261724 -0.221101 1.197 19 36 11
0.263583 -0.221101 1.197 17 34 9
0.265442 -0.221101 1.197 17 34 9
0.267301 -0.221101 1.197 18 35 10
0.26916 -0.221101 1.197 17 34 9
0.271019 -0.221101 1.197 17 33 11
0.27265 -0.220917 1.196 18 34 12
0.274277 -0.220732 1.195 19 35 13
0.276133 -0.220732 1.195 18 34 12
0.277524 -0.220362 1.193 20 35 15
0.279143 -0.220178 1.192 18 33 13
0.280994 -0.220178 1.192 19 34 14
0.28237 -0.219808 1.19 18 33 13
0.284219 -0.219808 1.19 18 33 13
0.286067 -0.219808 1.19 17 32 12
0.287915 -0.219808 1.19 17 32 12
0.289519 -0.219624 1.189 17 32 12
0.291366 -0.219624 1.189 18 33 13
0.293459 -0.219808 1.19 19 34 14
0.295307 -0.219808 1.19 18 33 13
0.297155 -0.219808 1.19 19 34 14
0.299003 -0.219808 1.19 19 34 14
0.301104 -0.219993 1.191 19 34 14
0.303208 -0.220178 1.192 18 33 13
0.30506 -0.220178 1.192 19 34 14
0.306911 -0.220178 1.192 18 33 13
0.311134 -0.220547 1.194 20 35 15
0.312989 -0.220547 1.194 19 34 14
0.314843 -0.220547 1.194 18 35 15
0.316697 -0.220547 1.194 17 34 14
0.318552 -0.220547 1.194 17 34 14
0.320674 -0.220732 1.195 17 34 14
0.32253 -0.220732 1.195 18 35 15
0.324115 -0.220547 1.194 18 35 15
0.325969 -0.220547 1.194 18 35 15
0.327823 -0.220547 1.194 18 35 15
0.329401 -0.220362 1.193 18 35 15
0.331254 -0.220362 1.193 18 35 15
0.333107 -0.220362 1.193 20 37 17
0.33496 -0.220362 1.193 20 37 17
0.336813 -0.220362 1.193 18 35 15
0.338665 -0.220362 1.193 21 38 18
0.340233 -0.220178 1.192 23 40 20
0.342084 -0.220178 1.192 22 39 19
0.343935 -0.220178 1.192 21 38 18
0.345496 -0.219993 1.191 21 38 18
0.347054 -0.219808 1.19 22 39 19
0.348902 -0.219808 1.19 20 37 17
0.350456 -0.219624 1.189 21 38 18
0.35171 -0.219254 1.187 20 37 17
0.353255 -0.219069 1.186 18 34 17
0.354798 -0.218885 1.185 20 36 19
0.355735 -0.218331 1.182 21 37 20
0.357268 -0.218146 1.181 20 36 19
0.358798 -0.217961 1.18 18 34 19
0.36002 -0.217592 1.178 13 29 14
0.361235 -0.217222 1.176 13 26 18
0.362753 -0.217038 1.175 45 58 50
0.363957 -0.216668 1.173 13 23 18
0.365155 -0.216299 1.171 11 21 16
0.366033 -0.215745 1.168 18 28 23
0.365328 -0.214267 1.16 10 20 15
0.36523 -0.213159 1.154 17 26 25
0.365432 -0.212235 1.149 81 90 89
0.365619 -0.211312 1.144 88 98 100
0.36579 -0.210388 1.139 86 96 98
0.365945 -0.209464 1.134 89 99 101
0.366733 -0.20891 1.131 88 98 100
-0.144304 -0.188653 1.03 235 231 224
-0.142705 -0.188653 1.03 234 230 223
-0.141105 -0.188653 1.03 237 233 226
-0.139505 -0.188653 1.03 238 234 227
-0.13804 -0.188836 1.031 235 231 224
-0.136438 -0.188836 1.031 236 232 225
-0.134968 -0.189019 1.032 237 233 226
-0.133495 -0.189202 1.033 237 233 226
-0.132018 -0.189385 1.034 237 233 226
-0.130412 -0.189385 1.034 237 233 226
-0.128931 -0.189569 1.035 236 232 225
-0.127446 -0.189752 1.036 235 231 224
-0.125838 -0.189752 1.036 235 231 224
-0.124229 -0.189752 1.036 235 231 224
-0.12262 -0.189752 1.036 235 231 224
-0.121011 -0.189752 1.036 235 231 224
-0.119517 -0.189935 1.037 235 231 224
-0.117907 -0.189935 1.037 236 232 225
-0.116296 -0.189935 1.037 236 232 225
-0.114686 -0.189935 1.037 236 232 225
-0.113184 -0.190118 1.038 235 231 224
-0.111572 -0.190118 1.038 235 231 224
-0.110066 -0.190301 1.039 235 231 224
-0.108557 -0.190484 1.04 235 231 224
-0.107044 -0.190667 1.041 230 229 221
-0.105428 -0.190667 1.041 234 233 225
-0.103911 -0.190851 1.042 236 235 227
-0.102391 -0.191034 1.043 227 226 218
-0.100867 -0.191217 1.044 226 227 219
-0.0994361 -0.191583 1.046 226 227 219
-0.0979052 -0.191766 1.047 224 225 217
-0.0963711 -0.19195 1.048 225 226 218
-0.0947435 -0.19195 1.048 227 228 220
-0.0932048 -0.192133 1.049 226 227 219
-0.091663 -0.192316 1.05 227 228 220
-0.090118 -0.192499 1.051 228 229 221
-0.0884858 -0.192499 1.051 227 228 220
-0.0868536 -0.192499 1.051 227 228 220
-0.0852213 -0.192499 1.051 227 227 221
-0.0836686 -0.192682 1.052 226 226 220
-0.0821128 -0.192865 1.053 225 227 221
-0.0804775 -0.192865 1.053 225 227 221
-0.078917 -0.193049 1.054 228 230 224
-0.0773534 -0.193232 1.055 231 233 227
-0.0757867 -0.193415 1.056 208 209 206
-0.0725754 -0.193598 1.057 205 209 208
-0.0694234 -0.193964 1.059 246 251 247
-0.0678427 -0.194147 1.06 230 235 231
-0.0661965 -0.194147 1.06 228 233 229
-0.0646112 -0.194331 1.061 233 238 234
-0.0629634 -0.194331 1.061 234 239 235
-0.0613156 -0.194331 1.061 236 241 237
-0.0596679 -0.194331 1.061 237 243 236
-0.0580201 -0.194331 1.061 236 242 235
-0.0563723 -0.194331 1.061 240 242 236
-0.0547246 -0.194331 1.061 243 245 239
-0.0530768 -0.194331 1.061 243 245 239
-0.051429 -0.194331 1.061 244 246 240
-0.0497813 -0.194331 1.061 243 245 239
-0.0480881 -0.194147 1.06 243 245 239
-0.0464419 -0.194147 1.06 251 251 245
-0.0447957 -0.194147 1.06 247 247 241
-0.0431495 -0.194147 1.06 248 248 242
-0.0414641 -0.193964 1.059 247 247 241
-0.039857 -0.194147 1.06 249 247 241
-0.0382108 -0.194147 1.06 249 247 241
-0.0365646 -0.194147 1.06 251 249 243
-0.0349184 -0.194147 1.06 250 248 242
-0.0332722 -0.194147 1.06 253 251 245
-0.0316558 -0.194331 1.061 250 248 242
-0.030008 -0.194331 1.061 250 248 242
-0.028387 -0.194514 1.062 251 249 243
-0.025112 -0.194697 1.063 249 245 238
-0.0234832 -0.19488 1.064 252 248 241
-0.0218512 -0.195063 1.065 252 248 241
-0.0202162 -0.195246 1.066 252 248 241
-0.0185781 -0.19543 1.067 252 248 241
-0.0169527 -0.195796 1.069 252 248 241
-0.0153069 -0.195979 1.07 251 247 240
-0.0136706 -0.196345 1.072 253 249 242
-0.012017 -0.196529 1.073 255 251 244
-0.0103698 -0.196895 1.075 253 249 242
-0.00870843 -0.197078 1.076 252 248 241
-0.00705044 -0.197444 1.078 253 249 242
-0.00538625 -0.197811 1.08 253 249 242
-0.00371584 -0.198177 1.082 252 248 241
-0.00203922 -0.198543 1.084 253 249 242
-0.000356384 -0.19891 1.086 252 248 241
0.00133266 -0.199276 1.088 252 248 241
0.00302514 -0.199459 1.089 251 247 240
0.00472506 -0.199825 1.091 251 247 240
0.00641942 -0.199825 1.091 251 247 240
0.00812121 -0.200009 1.092 251 247 240
0.00981713 -0.200009 1.092 251 247 240
0.0115236 -0.200192 1.093 250 246 239
0.0132331 -0.200375 1.094 250 246 239
0.0149322 -0.200375 1.094 251 247 240
0.0166464 -0.200558 1.095 251 247 240
0.018347 -0.200558 1.095 251 247 240
0.0200475 -0.200558 1.095 255 255 249
0.0217481 -0.200558 1.095 255 254 247
0.0234701 -0.200741 1.096 226 221 216
0.0251952 -0.200924 1.097 213 208 203
0.0269234 -0.201107 1.098 219 217 211
0.0286547 -0.201291 1.099 227 225 219
0.0320974 -0.201474 1.1 255 254 248
0.0339902 -0.202573 1.106 227 227 221
0.0359015 -0.203672 1.112 142 142 136
0.0381022 -0.206236 1.126 52 59 39
0.0423016 -0.209716 1.145 34 48 17
0.0445033 -0.211731 1.156 41 55 24
0.0486348 -0.214112 1.169 34 55 23
0.0507955 -0.215577 1.177 34 55 23
0.0527576 -0.216126 1.18 35 56 24
0.054914 -0.217409 1.187 31 52 20
0.0567575 -0.217409 1.187 32 53 21
0.0586009 -0.217409 1.187 31 52 20
0.0604953 -0.217592 1.188 30 51 19
0.0623403 -0.217592 1.188 30 51 19
0.0642393 -0.217775 1.189 30 51 19
0.0660303 -0.217592 1.188 30 51 19
0.0678753 -0.217592 1.188 30 51 19
0.0697203 -0.217592 1.188 31 52 20
0.0715653 -0.217592 1.188 32 53 21
0.0734103 -0.217592 1.188 31 52 20
0.075192 -0.217409 1.187 32 53 21
0.0770354 -0.217409 1.187 32 53 21
0.0788124 -0.217225 1.186 31 52 20
0.0805863 -0.217042 1.185 31 52 20
0.0824267 -0.217042 1.185 31 52 20
0.084267 -0.217042 1.185 32 53 21
0.0860347 -0.216859 1.184 34 55 23
0.0877993 -0.216676 1.183 32 54 20
0.0895607 -0.216493 1.182 32 54 20
0.0913964 -0.216493 1.182 29 51 17
0.0932321 -0.216493 1.182 30 52 18
0.0950678 -0.216493 1.182 30 52 18
0.0969035 -0.216493 1.182 31 53 19
0.0987392 -0.216493 1.182 31 53 19
0.100575 -0.216493 1.182 31 53 19
0.102497 -0.216676 1.183 29 51 17
0.104423 -0.216859 1.184 30 52 18
0.106351 -0.217042 1.185 31 53 19
0.108192 -0.217042 1.185 31 53 19
0.110032 -0.217042 1.185 30 52 18
0.112061 -0.217409 1.187 30 52 18
0.113904 -0.217409 1.187 31 53 19
0.115943 -0.217775 1.189 31 53 19
0.117889 -0.217958 1.19 30 52 18
0.119737 -0.217958 1.19 30 52 18
0.121789 -0.218324 1.192 31 53 19
0.123744 -0.218507 1.193 31 53 19
0.125702 -0.218691 1.194 31 53 19
0.127663 -0.218874 1.195 31 53 19
0.129519 -0.218874 1.195 32 54 20
0.131485 -0.219057 1.196 30 52 18
0.133454 -0.21924 1.197 31 53 19
0.135313 -0.21924 1.197 30 52 18
0.137286 -0.219423 1.198 31 53 19
0.139263 -0.219606 1.199 31 53 19
0.141243 -0.21979 1.2 31 53 19
0.142987 -0.219606 1.199 32 54 20
0.144849 -0.219606 1.199 30 52 18
0.146467 -0.21924 1.197 31 53 19
0.148202 -0.219057 1.196 30 52 18
0.149808 -0.218691 1.194 32 54 20
0.151409 -0.218324 1.192 32 54 20
0.152874 -0.217775 1.189 32 54 20
0.15446 -0.217409 1.187 32 54 20
0.15604 -0.217042 1.185 32 54 20
0.157614 -0.216676 1.183 34 56 22
0.159182 -0.21631 1.181 35 57 23
0.161016 -0.21631 1.181 35 57 23
0.16285 -0.21631 1.181 36 58 24
0.164545 -0.216126 1.18 36 58 24
0.166378 -0.216126 1.18 36 58 24
0.170187 -0.21631 1.181 37 59 25
0.172167 -0.216493 1.182 37 59 25
0.174002 -0.216493 1.182 36 58 24
0.175987 -0.216676 1.183 36 58 24
0.177974 -0.216859 1.184 36 58 24
0.179965 -0.217042 1.185 35 57 23
0.181805 -0.217042 1.185 35 57 23
0.183646 -0.217042 1.185 37 59 25
0.185799 -0.217409 1.187 41 63 29
0.187643 -0.217409 1.187 32 54 20
0.189486 -0.217409 1.187 34 56 22
0.191329 -0.217409 1.187 35 57 23
0.193336 -0.217592 1.188 35 57 23
0.195181 -0.217592 1.188 34 56 22
0.197191 -0.217775 1.189 36 58 24
0.199205 -0.217958 1.19 35 57 23
0.201054 -0.217958 1.19 35 57 23
0.202902 -0.217958 1.19 35 57 23
0.204922 -0.218141 1.191 32 54 20
0.206771 -0.218141 1.191 34 56 22
0.208796 -0.218324 1.192 34 56 22
0.210648 -0.218324 1.192 37 59 25
0.212499 -0.218324 1.192 34 56 22
0.21435 -0.218324 1.192 32 54 20
0.216201 -0.218324 1.192 34 56 22
0.218052 -0.218324 1.192 34 56 22
0.219904 -0.218324 1.192 32 54 20
0.221941 -0.218507 1.193 32 54 20
0.223794 -0.218507 1.193 34 56 22
0.225646 -0.218507 1.193 31 53 19
0.227308 -0.218324 1.192 29 51 17
0.22916 -0.218324 1.192 31 51 17
0.231011 -0.218324 1.192 32 52 18
0.232667 -0.218141 1.191 32 52 18
0.234516 -0.218141 1.191 27 47 13
0.236168 -0.217958 1.19 31 51 17
0.238016 -0.217958 1.19 24 44 10
0.239864 -0.217958 1.19 26 45 13
0.241712 -0.217958 1.19 29 48 16
0.24356 -0.217958 1.19 29 47 18
0.245614 -0.218141 1.191 33 51 22
0.247672 -0.218324 1.192 23 41 14
0.249523 -0.218324 1.192 16 34 7
0.251585 -0.218507 1.193 19 37 10
0.253863 -0.218874 1.195 17 35 8
0.255719 -0.218874 1.195 18 35 10
0.257575 -0.218874 1.195 17 34 9
0.259648 -0.219057 1.196 18 35 10
0.261724 -0.21924 1.197 19 36 11
0.263583 -0.21924 1.197 16 33 8
0.265442 -0.21924 1.197 15 32 7
0.267301 -0.21924 1.197 16 33 8
0.26916 -0.21924 1.197 16 33 8
0.270792 -0.219057 1.196 17 33 11
0.272422 -0.218874 1.195 18 34 12
0.274277 -0.218874 1.195 18 34 12
0.275902 -0.218691 1.194 18 34 12
0.277524 -0.218507 1.193 18 33 13
0.279143 -0.218324 1.192 17 32 12
0.280522 -0.217958 1.19 17 32 12
0.28237 -0.217958 1.19 18 33 13
0.284219 -0.217958 1.19 18 33 13
0.286067 -0.217958 1.19 18 33 13
0.287673 -0.217775 1.189 18 33 13
0.289519 -0.217775 1.189 17 32 12
0.291366 -0.217775 1.189 18 33 13
0.293212 -0.217775 1.189 19 34 14
0.295307 -0.217958 1.19 18 33 13
0.297155 -0.217958 1.19 18 33 13
0.299003 -0.217958 1.19 18 33 13
0.300852 -0.217958 1.19 18 33 13
0.302954 -0.218141 1.191 18 33 13
0.304804 -0.218141 1.191 19 34 14
0.306911 -0.218324 1.192 18 34 12
0.308762 -0.218324 1.192 19 35 13
0.310613 -0.218324 1.192 19 35 13
0.312464 -0.218324 1.192 18 34 12
0.314316 -0.218324 1.192 19 35 13
0.316167 -0.218324 1.192 20 36 14
0.318018 -0.218324 1.192 19 35 13
0.319869 -0.218324 1.192 20 36 14
0.321721 -0.218324 1.192 17 35 13
0.323572 -0.218324 1.192 17 35 13
0.325423 -0.218324 1.192 17 35 13
0.327274 -0.218324 1.192 18 36 14
0.329125 -0.218324 1.192 18 36 14
0.330977 -0.218324 1.192 18 36 14
0.332828 -0.218324 1.192 18 36 14
0.334679 -0.218324 1.192 18 36 14
0.33653 -0.218324 1.192 20 38 16
0.338381 -0.218324 1.192 22 40 18
0.340233 -0.218324 1.192 22 40 18
0.342084 -0.218324 1.192 20 38 16
0.343647 -0.218141 1.191 21 39 17
0.345496 -0.218141 1.191 20 38 16
0.347054 -0.217958 1.19 21 39 17
0.348902 -0.217958 1.19 20 38 16
0.350161 -0.217592 1.188 20 37 17
0.35171 -0.217409 1.187 20 37 17
0.353255 -0.217225 1.186 18 35 15
0.354798 -0.217042 1.185 20 37 17
0.356036 -0.216676 1.183 18 34 17
0.357268 -0.21631 1.181 18 34 17
0.358798 -0.216126 1.18 18 34 19
0.36002 -0.21576 1.178 13 29 14
0.361235 -0.215394 1.176 16 29 21
0.362753 -0.215211 1.175 45 58 50
0.363957 -0.214844 1.173 9 21 16
0.365155 -0.214478 1.171 8 20 15
0.366033 -0.213929 1.168 15 27 22
0.365643 -0.212646 1.161 8 20 15
0.365547 -0.211547 1.155 17 26 25
0.365432 -0.210449 1.149 81 90 89
0.365619 -0.209533 1.144 88 98 100
0.36579 -0.208617 1.139 87 97 99
0.366268 -0.207884 1.135 88 98 100
0.366733 -0.207152 1.131 91 101 103
-0.144304 -0.187051 1.03 237 233 226
-0.142705 -0.187051 1.03 237 233 226
-0.141242 -0.187233 1.031 238 234 227
-0.139641 -0.187233 1.031 237 233 226
-0.138174 -0.187414 1.032 235 231 224
-0.136571 -0.187414 1.032 237 233 226
-0.134968 -0.187414 1.032 237 233 226
-0.133495 -0.187596 1.033 237 233 226
-0.132018 -0.187778 1.034 237 233 226
-0.130538 -0.187959 1.035 237 233 226
-0.128931 -0.187959 1.035 237 233 226
-0.127446 -0.188141 1.036 237 233 226
-0.125716 -0.187959 1.035 236 232 225
-0.124229 -0.188141 1.036 236 232 225
-0.12262 -0.188141 1.036 236 232 225
-0.121011 -0.188141 1.036 235 231 224
-0.119402 -0.188141 1.036 235 231 224
-0.117793 -0.188141 1.036 236 232 225
-0.116184 -0.188141 1.036 235 231 224
-0.114686 -0.188322 1.037 236 232 225
-0.113075 -0.188322 1.037 236 232 225
-0.111572 -0.188504 1.038 235 231 224
-0.10996 -0.188504 1.038 236 232 225
-0.108452 -0.188686 1.039 235 231 224
-0.106942 -0.188867 1.04 232 228 221
-0.105428 -0.189049 1.041 235 231 224
-0.103911 -0.18923 1.042 236 235 227
-0.102391 -0.189412 1.043 228 227 219
-0.100867 -0.189594 1.044 226 227 219
-0.0993411 -0.189775 1.045 226 227 219
-0.0978117 -0.189957 1.046 224 225 217
-0.0962792 -0.190138 1.047 226 227 219
-0.0947435 -0.19032 1.048 227 228 220
-0.0932048 -0.190502 1.049 227 228 220
-0.091663 -0.190683 1.05 228 229 221
-0.090118 -0.190865 1.051 227 228 220
-0.0884858 -0.190865 1.051 226 227 219
-0.0868536 -0.190865 1.051 227 228 220
-0.0853024 -0.191046 1.052 228 230 224
-0.0836686 -0.191046 1.052 226 228 222
-0.0821128 -0.191228 1.053 226 228 222
-0.0804775 -0.191228 1.053 228 230 224
-0.078917 -0.19141 1.054 231 232 229
-0.0773534 -0.191591 1.055 223 224 221
-0.0757867 -0.191773 1.056 201 203 197
-0.0725754 -0.191954 1.057 249 254 250
-0.0710009 -0.192136 1.058 247 252 248
-0.0694234 -0.192318 1.059 237 243 236
-0.0678427 -0.192499 1.06 228 234 227
-0.0661965 -0.192499 1.06 228 234 227
-0.0646112 -0.192681 1.061 234 240 233
-0.0629634 -0.192681 1.061 234 240 233
-0.0613734 -0.192862 1.062 237 243 236
-0.0597241 -0.192862 1.062 239 245 238
-0.0580748 -0.192862 1.062 236 242 235
-0.0564255 -0.192862 1.062 239 245 238
-0.0547761 -0.192862 1.062 239 245 238
-0.0531268 -0.192862 1.062 244 246 240
-0.051429 -0.192681 1.061 243 245 239
-0.0497813 -0.192681 1.061 244 247 239
-0.0481335 -0.192681 1.061 245 248 240
-0.0464857 -0.192681 1.061 254 255 247
-0.0447957 -0.192499 1.06 251 252 244
-0.0431495 -0.192499 1.06 247 248 240
-0.0415033 -0.192499 1.06 248 249 241
-0.039857 -0.192499 1.06 249 250 242
-0.0382108 -0.192499 1.06 249 250 242
-0.0365991 -0.192681 1.061 248 249 241
-0.0349513 -0.192681 1.061 248 249 241
-0.0333036 -0.192681 1.061 254 253 245
-0.0316856 -0.192862 1.062 250 249 241
-0.0300363 -0.192862 1.062 250 249 241
-0.026788 -0.193226 1.064 250 249 241
-0.0251356 -0.193226 1.064 250 249 241
-0.0235052 -0.193407 1.065 252 248 241
-0.0218718 -0.193589 1.066 252 248 241
-0.0202352 -0.193771 1.067 251 247 240
-0.0185955 -0.193952 1.068 252 248 241
-0.0169527 -0.194134 1.069 253 249 242
-0.0153069 -0.194315 1.07 252 248 241
-0.0136706 -0.194679 1.072 253 249 242
-0.012017 -0.19486 1.073 253 249 242
-0.0103698 -0.195223 1.075 252 248 241
-0.00870843 -0.195405 1.076 252 248 241
-0.0070439 -0.195587 1.077 253 249 242
-0.00538126 -0.19595 1.079 252 248 241
-0.00371584 -0.196495 1.082 252 248 241
-0.00203734 -0.196676 1.083 252 248 241
-0.000356056 -0.197039 1.085 252 248 241
0.00133021 -0.197221 1.086 252 248 241
0.00302236 -0.197584 1.088 252 248 241
0.00471639 -0.197766 1.089 252 248 241
0.00641353 -0.197947 1.09 252 248 241
0.00811378 -0.198129 1.091 252 248 241
0.00980814 -0.198129 1.091 252 248 241
0.011513 -0.198311 1.092 251 247 240
0.013209 -0.198311 1.092 250 246 239
0.0149185 -0.198492 1.093 250 246 239
0.0166312 -0.198674 1.094 250 246 239
0.0183302 -0.198674 1.094 251 247 240
0.0200475 -0.198855 1.095 255 252 245
0.0217481 -0.198855 1.095 255 255 249
0.0234701 -0.199037 1.096 255 251 246
0.0251952 -0.199219 1.097 223 218 213
0.0268989 -0.199219 1.097 228 223 218
0.0286547 -0.199582 1.099 202 197 192
0.0320974 -0.199763 1.1 255 255 248
0.0340209 -0.201035 1.107 253 253 247
0.0359338 -0.202124 1.113 199 199 193
0.0380684 -0.204303 1.125 67 73 55
0.0421539 -0.207209 1.141 33 46 18
0.0445033 -0.209933 1.156 36 49 21
0.046619 -0.211386 1.164 34 53 21
0.0505798 -0.212839 1.172 35 56 24
0.0527576 -0.214292 1.18 34 55 23
0.0548678 -0.215381 1.186 31 52 20
0.0567575 -0.215563 1.187 34 55 23
0.0586009 -0.215563 1.187 34 55 23
0.0604444 -0.215563 1.187 30 51 19
0.0622878 -0.215563 1.187 30 51 19
0.0641853 -0.215744 1.188 31 52 20
0.0660303 -0.215744 1.188 31 52 20
0.0678753 -0.215744 1.188 31 52 20
0.0697203 -0.215744 1.188 30 51 19
0.0715653 -0.215744 1.188 31 52 20
0.0734103 -0.215744 1.188 30 51 19
0.0752553 -0.215744 1.188 34 55 23
0.0771003 -0.215744 1.188 32 53 21
0.0788789 -0.215563 1.187 31 52 20
0.0807223 -0.215563 1.187 31 52 20
0.0825658 -0.215563 1.187 31 52 20
0.0843381 -0.215381 1.186 30 52 18
0.0861074 -0.2152 1.185 31 53 19
0.0879477 -0.2152 1.185 31 53 19
0.0897881 -0.2152 1.185 31 53 19
0.0915511 -0.215018 1.184 29 51 17
0.0933899 -0.215018 1.184 30 52 18
0.0951482 -0.214836 1.183 29 51 17
0.0970675 -0.215018 1.184 31 53 19
0.0988227 -0.214836 1.183 32 54 20
0.10066 -0.214836 1.183 31 53 19
0.102497 -0.214836 1.183 29 51 17
0.104423 -0.215018 1.184 30 52 18
0.106351 -0.2152 1.185 31 53 19
0.108192 -0.2152 1.185 31 53 19
0.110125 -0.215381 1.186 32 54 20
0.112061 -0.215563 1.187 31 53 19
0.113904 -0.215563 1.187 31 53 19
0.115943 -0.215926 1.189 32 54 20
0.117889 -0.216108 1.19 31 53 19
0.119737 -0.216108 1.19 31 53 19
0.121789 -0.216471 1.192 31 53 19
0.123744 -0.216653 1.193 32 54 20
0.125807 -0.217016 1.195 34 56 22
0.127663 -0.217016 1.195 31 53 19
0.129628 -0.217197 1.196 31 53 19
0.131595 -0.217379 1.197 31 53 19
0.133454 -0.217379 1.197 31 53 19
0.135426 -0.217561 1.198 31 53 19
0.137286 -0.217561 1.198 30 52 18
0.139263 -0.217742 1.199 31 53 19
0.141243 -0.217924 1.2 30 52 18
0.143107 -0.217924 1.2 31 53 19
0.14497 -0.217924 1.2 30 52 18
0.146589 -0.217561 1.198 32 54 20
0.148326 -0.217379 1.197 30 52 18
0.149934 -0.217016 1.195 32 54 20
0.151409 -0.216471 1.192 32 54 20
0.153003 -0.216108 1.19 32 54 20
0.15446 -0.215563 1.187 32 54 20
0.15604 -0.2152 1.185 32 54 20
0.157614 -0.214836 1.183 32 54 20
0.159317 -0.214655 1.182 35 57 23
0.161016 -0.214473 1.181 36 58 24
0.162712 -0.214292 1.18 36 58 24
0.164545 -0.214292 1.18 36 58 24
0.166378 -0.214292 1.18 36 58 24
0.16821 -0.214292 1.18 37 59 25
0.172167 -0.214655 1.182 36 58 24
0.174002 -0.214655 1.182 35 57 23
0.175987 -0.214836 1.183 34 56 22
0.177974 -0.215018 1.184 35 57 23
0.179813 -0.215018 1.184 34 56 22
0.181805 -0.2152 1.185 34 56 22
0.183801 -0.215381 1.186 35 57 23
0.185799 -0.215563 1.187 35 57 23
0.187643 -0.215563 1.187 32 54 20
0.189486 -0.215563 1.187 35 57 23
0.191329 -0.215563 1.187 36 58 24
0.193173 -0.215563 1.187 35 57 23
0.195016 -0.215563 1.187 35 57 23
0.19686 -0.215563 1.187 36 58 24
0.198871 -0.215744 1.188 36 58 24
0.200716 -0.215744 1.188 36 58 24
0.202731 -0.215926 1.189 35 57 23
0.20475 -0.216108 1.19 34 56 22
0.206598 -0.216108 1.19 32 54 20
0.208446 -0.216108 1.19 34 56 22
0.210471 -0.216289 1.191 37 59 25
0.21232 -0.216289 1.191 35 57 23
0.21417 -0.216289 1.191 34 56 22
0.216201 -0.216471 1.192 34 56 22
0.218052 -0.216471 1.192 34 56 22
0.219904 -0.216471 1.192 32 54 20
0.221755 -0.216471 1.192 32 54 20
0.223606 -0.216471 1.192 34 56 22
0.225457 -0.216471 1.192 30 52 18
0.227308 -0.216471 1.192 28 50 16
0.22916 -0.216471 1.192 28 50 16
0.230817 -0.216289 1.191 30 52 18
0.232667 -0.216289 1.191 31 51 17
0.234516 -0.216289 1.191 30 50 16
0.236168 -0.216108 1.19 31 51 17
0.238016 -0.216108 1.19 26 46 12
0.239864 -0.216108 1.19 26 45 13
0.241712 -0.216108 1.19 27 46 14
0.24356 -0.216108 1.19 26 44 15
0.245408 -0.216108 1.19 27 45 16
0.247464 -0.216289 1.191 17 35 8
0.249523 -0.216471 1.192 20 38 11
0.251374 -0.216471 1.192 20 37 12
0.253438 -0.216653 1.193 17 34 9
0.255505 -0.216834 1.194 17 34 9
0.257359 -0.216834 1.194 17 34 9
0.259213 -0.216834 1.194 17 34 9
0.261286 -0.217016 1.195 17 34 9
0.263142 -0.217016 1.195 15 32 7
0.264998 -0.217016 1.195 17 34 9
0.266854 -0.217016 1.195 19 36 11
0.26871 -0.217016 1.195 17 34 9
0.270566 -0.217016 1.195 17 33 11
0.272422 -0.217016 1.195 18 34 12
0.274277 -0.217016 1.195 18 34 12
0.275902 -0.216834 1.194 18 34 12
0.277524 -0.216653 1.193 17 32 12
0.279143 -0.216471 1.192 17 32 12
0.280994 -0.216471 1.192 16 31 11
0.28237 -0.216108 1.19 17 32 12
0.284219 -0.216108 1.19 18 33 13
0.286067 -0.216108 1.19 18 33 13
0.287915 -0.216108 1.19 20 35 15
0.289519 -0.215926 1.189 18 33 13
0.291366 -0.215926 1.189 18 33 13
0.293459 -0.216108 1.19 18 33 13
0.295307 -0.216108 1.19 17 32 12
0.297155 -0.216108 1.19 17 32 12
0.299003 -0.216108 1.19 17 32 12
0.300852 -0.216108 1.19 18 33 13
0.3027 -0.216108 1.19 19 34 14
0.304804 -0.216289 1.191 18 33 13
0.306653 -0.216289 1.191 19 34 14
0.308503 -0.216289 1.191 19 34 14
0.310353 -0.216289 1.191 18 33 13
0.312202 -0.216289 1.191 18 33 13
0.313788 -0.216108 1.19 18 33 13
0.315636 -0.216108 1.19 19 34 14
0.317484 -0.216108 1.19 17 34 14
0.319333 -0.216108 1.19 17 34 14
0.321181 -0.216108 1.19 16 33 13
0.323029 -0.216108 1.19 15 32 12
0.324877 -0.216108 1.19 15 32 12
0.326725 -0.216108 1.19 17 34 14
0.328573 -0.216108 1.19 18 35 15
0.330421 -0.216108 1.19 20 37 17
0.332269 -0.216108 1.19 21 38 18
0.334117 -0.216108 1.19 18 35 15
0.336248 -0.216289 1.191 20 37 17
0.338098 -0.216289 1.191 22 39 19
0.339947 -0.216289 1.191 20 37 17
0.34151 -0.216108 1.19 20 37 17
0.343358 -0.216108 1.19 22 39 19
0.345496 -0.216289 1.191 22 39 19
0.347054 -0.216108 1.19 22 39 19
0.348902 -0.216108 1.19 20 37 17
0.350456 -0.215926 1.189 18 35 15
0.35171 -0.215563 1.187 20 37 17
0.353255 -0.215381 1.186 17 34 14
0.354498 -0.215018 1.184 17 34 14
0.356036 -0.214836 1.183 15 31 14
0.357268 -0.214473 1.181 17 33 16
0.358798 -0.214292 1.18 18 34 19
0.36002 -0.213928 1.178 13 29 14
0.361542 -0.213747 1.177 21 34 26
0.362753 -0.213384 1.175 45 58 50
0.364267 -0.213202 1.174 8 20 15
0.365467 -0.212839 1.172 8 20 15
0.366033 -0.212112 1.168 14 26 21
0.365643 -0.210841 1.161 8 20 15
0.365547 -0.209752 1.155 18 27 26
0.365432 -0.208662 1.149 81 90 89
0.366111 -0.207028 1.14 87 97 99
0.366268 -0.20612 1.135 88 98 100
0.367058 -0.205575 1.132 89 99 101
-0.144444 -0.18563 1.031 238 234 227
-0.142843 -0.18563 1.031 237 233 226
-0.141242 -0.18563 1.031 237 233 226
-0.139641 -0.18563 1.031 236 232 225
-0.138174 -0.18581 1.032 237 233 226
-0.136571 -0.18581 1.032 238 234 227
-0.135099 -0.18599 1.033 237 233 226
-0.133624 -0.18617 1.034 237 233 226
-0.132018 -0.18617 1.034 238 234 227
-0.130538 -0.18635 1.035 238 234 227
-0.128931 -0.18635 1.035 238 234 227
-0.127323 -0.18635 1.035 237 233 226
-0.125838 -0.18653 1.036 237 233 226
-0.124109 -0.18635 1.035 238 234 227
-0.122501 -0.18635 1.035 237 233 226
-0.121011 -0.18653 1.036 235 231 224
-0.119402 -0.18653 1.036 236 232 225
-0.117793 -0.18653 1.036 236 232 225
-0.116184 -0.18653 1.036 237 233 226
-0.114575 -0.18653 1.036 237 233 226
-0.112966 -0.18653 1.036 236 232 225
-0.111465 -0.18671 1.037 235 231 224
-0.109854 -0.18671 1.037 236 232 225
-0.108348 -0.18689 1.038 235 231 224
-0.106942 -0.18725 1.04 230 229 221
-0.105428 -0.18743 1.041 232 231 223
-0.103811 -0.18743 1.041 227 228 220
-0.102292 -0.18761 1.042 226 227 219
-0.100771 -0.18779 1.043 226 227 219
-0.099246 -0.18797 1.044 227 228 220
-0.0978117 -0.18833 1.046 226 227 219
-0.0962792 -0.18851 1.047 227 228 220
-0.0947435 -0.188691 1.048 227 228 220
-0.0932048 -0.188871 1.049 227 228 220
-0.0917503 -0.189231 1.051 228 229 221
-0.090118 -0.189231 1.051 226 227 219
-0.0884858 -0.189231 1.051 226 227 219
-0.0869362 -0.189411 1.052 226 227 219
-0.0853024 -0.189411 1.052 226 228 222
-0.0836686 -0.189411 1.052 230 232 226
-0.0821128 -0.189591 1.053 228 230 224
-0.0805539 -0.189771 1.054 230 232 226
-0.078917 -0.189771 1.054 230 232 226
-0.0773534 -0.189951 1.055 204 206 200
-0.0757867 -0.190131 1.056 203 205 199
-0.0725754 -0.190311 1.057 253 255 249
-0.0710009 -0.190491 1.058 247 249 243
-0.0694234 -0.190671 1.059 236 242 235
-0.0678427 -0.190851 1.06 232 238 231
-0.0662589 -0.191031 1.061 233 239 232
-0.0646112 -0.191031 1.061 240 246 239
-0.0630228 -0.191211 1.062 237 243 236
-0.0613734 -0.191211 1.062 239 245 238
-0.0597241 -0.191211 1.062 242 244 238
-0.0580748 -0.191211 1.062 240 242 236
-0.0564255 -0.191211 1.062 243 245 239
-0.0547761 -0.191211 1.062 240 242 236
-0.0531268 -0.191211 1.062 242 244 238
-0.0514775 -0.191211 1.062 242 244 238
-0.0498282 -0.191211 1.062 247 247 241
-0.0481789 -0.191211 1.062 245 245 239
-0.0464857 -0.191031 1.061 253 253 247
-0.0448379 -0.191031 1.061 252 252 246
-0.0431902 -0.191031 1.061 251 251 245
-0.0415424 -0.191031 1.061 251 251 245
-0.0398946 -0.191031 1.061 253 251 245
-0.0366336 -0.191211 1.062 251 249 243
-0.0349843 -0.191211 1.062 250 248 242
-0.033335 -0.191211 1.062 254 253 245
-0.0317155 -0.191391 1.063 251 250 242
-0.0300929 -0.191571 1.064 251 250 242
-0.0284404 -0.191571 1.064 254 253 245
-0.0268132 -0.191751 1.065 251 250 242
-0.0251828 -0.191931 1.066 253 252 244
-0.0235273 -0.191931 1.066 251 250 242
-0.0218923 -0.192111 1.067 250 249 241
-0.0202542 -0.192292 1.068 249 248 240
-0.0186129 -0.192472 1.069 249 248 240
-0.0169686 -0.192652 1.07 249 248 240
-0.0153212 -0.192832 1.071 249 248 240
-0.0136706 -0.193012 1.072 250 249 241
-0.012017 -0.193192 1.073 251 250 242
-0.0103698 -0.193552 1.075 251 250 242
-0.00870843 -0.193732 1.076 250 249 241
-0.0070439 -0.193912 1.077 251 250 242
-0.00538126 -0.194272 1.079 250 249 241
-0.00370897 -0.194452 1.08 251 250 242
-0.00203734 -0.194992 1.083 250 249 241
-0.000355727 -0.195172 1.084 251 250 242
0.00133021 -0.195532 1.086 253 252 244
0.00301958 -0.195712 1.087 250 249 241
0.00471639 -0.196073 1.089 250 249 241
0.00640765 -0.196073 1.089 251 250 242
0.00810634 -0.196253 1.09 253 252 244
0.00980814 -0.196433 1.091 251 250 242
0.011513 -0.196613 1.092 251 250 242
0.013209 -0.196613 1.092 249 248 240
0.0149185 -0.196793 1.093 249 248 240
0.016616 -0.196793 1.093 249 248 240
0.0183302 -0.196973 1.094 249 248 240
0.0200292 -0.196973 1.094 248 247 239
0.0217481 -0.197153 1.095 255 255 249
0.0234701 -0.197333 1.096 255 255 250
0.0251952 -0.197513 1.097 249 244 239
0.0269234 -0.197693 1.098 204 202 196
0.0286547 -0.197873 1.099 184 182 176
0.0320974 -0.198053 1.1 255 255 249
0.0340516 -0.199493 1.108 253 254 251
0.0359984 -0.200754 1.115 229 230 227
0.0380346 -0.202374 1.124 79 84 69
0.0420061 -0.204715 1.137 32 47 21
0.0443493 -0.207416 1.152 38 53 27
0.0464989 -0.209036 1.161 36 55 23
0.0504934 -0.210656 1.17 34 55 23
0.0527129 -0.212277 1.179 32 53 21
0.0548215 -0.213357 1.185 32 53 21
0.0567097 -0.213537 1.186 35 56 24
0.0585515 -0.213537 1.186 34 55 23
0.0603934 -0.213537 1.186 30 51 19
0.0622878 -0.213717 1.187 31 52 20
0.0641313 -0.213717 1.187 32 53 21
0.0660303 -0.213897 1.188 32 53 21
0.0678753 -0.213897 1.188 32 53 21
0.0697203 -0.213897 1.188 32 53 21
0.0716256 -0.214077 1.189 34 55 23
0.0734721 -0.214077 1.189 32 53 21
0.0753187 -0.214077 1.189 34 55 23
0.0771652 -0.214077 1.189 32 53 21
0.0790118 -0.214077 1.189 32 53 21
0.0807903 -0.213897 1.188 31 52 20
0.0826353 -0.213897 1.188 31 52 20
0.0844092 -0.213717 1.187 30 52 18
0.0862527 -0.213717 1.187 30 52 18
0.0880961 -0.213717 1.187 31 53 19
0.0898638 -0.213537 1.186 31 53 19
0.0916284 -0.213357 1.185 31 53 19
0.0934687 -0.213357 1.185 31 53 19
0.0953091 -0.213357 1.185 30 52 18
0.0971494 -0.213357 1.185 30 52 18
0.0989062 -0.213177 1.184 31 53 19
0.10083 -0.213357 1.185 30 52 18
0.10267 -0.213357 1.185 30 52 18
0.104511 -0.213357 1.185 31 53 19
0.106351 -0.213357 1.185 31 53 19
0.108192 -0.213357 1.185 32 54 20
0.110125 -0.213537 1.186 32 54 20
0.112061 -0.213717 1.187 31 53 19
0.113904 -0.213717 1.187 32 54 20
0.115943 -0.214077 1.189 32 54 20
0.117889 -0.214257 1.19 32 54 20
0.119737 -0.214257 1.19 31 53 19
0.121789 -0.214617 1.192 31 53 19
0.123744 -0.214798 1.193 34 56 22
0.125807 -0.215158 1.195 34 56 22
0.127663 -0.215158 1.195 31 53 19
0.129628 -0.215338 1.196 32 54 20
0.131595 -0.215518 1.197 35 57 23
0.133454 -0.215518 1.197 35 57 23
0.135426 -0.215698 1.198 35 57 23
0.137401 -0.215878 1.199 35 57 23
0.139379 -0.216058 1.2 34 56 22
0.141243 -0.216058 1.2 32 54 20
0.143107 -0.216058 1.2 31 53 19
0.14497 -0.216058 1.2 31 53 19
0.146589 -0.215698 1.198 32 54 20
0.148326 -0.215518 1.197 30 52 18
0.149934 -0.215158 1.195 32 54 20
0.151409 -0.214617 1.192 32 54 20
0.153131 -0.214437 1.191 32 54 20
0.154721 -0.214077 1.189 32 54 20
0.156172 -0.213537 1.186 32 54 20
0.157748 -0.213177 1.184 34 56 22
0.159317 -0.212817 1.182 35 57 23
0.161016 -0.212637 1.181 35 57 23
0.162712 -0.212457 1.18 36 58 24
0.164545 -0.212457 1.18 36 58 24
0.166378 -0.212457 1.18 36 58 24
0.170187 -0.212637 1.181 35 57 23
0.172167 -0.212817 1.182 35 57 23
0.174002 -0.212817 1.182 34 56 22
0.175838 -0.212817 1.182 34 56 22
0.177824 -0.212997 1.183 35 57 23
0.179813 -0.213177 1.184 34 56 22
0.181805 -0.213357 1.185 32 54 20
0.183646 -0.213357 1.185 34 56 22
0.185643 -0.213537 1.186 32 54 20
0.187484 -0.213537 1.186 34 56 22
0.189326 -0.213537 1.186 35 57 23
0.191007 -0.213357 1.185 36 58 24
0.19301 -0.213537 1.186 34 56 22
0.194852 -0.213537 1.186 35 57 23
0.19686 -0.213717 1.187 36 58 24
0.198703 -0.213717 1.187 36 58 24
0.200547 -0.213717 1.187 36 58 24
0.20239 -0.213717 1.187 36 58 24
0.204406 -0.213897 1.188 35 57 23
0.206251 -0.213897 1.188 34 56 22
0.208271 -0.214077 1.189 35 57 23
0.210294 -0.214257 1.19 35 57 23
0.212142 -0.214257 1.19 35 57 23
0.21399 -0.214257 1.19 35 57 23
0.215838 -0.214257 1.19 34 56 22
0.217687 -0.214257 1.19 34 56 22
0.219535 -0.214257 1.19 32 54 20
0.221383 -0.214257 1.19 32 54 20
0.223231 -0.214257 1.19 34 56 22
0.225268 -0.214437 1.191 31 53 19
0.227118 -0.214437 1.191 28 50 16
0.228967 -0.214437 1.191 29 51 17
0.230817 -0.214437 1.191 30 52 18
0.232471 -0.214257 1.19 29 51 17
0.23432 -0.214257 1.19 29 51 17
0.236168 -0.214257 1.19 28 49 17
0.238016 -0.214257 1.19 27 48 16
0.239662 -0.214077 1.189 24 45 13
0.241509 -0.214077 1.189 27 48 16
0.24356 -0.214257 1.19 26 44 15
0.245408 -0.214257 1.19 25 43 14
0.247256 -0.214257 1.19 23 41 14
0.249314 -0.214437 1.191 20 38 11
0.251163 -0.214437 1.191 20 37 12
0.253226 -0.214617 1.192 17 34 9
0.255077 -0.214617 1.192 17 34 9
0.256928 -0.214617 1.192 17 34 9
0.258996 -0.214798 1.193 17 34 9
0.261068 -0.214978 1.194 16 33 8
0.262922 -0.214978 1.194 17 34 9
0.264998 -0.215158 1.195 18 35 10
0.266854 -0.215158 1.195 18 34 12
0.26871 -0.215158 1.195 16 32 10
0.270566 -0.215158 1.195 18 34 12
0.272422 -0.215158 1.195 18 34 12
0.274277 -0.215158 1.195 18 34 12
0.275902 -0.214978 1.194 18 34 12
0.277524 -0.214798 1.193 18 34 12
0.279143 -0.214617 1.192 18 34 12
0.280994 -0.214617 1.192 18 33 13
0.28237 -0.214257 1.19 18 33 13
0.284219 -0.214257 1.19 18 33 13
0.286067 -0.214257 1.19 18 33 13
0.287915 -0.214257 1.19 20 35 15
0.289763 -0.214257 1.19 18 33 13
0.291611 -0.214257 1.19 18 33 13
0.293459 -0.214257 1.19 19 34 14
0.295307 -0.214257 1.19 18 33 13
0.297155 -0.214257 1.19 18 33 13
0.299003 -0.214257 1.19 18 33 13
0.300852 -0.214257 1.19 18 33 13
0.3027 -0.214257 1.19 18 33 13
0.304548 -0.214257 1.19 18 33 13
0.306396 -0.214257 1.19 19 34 14
0.308244 -0.214257 1.19 19 34 14
0.310092 -0.214257 1.19 18 33 13
0.31194 -0.214257 1.19 18 33 13
0.313525 -0.214077 1.189 18 33 13
0.315106 -0.213897 1.188 18 33 13
0.316684 -0.213717 1.187 18 33 13
0.318528 -0.213717 1.187 18 33 13
0.320371 -0.213717 1.187 17 32 12
0.322214 -0.213717 1.187 17 32 12
0.324058 -0.213717 1.187 16 33 13
0.326176 -0.213897 1.188 17 34 14
0.328021 -0.213897 1.188 18 35 15
0.329866 -0.213897 1.188 21 38 18
0.33199 -0.214077 1.189 20 37 17
0.333837 -0.214077 1.189 18 35 15
0.335683 -0.214077 1.189 18 35 15
0.337814 -0.214257 1.19 22 39 19
0.339662 -0.214257 1.19 20 38 16
0.34151 -0.214257 1.19 20 38 16
0.343358 -0.214257 1.19 23 41 19
0.345206 -0.214257 1.19 23 41 19
0.347054 -0.214257 1.19 22 40 18
0.348902 -0.214257 1.19 18 36 14
0.350161 -0.213897 1.188 18 36 14
0.35171 -0.213717 1.187 20 38 16
0.353255 -0.213537 1.186 18 35 15
0.354798 -0.213357 1.185 18 35 15
0.355735 -0.212817 1.182 16 32 15
0.357571 -0.212817 1.182 18 34 17
0.358798 -0.212457 1.18 16 32 17
0.36002 -0.212097 1.178 9 25 10
0.361849 -0.212097 1.178 17 30 22
0.363061 -0.211737 1.176 45 58 50
0.364577 -0.211557 1.175 10 22 17
0.365779 -0.211197 1.173 8 20 15
0.36666 -0.210656 1.17 9 21 16
0.367532 -0.210116 1.167 7 19 14
0.365863 -0.208136 1.156 18 27 26
0.36575 -0.207055 1.15 81 90 89
0.366111 -0.205255 1.14 85 95 97
0.366268 -0.204355 1.135 94 102 104
0.367058 -0.203815 1.132 93 101 103
-0.144584 -0.184205 1.032 238 234 227
-0.142982 -0.184205 1.032 237 233 226
-0.141379 -0.184205 1.032 237 233 226
-0.139776 -0.184205 1.032 237 233 226
-0.138307 -0.184384 1.033 241 237 230
-0.136835 -0.184562 1.034 239 235 228
-0.13523 -0.184562 1.034 238 234 227
-0.133624 -0.184562 1.034 238 234 227
-0.132146 -0.184741 1.035 241 237 230
-0.130538 -0.184741 1.035 239 235 228
-0.128931 -0.184741 1.035 238 234 227
-0.127446 -0.184919 1.036 238 234 227
-0.125716 -0.184741 1.035 237 233 226
-0.124109 -0.184741 1.035 237 233 226
-0.122501 -0.184741 1.035 238 234 227
-0.120894 -0.184741 1.035 237 233 226
-0.119287 -0.184741 1.035 238 234 227
-0.117679 -0.184741 1.035 237 233 226
-0.116072 -0.184741 1.035 236 232 225
-0.114464 -0.184741 1.035 235 231 224
-0.112966 -0.184919 1.036 235 231 224
-0.111357 -0.184919 1.036 235 231 224
-0.109854 -0.185098 1.037 236 232 225
-0.108244 -0.185098 1.037 235 231 224
-0.106736 -0.185276 1.038 230 229 221
-0.105326 -0.185633 1.04 230 229 221
-0.103811 -0.185812 1.041 228 227 219
-0.102292 -0.18599 1.042 228 227 219
-0.100771 -0.186169 1.043 228 229 221
-0.099246 -0.186347 1.044 227 228 220
-0.0978117 -0.186704 1.046 227 228 220
-0.0962792 -0.186883 1.047 226 227 219
-0.0947435 -0.187061 1.048 226 227 219
-0.0932048 -0.18724 1.049 228 229 221
-0.0917503 -0.187597 1.051 228 228 222
-0.090118 -0.187597 1.051 228 228 222
-0.08857 -0.187775 1.052 225 227 221
-0.0869362 -0.187775 1.052 225 227 221
-0.0853024 -0.187775 1.052 226 228 222
-0.0837481 -0.187953 1.053 229 231 225
-0.0821128 -0.187953 1.053 233 235 229
-0.0805539 -0.188132 1.054 236 238 232
-0.0789919 -0.18831 1.055 213 214 211
-0.0774267 -0.188489 1.056 199 200 197
-0.0757867 -0.188489 1.056 218 220 214
-0.0725754 -0.188667 1.057 245 247 241
-0.0710009 -0.188846 1.058 242 244 238
-0.0694234 -0.189024 1.059 243 245 239
-0.0678427 -0.189203 1.06 243 245 239
-0.0662589 -0.189381 1.061 239 241 235
-0.0646112 -0.189381 1.061 242 244 238
-0.0630228 -0.18956 1.062 242 244 238
-0.0613734 -0.18956 1.062 242 244 238
-0.0597803 -0.189738 1.063 243 245 239
-0.0581295 -0.189738 1.063 240 242 236
-0.0564786 -0.189738 1.063 244 246 240
-0.0548277 -0.189738 1.063 240 242 236
-0.0531768 -0.189738 1.063 239 241 235
-0.051526 -0.189738 1.063 245 247 241
-0.0498282 -0.18956 1.062 255 255 249
-0.0481789 -0.18956 1.062 249 249 243
-0.0465295 -0.18956 1.062 252 252 246
-0.0448802 -0.18956 1.062 252 252 246
-0.0432309 -0.18956 1.062 251 252 244
-0.0415816 -0.18956 1.062 252 253 245
-0.0399322 -0.18956 1.062 253 254 246
-0.0382829 -0.18956 1.062 252 253 245
-0.0366681 -0.189738 1.063 251 252 244
-0.0350172 -0.189738 1.063 251 252 244
-0.0333977 -0.189917 1.064 251 252 244
-0.0317453 -0.189917 1.064 251 252 244
-0.0301212 -0.190095 1.065 252 253 245
