ply
format ascii 1.0
comment Created by Open3D
element vertex 1365
property double x
property double y
property double z
property uchar red
property uchar green
property uchar blue
end_header
0.166079 -0.358883 1.191 19 35 13
0.167788 -0.358581 1.19 20 36 14
0.169493 -0.35828 1.189 20 36 14
0.171196 -0.357979 1.188 22 38 16
0.172749 -0.357376 1.186 19 35 13
0.174444 -0.357075 1.185 20 36 14
0.175987 -0.356472 1.183 18 34 12
0.177674 -0.356171 1.182 18 34 12
0.179509 -0.356171 1.182 18 34 12
0.181345 -0.356171 1.182 19 35 13
0.183181 -0.356171 1.182 17 33 11
0.185016 -0.356171 1.182 17 33 11
0.186852 -0.356171 1.182 18 34 12
0.188688 -0.356171 1.182 17 33 11
0.190523 -0.356171 1.182 17 33 11
0.192359 -0.356171 1.182 18 34 12
0.194195 -0.356171 1.182 17 33 11
0.196031 -0.356171 1.182 16 32 10
0.198034 -0.356472 1.183 19 35 13
0.20004 -0.356773 1.184 18 34 12
0.201879 -0.356773 1.184 17 33 11
0.203889 -0.357075 1.185 16 32 10
0.20573 -0.357075 1.185 17 32 12
0.20757 -0.357075 1.185 18 33 13
0.209411 -0.357075 1.185 18 35 15
0.211251 -0.357075 1.185 14 31 11
0.213091 -0.357075 1.185 16 33 13
0.21475 -0.356773 1.184 16 33 13
0.216589 -0.356773 1.184 15 33 11
0.218428 -0.356773 1.184 15 33 11
0.220081 -0.356472 1.183 17 35 13
0.221918 -0.356472 1.183 16 34 12
0.223755 -0.356472 1.183 16 34 12
0.225592 -0.356472 1.183 17 35 13
0.227622 -0.356773 1.184 17 35 13
0.229267 -0.356472 1.183 13 31 9
0.231104 -0.356472 1.183 14 32 10
0.232941 -0.356472 1.183 15 33 11
0.23458 -0.356171 1.182 16 31 11
0.236416 -0.356171 1.182 16 31 11
0.238251 -0.356171 1.182 15 29 12
0.240087 -0.356171 1.182 12 26 9
0.241923 -0.356171 1.182 15 29 12
0.243552 -0.355869 1.181 15 29 12
0.245386 -0.355869 1.181 13 27 10
0.24743 -0.356171 1.182 12 26 9
0.249265 -0.356171 1.182 12 26 9
0.251101 -0.356171 1.182 12 26 9
0.253151 -0.356472 1.183 10 24 7
0.254988 -0.356472 1.183 10 24 7
0.257042 -0.356773 1.184 10 24 9
0.258881 -0.356773 1.184 10 24 9
0.26094 -0.357075 1.185 10 24 9
0.263224 -0.357677 1.187 10 24 9
0.265067 -0.357677 1.187 8 22 7
0.267361 -0.35828 1.189 9 23 8
0.269434 -0.358581 1.19 9 23 8
0.271282 -0.358581 1.19 9 23 8
0.27313 -0.358581 1.19 9 23 8
0.275209 -0.358883 1.191 9 23 8
0.277291 -0.359184 1.192 10 23 10
0.279143 -0.359184 1.192 10 23 10
0.280522 -0.358581 1.19 10 23 10
0.28237 -0.358581 1.19 10 23 10
0.28398 -0.35828 1.189 10 23 10
0.285826 -0.35828 1.189 10 23 10
0.287673 -0.35828 1.189 10 24 9
0.289276 -0.357979 1.188 10 24 9
0.291121 -0.357979 1.188 10 24 9
0.292966 -0.357979 1.188 10 24 9
0.295059 -0.35828 1.189 10 24 9
0.297155 -0.358581 1.19 10 24 9
0.299003 -0.358581 1.19 10 24 9
0.301104 -0.358883 1.191 9 23 8
0.303208 -0.359184 1.192 11 25 10
0.305315 -0.359485 1.193 12 26 11
0.307426 -0.359787 1.194 12 26 11
0.309539 -0.360088 1.195 13 27 12
0.311395 -0.360088 1.195 12 26 11
0.313251 -0.360088 1.195 12 26 11
0.31537 -0.360389 1.196 11 25 10
0.317228 -0.360389 1.196 12 26 11
0.319085 -0.360389 1.196 14 25 11
0.320674 -0.360088 1.195 14 25 11
0.32253 -0.360088 1.195 11 25 8
0.324386 -0.360088 1.195 11 25 8
0.326242 -0.360088 1.195 11 25 8
0.327823 -0.359787 1.194 11 25 8
0.329401 -0.359485 1.193 11 25 8
0.330977 -0.359184 1.192 9 23 6
0.332828 -0.359184 1.192 9 23 6
0.334398 -0.358883 1.191 9 23 6
0.335966 -0.358581 1.19 11 25 8
0.337814 -0.358581 1.19 12 26 9
0.339376 -0.35828 1.189 11 25 8
0.341223 -0.35828 1.189 11 25 8
0.34307 -0.35828 1.189 10 24 7
0.345206 -0.358581 1.19 9 23 6
0.347054 -0.358581 1.19 11 25 8
0.348902 -0.358581 1.19 12 26 9
0.35075 -0.358581 1.19 11 25 10
0.352895 -0.358883 1.191 11 25 10
0.354745 -0.358883 1.191 11 25 10
0.356594 -0.358883 1.191 12 26 11
0.358444 -0.358883 1.191 12 25 12
0.359991 -0.358581 1.19 12 25 12
0.361839 -0.358581 1.19 15 26 18
0.363687 -0.358581 1.19 11 22 14
0.365228 -0.35828 1.189 10 19 17
0.367075 -0.35828 1.189 47 56 54
0.368611 -0.357979 1.188 45 54 52
0.370144 -0.357677 1.187 26 35 33
0.371988 -0.357677 1.187 31 40 38
0.373831 -0.357677 1.187 38 47 45
0.375358 -0.357376 1.186 37 45 47
0.3772 -0.357376 1.186 37 45 47
0.379042 -0.357376 1.186 37 47 49
0.380563 -0.357075 1.185 38 48 50
0.382403 -0.357075 1.185 37 46 50
0.384243 -0.357075 1.185 37 46 50
-0.156773 -0.335447 1.119 161 164 248
-0.155174 -0.335747 1.12 158 161 245
-0.153572 -0.336047 1.121 160 162 249
-0.151966 -0.336346 1.122 163 165 252
-0.150357 -0.336646 1.123 160 162 249
-0.148746 -0.336946 1.124 155 157 244
-0.147131 -0.337246 1.125 158 160 247
-0.145384 -0.337246 1.125 156 158 245
-0.143892 -0.337845 1.127 155 157 244
-0.142142 -0.337845 1.127 155 157 244
-0.140641 -0.338445 1.129 155 157 244
-0.13901 -0.338745 1.13 159 161 248
-0.137255 -0.338745 1.13 153 156 240
-0.13562 -0.339044 1.131 152 155 239
-0.133982 -0.339344 1.132 151 154 238
-0.132341 -0.339644 1.133 154 157 241
-0.130697 -0.339944 1.134 159 162 246
-0.129163 -0.340543 1.136 161 164 248
-0.127399 -0.340543 1.136 162 165 249
-0.125634 -0.340543 1.136 163 166 250
-0.124088 -0.341143 1.138 166 169 253
-0.122321 -0.341143 1.138 166 169 253
-0.120659 -0.341443 1.139 166 169 253
-0.118995 -0.341742 1.14 160 163 247
-0.117224 -0.341742 1.14 158 161 245
-0.115454 -0.341742 1.14 158 161 245
-0.113783 -0.342042 1.141 159 162 245
-0.112109 -0.342342 1.142 158 161 244
-0.110336 -0.342342 1.142 163 167 247
-0.108752 -0.342941 1.144 170 174 254
-0.107069 -0.343241 1.145 170 172 250
-0.105291 -0.343241 1.145 174 176 254
-0.103694 -0.343841 1.147 171 173 251
-0.102001 -0.344141 1.148 156 158 236
-0.0986068 -0.34474 1.15 150 153 229
-0.096905 -0.34504 1.151 157 158 234
-0.0952827 -0.345639 1.153 163 164 240
-0.0935732 -0.345939 1.154 169 170 246
-0.091781 -0.345939 1.154 181 182 255
-0.0900667 -0.346239 1.155 183 184 255
-0.088273 -0.346239 1.155 181 182 255
-0.0865541 -0.346539 1.156 180 181 255
-0.0847588 -0.346539 1.156 176 177 253
-0.0830353 -0.346838 1.157 172 173 249
-0.0813086 -0.347138 1.158 152 153 229
-0.0795102 -0.347138 1.158 136 136 214
-0.077846 -0.347738 1.16 110 110 188
-0.0760445 -0.347738 1.16 105 108 184
-0.074371 -0.348337 1.162 107 110 186
-0.0726912 -0.348937 1.164 120 124 197
-0.0709444 -0.349237 1.165 128 132 205
-0.0692538 -0.349836 1.167 135 139 211
-0.0674992 -0.350136 1.168 146 150 222
-0.065854 -0.351035 1.171 160 165 234
-0.0641447 -0.351635 1.173 172 177 246
-0.0624293 -0.352234 1.175 185 191 255
-0.0607076 -0.352834 1.177 191 197 255
-0.0589297 -0.353134 1.178 201 207 255
-0.0571972 -0.353733 1.18 201 207 255
-0.0554116 -0.354033 1.181 196 200 255
-0.0536228 -0.354333 1.182 174 178 236
-0.0517871 -0.354333 1.182 151 151 209
-0.0499514 -0.354333 1.182 114 114 172
-0.0481157 -0.354333 1.182 69 64 123
-0.04628 -0.354333 1.182 34 29 88
-0.0444444 -0.354333 1.182 49 46 105
-0.0425726 -0.354033 1.181 68 65 124
-0.040704 -0.353733 1.18 85 85 143
-0.0388714 -0.353733 1.18 102 102 160
-0.0370074 -0.353434 1.179 106 113 172
-0.0351764 -0.353434 1.179 103 110 169
-0.0333171 -0.353134 1.178 97 105 166
-0.0314876 -0.353134 1.178 89 97 158
-0.029633 -0.352834 1.177 80 89 148
-0.0278051 -0.352834 1.177 82 91 150
-0.0259771 -0.352834 1.177 80 86 147
-0.0241492 -0.352834 1.177 77 83 144
-0.0223213 -0.352834 1.177 78 84 145
-0.0204934 -0.352834 1.177 78 84 145
-0.0186496 -0.352534 1.176 81 87 148
-0.0168089 -0.352234 1.175 92 98 159
-0.0149841 -0.352234 1.175 95 101 162
-0.0131593 -0.352234 1.175 92 98 159
-0.0113345 -0.352234 1.175 96 104 165
-0.00950967 -0.352234 1.175 97 105 166
-0.00767831 -0.351935 1.174 100 108 169
-0.00585505 -0.351935 1.174 90 98 159
-0.00402835 -0.351635 1.173 84 95 155
-0.00220664 -0.351635 1.173 87 98 158
-0.000384606 -0.351335 1.172 85 95 158
0.00143555 -0.351335 1.172 82 92 155
0.00325293 -0.351035 1.171 80 85 149
0.00507153 -0.351035 1.171 72 77 141
0.00689013 -0.351035 1.171 72 77 141
0.00870874 -0.351035 1.171 75 80 144
0.0105273 -0.351035 1.171 78 83 147
0.0123459 -0.351035 1.171 77 82 146
0.0141524 -0.350736 1.17 82 87 151
0.0159695 -0.350736 1.17 84 89 153
0.0177865 -0.350736 1.17 91 96 160
0.0195868 -0.350436 1.169 87 92 156
0.0214023 -0.350436 1.169 79 86 150
0.023198 -0.350136 1.168 76 83 147
0.0250119 -0.350136 1.168 80 89 154
0.0268259 -0.350136 1.168 78 87 152
0.0285908 -0.349536 1.166 75 83 151
0.0304016 -0.349536 1.166 77 85 153
0.0321848 -0.349237 1.165 77 85 153
0.0339649 -0.348937 1.164 73 81 149
0.0357727 -0.348937 1.164 74 82 150
0.0375804 -0.348937 1.164 74 82 150
0.0393881 -0.348937 1.164 73 81 149
0.0411958 -0.348937 1.164 73 81 149
0.0430036 -0.348937 1.164 70 78 146
0.0448498 -0.349237 1.165 66 74 142
0.0466591 -0.349237 1.165 71 74 143
0.04851 -0.349536 1.166 86 89 158
0.0503208 -0.349536 1.166 101 105 171
0.0521317 -0.349536 1.166 103 107 173
0.0539425 -0.349536 1.166 100 104 170
0.0558011 -0.349836 1.167 89 93 159
0.0576135 -0.349836 1.167 83 83 153
0.0594769 -0.350136 1.168 80 80 150
0.0612383 -0.349836 1.167 77 77 147
0.0630507 -0.349836 1.167 81 81 151
0.0648075 -0.349536 1.166 83 82 155
0.0666184 -0.349536 1.166 81 80 153
0.0684879 -0.349836 1.167 77 76 149
0.0703003 -0.349836 1.167 82 81 154
0.0721745 -0.350136 1.168 88 89 156
0.0739884 -0.350136 1.168 138 139 206
0.0758023 -0.350136 1.168 153 155 227
0.0776827 -0.350436 1.169 122 124 196
0.0795662 -0.350736 1.17 10 10 70
0.0813833 -0.350736 1.17 1 1 61
0.0832715 -0.351035 1.171 11 18 34
0.0850901 -0.351035 1.171 15 22 38
0.0869829 -0.351335 1.172 18 33 20
0.088803 -0.351335 1.172 20 35 22
0.0907005 -0.351635 1.173 18 35 15
0.0926011 -0.351935 1.174 20 37 17
0.0963296 -0.352234 1.175 21 39 17
0.0981544 -0.352234 1.175 21 39 17
0.100064 -0.352534 1.176 21 39 17
0.102064 -0.353134 1.178 21 39 17
0.103982 -0.353434 1.179 18 36 14
0.105902 -0.353733 1.18 17 35 13
0.107918 -0.354333 1.182 17 35 13
0.109846 -0.354633 1.183 17 35 13
0.111872 -0.355232 1.185 17 35 13
0.113809 -0.355532 1.186 16 34 12
0.115748 -0.355832 1.187 17 35 13
0.11769 -0.356131 1.188 17 35 13
0.119636 -0.356431 1.189 17 35 13
0.121483 -0.356431 1.189 16 34 12
0.123329 -0.356431 1.189 17 35 13
0.125281 -0.356731 1.19 17 35 13
0.127129 -0.356731 1.19 17 35 13
0.128977 -0.356731 1.19 17 35 13
0.130715 -0.356431 1.189 17 35 13
0.132673 -0.356731 1.19 16 34 12
0.134409 -0.356431 1.189 17 35 13
0.136255 -0.356431 1.189 17 34 14
0.138218 -0.356731 1.19 17 34 14
0.140066 -0.356731 1.19 17 34 14
0.142033 -0.357031 1.191 18 35 15
0.144004 -0.357331 1.192 18 35 15
0.145855 -0.357331 1.192 17 34 14
0.14783 -0.35763 1.193 18 35 15
0.149808 -0.35793 1.194 20 37 17
0.15179 -0.35823 1.195 21 39 17
0.153517 -0.35793 1.194 21 39 17
0.155371 -0.35793 1.194 22 40 18
0.157226 -0.35793 1.194 23 41 19
0.15908 -0.35793 1.194 23 39 17
0.160799 -0.35763 1.193 20 36 14
0.162652 -0.35763 1.193 18 34 12
0.164367 -0.357331 1.192 20 36 14
0.166079 -0.357031 1.191 20 36 14
0.167788 -0.356731 1.19 20 36 14
0.169493 -0.356431 1.189 19 35 13
0.171051 -0.355832 1.187 20 36 14
0.172749 -0.355532 1.186 17 33 11
0.174444 -0.355232 1.185 19 35 13
0.175987 -0.354633 1.183 17 33 11
0.177674 -0.354333 1.182 17 33 11
0.179509 -0.354333 1.182 18 34 12
0.181345 -0.354333 1.182 19 35 13
0.183181 -0.354333 1.182 18 34 12
0.185016 -0.354333 1.182 18 34 12
0.186852 -0.354333 1.182 20 36 14
0.188688 -0.354333 1.182 19 35 13
0.190523 -0.354333 1.182 19 36 11
0.192359 -0.354333 1.182 19 36 11
0.194359 -0.354633 1.183 19 36 11
0.196362 -0.354932 1.184 19 36 11
0.198368 -0.355232 1.185 19 36 11
0.200209 -0.355232 1.185 18 35 10
0.204062 -0.355532 1.186 18 34 12
0.205903 -0.355532 1.186 18 36 14
0.209587 -0.355532 1.186 18 36 14
0.211429 -0.355532 1.186 16 34 12
0.213271 -0.355532 1.186 17 35 13
0.214932 -0.355232 1.185 17 35 13
0.216772 -0.355232 1.185 17 35 13
0.218612 -0.355232 1.185 17 35 13
0.220453 -0.355232 1.185 18 36 14
0.222293 -0.355232 1.185 17 35 13
0.224133 -0.355232 1.185 17 35 13
0.225974 -0.355232 1.185 17 35 13
0.227814 -0.355232 1.185 16 34 12
0.229654 -0.355232 1.185 9 27 5
0.231299 -0.354932 1.184 13 31 9
0.233138 -0.354932 1.184 15 33 11
0.234778 -0.354633 1.183 15 33 11
0.236416 -0.354333 1.182 15 33 11
0.238251 -0.354333 1.182 14 31 11
0.240087 -0.354333 1.182 13 30 10
0.241923 -0.354333 1.182 13 27 10
0.243552 -0.354033 1.181 13 27 10
0.245386 -0.354033 1.181 12 26 9
0.24722 -0.354033 1.181 12 26 9
0.249055 -0.354033 1.181 11 25 8
0.251101 -0.354333 1.182 10 24 7
0.252937 -0.354333 1.182 10 24 7
0.254988 -0.354633 1.183 10 24 7
0.256825 -0.354633 1.183 10 24 7
0.258881 -0.354932 1.184 10 24 7
0.26094 -0.355232 1.185 10 24 9
0.263002 -0.355532 1.186 10 24 9
0.265067 -0.355832 1.187 8 22 7
0.267136 -0.356131 1.188 11 25 10
0.269207 -0.356431 1.189 11 25 10
0.271282 -0.356731 1.19 11 25 10
0.27313 -0.356731 1.19 11 25 10
0.274978 -0.356731 1.19 10 24 9
0.277291 -0.357331 1.192 11 25 10
0.279143 -0.357331 1.192 10 24 9
0.280758 -0.357031 1.191 9 22 9
0.28237 -0.356731 1.19 9 22 9
0.284219 -0.356731 1.19 9 22 9
0.286067 -0.356731 1.19 10 23 10
0.287673 -0.356431 1.189 9 23 8
0.289519 -0.356431 1.189 10 24 9
0.291366 -0.356431 1.189 10 24 9
0.293212 -0.356431 1.189 10 24 9
0.295307 -0.356731 1.19 11 25 10
0.297155 -0.356731 1.19 11 25 10
0.299255 -0.357031 1.191 12 26 11
0.301357 -0.357331 1.192 11 25 10
0.303463 -0.35763 1.193 11 25 10
0.305827 -0.35823 1.195 12 26 11
0.307426 -0.35793 1.194 12 26 9
0.309539 -0.35823 1.195 12 26 9
0.311395 -0.35823 1.195 12 26 9
0.313251 -0.35823 1.195 12 26 9
0.31537 -0.35853 1.196 12 26 9
0.316963 -0.35823 1.195 13 27 10
0.318818 -0.35823 1.195 12 26 9
0.320674 -0.35823 1.195 12 26 9
0.32226 -0.35793 1.194 12 26 9
0.324386 -0.35823 1.195 12 26 9
0.325969 -0.35793 1.194 11 25 8
0.327549 -0.35763 1.193 11 25 8
0.329125 -0.357331 1.192 11 25 8
0.330699 -0.357031 1.191 11 25 8
0.332549 -0.357031 1.191 11 25 8
0.334117 -0.356731 1.19 11 25 8
0.335966 -0.356731 1.19 12 26 9
0.33753 -0.356431 1.189 12 26 9
0.339091 -0.356131 1.188 10 24 7
0.340936 -0.356131 1.188 12 26 9
0.34307 -0.356431 1.189 11 25 8
0.345206 -0.356731 1.19 11 25 8
0.347054 -0.356731 1.19 12 26 9
0.349196 -0.357031 1.191 12 26 9
0.351045 -0.357031 1.191 11 25 10
0.352895 -0.357031 1.191 11 25 10
0.354745 -0.357031 1.191 11 24 11
0.356594 -0.357031 1.191 12 25 12
0.358444 -0.357031 1.191 12 24 14
0.359991 -0.356731 1.19 12 24 14
0.361839 -0.356731 1.19 13 24 16
0.363687 -0.356731 1.19 9 20 12
0.365228 -0.356431 1.189 13 20 16
0.366766 -0.356131 1.188 46 53 49
0.368301 -0.355832 1.187 47 54 50
0.370144 -0.355832 1.187 28 35 31
0.371988 -0.355832 1.187 34 43 41
0.373516 -0.355532 1.186 34 43 41
0.375358 -0.355532 1.186 36 44 46
0.376882 -0.355232 1.185 36 44 46
0.378722 -0.355232 1.185 36 46 48
0.380563 -0.355232 1.185 36 46 48
0.38208 -0.354932 1.184 36 46 48
0.383919 -0.354932 1.184 36 46 48
-0.156773 -0.333707 1.119 159 164 248
-0.155174 -0.334005 1.12 153 158 242
-0.153572 -0.334304 1.121 158 162 249
-0.151966 -0.334602 1.122 159 163 250
-0.150357 -0.3349 1.123 157 161 248
-0.148746 -0.335198 1.124 154 158 245
-0.147131 -0.335496 1.125 154 158 245
-0.145513 -0.335795 1.126 152 156 243
-0.143892 -0.336093 1.127 152 156 243
-0.142142 -0.336093 1.127 147 151 238
-0.140516 -0.336391 1.128 158 162 249
-0.138887 -0.336689 1.129 161 165 252
-0.137255 -0.336988 1.13 159 163 250
-0.1355 -0.336988 1.13 160 164 251
-0.133864 -0.337286 1.131 154 158 245
-0.132224 -0.337584 1.132 146 150 237
-0.130466 -0.337584 1.132 152 156 243
-0.128935 -0.33818 1.134 154 158 245
-0.127174 -0.33818 1.134 154 158 245
-0.125413 -0.33818 1.134 153 157 244
-0.12387 -0.338777 1.136 161 163 250
-0.122106 -0.338777 1.136 161 163 250
-0.120448 -0.339075 1.137 161 163 250
-0.118786 -0.339373 1.138 161 163 250
-0.117019 -0.339373 1.138 161 164 248
-0.115353 -0.339672 1.139 161 164 248
-0.113683 -0.33997 1.14 161 164 247
-0.111913 -0.33997 1.14 160 163 246
-0.110336 -0.340566 1.142 168 171 254
-0.108657 -0.340864 1.143 174 177 255
-0.106976 -0.341163 1.144 168 172 252
-0.105291 -0.341461 1.145 158 162 242
-0.103603 -0.341759 1.146 162 163 244
-0.102001 -0.342356 1.148 154 155 236
-0.100305 -0.342654 1.149 150 151 232
-0.096905 -0.34325 1.151 165 165 243
-0.0952001 -0.343548 1.152 178 178 255
-0.0935732 -0.344145 1.154 177 180 255
-0.091781 -0.344145 1.154 181 184 255
-0.0899888 -0.344145 1.154 181 184 255
-0.088273 -0.344443 1.155 179 182 255
-0.0865541 -0.344741 1.156 181 181 255
-0.0847588 -0.344741 1.156 165 165 243
-0.0830353 -0.345039 1.157 145 145 223
-0.0812384 -0.345039 1.157 123 123 201
-0.0795102 -0.345338 1.158 110 108 192
-0.0777789 -0.345636 1.159 108 106 190
-0.0760445 -0.345934 1.16 104 106 184
-0.074307 -0.346232 1.161 111 113 191
-0.0725663 -0.346531 1.162 125 132 204
-0.0708835 -0.347127 1.164 145 152 224
-0.0691945 -0.347723 1.166 160 167 239
-0.0674992 -0.34832 1.168 173 180 252
-0.0657977 -0.348916 1.17 181 185 255
-0.0640901 -0.349513 1.172 181 185 255
-0.0623762 -0.350109 1.174 177 181 253
-0.0606045 -0.350407 1.175 178 182 254
-0.0589297 -0.351302 1.178 189 195 255
-0.0571487 -0.3516 1.179 196 202 255
-0.0553646 -0.351899 1.18 203 208 255
-0.0535321 -0.351899 1.18 209 214 255
-0.0516995 -0.351899 1.18 192 198 255
-0.0499092 -0.352197 1.181 166 172 233
-0.048075 -0.352197 1.181 129 128 190
-0.0462409 -0.352197 1.181 76 75 137
-0.0443692 -0.351899 1.18 83 81 151
-0.0425366 -0.351899 1.18 95 93 163
-0.040704 -0.351899 1.18 96 94 164
-0.0388385 -0.3516 1.179 96 94 164
-0.0369761 -0.351302 1.178 85 92 163
-0.0351466 -0.351302 1.178 83 90 161
-0.0333171 -0.351302 1.178 78 85 156
-0.0314609 -0.351004 1.177 77 84 155
-0.029633 -0.351004 1.177 75 83 151
-0.0277814 -0.350706 1.176 74 82 150
-0.0259551 -0.350706 1.176 76 81 150
-0.0241082 -0.350407 1.175 73 78 147
-0.0222834 -0.350407 1.175 75 81 147
-0.0204586 -0.350407 1.175 73 79 145
-0.0186337 -0.350407 1.175 79 84 148
-0.0168089 -0.350407 1.175 84 89 153
-0.0149841 -0.350407 1.175 85 92 156
-0.0131481 -0.350109 1.174 87 94 158
-0.0113248 -0.350109 1.174 87 94 158
-0.00949348 -0.349811 1.173 84 91 155
-0.00767177 -0.349811 1.173 79 86 150
-0.00585006 -0.349811 1.173 78 85 149
-0.00402492 -0.349513 1.172 80 89 154
-0.00220476 -0.349513 1.172 89 98 163
-0.000384278 -0.349215 1.171 90 99 164
0.00143433 -0.349215 1.171 77 86 151
0.00325293 -0.349215 1.171 77 83 149
0.0050672 -0.348916 1.17 73 79 145
0.00688425 -0.348916 1.17 73 79 145
0.0087013 -0.348916 1.17 73 79 145
0.0105183 -0.348916 1.17 77 81 147
0.0123354 -0.348916 1.17 80 84 150
0.0141404 -0.348618 1.169 86 90 156
0.0159559 -0.348618 1.169 85 89 155
0.0177713 -0.348618 1.169 85 89 155
0.0195868 -0.348618 1.169 81 85 151
0.021384 -0.34832 1.168 79 82 151
0.023198 -0.34832 1.168 73 76 145
0.0250119 -0.34832 1.168 75 80 149
0.0268259 -0.34832 1.168 75 80 149
0.0285908 -0.347723 1.166 71 75 147
0.0304016 -0.347723 1.166 70 74 146
0.0322124 -0.347723 1.166 70 74 146
0.0339941 -0.347425 1.165 75 79 151
0.0358034 -0.347425 1.165 76 80 152
0.0376127 -0.347425 1.165 76 80 152
0.039422 -0.347425 1.165 72 76 148
0.0412312 -0.347425 1.165 71 75 147
0.0430405 -0.347425 1.165 70 74 146
0.0448883 -0.347723 1.166 70 74 146
0.0466991 -0.347723 1.166 74 77 146
0.04851 -0.347723 1.166 87 90 159
0.050364 -0.348022 1.167 100 104 170
0.0521764 -0.348022 1.167 100 104 170
0.0539888 -0.348022 1.167 96 100 166
0.055849 -0.34832 1.168 91 95 161
0.0576629 -0.34832 1.168 89 89 159
0.0594769 -0.34832 1.168 86 86 156
0.0612383 -0.348022 1.167 81 80 153
0.0630507 -0.348022 1.167 83 82 155
0.0648631 -0.348022 1.167 81 80 153
0.0666755 -0.348022 1.167 76 75 148
0.0684879 -0.348022 1.167 75 77 150
0.0703003 -0.348022 1.167 82 84 157
0.0721745 -0.34832 1.168 101 100 173
0.0739884 -0.34832 1.168 145 144 217
0.0758023 -0.34832 1.168 157 159 231
0.0776827 -0.348618 1.169 123 125 197
0.0795662 -0.348916 1.17 12 13 68
0.0813833 -0.348916 1.17 2 3 58
0.0832715 -0.349215 1.171 12 20 34
0.0850901 -0.349215 1.171 12 20 34
0.0869087 -0.349215 1.171 18 34 19
0.0887273 -0.349215 1.171 20 36 21
0.0906232 -0.349513 1.172 20 38 16
0.0925222 -0.349811 1.173 20 38 16
0.0944244 -0.350109 1.174 20 38 16
0.0981544 -0.350407 1.175 21 40 15
0.0999792 -0.350407 1.175 20 39 14
0.101977 -0.351004 1.177 20 39 14
0.103893 -0.351302 1.178 18 37 12
0.105813 -0.3516 1.179 18 37 12
0.107735 -0.351899 1.18 17 36 11
0.109753 -0.352495 1.182 17 36 11
0.111778 -0.353091 1.184 17 36 11
0.113713 -0.35339 1.185 17 35 13
0.115553 -0.35339 1.185 18 36 14
0.117492 -0.353688 1.186 18 36 14
0.119435 -0.353986 1.187 18 36 14
0.12138 -0.354284 1.188 17 35 13
0.123225 -0.354284 1.188 17 35 13
0.125176 -0.354582 1.189 17 35 13
0.127129 -0.354881 1.19 16 34 12
0.128977 -0.354881 1.19 16 34 12
0.130825 -0.354881 1.19 16 34 12
0.132673 -0.354881 1.19 16 34 12
0.134522 -0.354881 1.19 16 34 12
0.13637 -0.354881 1.19 17 35 13
0.138334 -0.355179 1.191 17 35 13
0.140184 -0.355179 1.191 17 35 13
0.142153 -0.355477 1.192 18 36 14
0.144004 -0.355477 1.192 18 36 14
0.145977 -0.355775 1.193 17 35 13
0.147954 -0.356074 1.194 18 36 14
0.149808 -0.356074 1.194 20 38 16
0.15179 -0.356372 1.195 20 38 16
0.153646 -0.356372 1.195 18 36 14
0.155501 -0.356372 1.195 22 40 18
0.157357 -0.356372 1.195 23 41 19
0.159213 -0.356372 1.195 21 39 17
0.161069 -0.356372 1.195 17 35 13
0.162789 -0.356074 1.194 18 37 12
0.164367 -0.355477 1.192 25 44 19
0.166218 -0.355477 1.192 21 40 15
0.167788 -0.354881 1.19 18 37 12
0.169493 -0.354582 1.189 18 37 12
0.171051 -0.353986 1.187 20 39 14
0.172749 -0.353688 1.186 20 39 14
0.17415 -0.352793 1.183 20 39 14
0.175838 -0.352495 1.182 17 36 11
0.177674 -0.352495 1.182 20 39 14
0.179509 -0.352495 1.182 18 37 12
0.181345 -0.352495 1.182 18 37 12
0.183181 -0.352495 1.182 18 37 12
0.185016 -0.352495 1.182 17 36 11
0.18701 -0.352793 1.183 20 39 14
0.188688 -0.352495 1.182 20 39 14
0.190523 -0.352495 1.182 20 39 14
0.192522 -0.352793 1.183 20 39 14
0.194523 -0.353091 1.184 18 37 12
0.196528 -0.35339 1.185 17 36 11
0.198368 -0.35339 1.185 16 35 10
0.20222 -0.353688 1.186 16 35 10
0.204234 -0.353986 1.187 15 34 9
0.206077 -0.353986 1.187 17 35 13
0.20792 -0.353986 1.187 17 35 13
0.209941 -0.354284 1.188 18 36 14
0.211607 -0.353986 1.187 17 35 13
0.213451 -0.353986 1.187 18 36 14
0.215294 -0.353986 1.187 20 38 16
0.217138 -0.353986 1.187 18 37 12
0.218981 -0.353986 1.187 17 36 11
0.220639 -0.353688 1.186 17 36 11
0.222481 -0.353688 1.186 17 36 11
0.224322 -0.353688 1.186 18 37 12
0.226164 -0.353688 1.186 18 37 12
0.228006 -0.353688 1.186 17 36 11
0.229654 -0.35339 1.185 14 33 8
0.231495 -0.35339 1.185 14 33 8
0.233335 -0.35339 1.185 15 34 9
0.234977 -0.353091 1.184 15 34 9
0.236616 -0.352793 1.183 15 34 9
0.238251 -0.352495 1.182 15 33 11
0.240087 -0.352495 1.182 14 32 10
0.241923 -0.352495 1.182 11 28 8
0.243552 -0.352197 1.181 11 28 8
0.245179 -0.351899 1.18 11 28 8
0.24722 -0.352197 1.181 11 28 8
0.249055 -0.352197 1.181 9 25 8
0.251101 -0.352495 1.182 8 24 7
0.252937 -0.352495 1.182 10 24 7
0.254773 -0.352495 1.182 10 24 7
0.256608 -0.352495 1.182 10 24 7
0.258881 -0.353091 1.184 10 24 7
0.26072 -0.353091 1.184 10 24 7
0.262781 -0.35339 1.185 10 24 7
0.265067 -0.353986 1.187 10 24 9
0.267136 -0.354284 1.188 11 25 10
0.269207 -0.354582 1.189 12 26 11
0.271282 -0.354881 1.19 12 26 11
0.27313 -0.354881 1.19 12 26 11
0.275209 -0.355179 1.191 11 25 10
0.277059 -0.355179 1.191 10 24 9
0.279143 -0.355477 1.192 10 24 9
0.280758 -0.355179 1.191 10 24 9
0.282608 -0.355179 1.191 10 24 9
0.284219 -0.354881 1.19 9 23 8
0.286067 -0.354881 1.19 11 25 10
0.287915 -0.354881 1.19 10 24 9
0.289763 -0.354881 1.19 10 24 9
0.291611 -0.354881 1.19 10 24 9
0.293459 -0.354881 1.19 10 24 9
0.295307 -0.354881 1.19 10 24 9
0.297155 -0.354881 1.19 10 24 9
0.299506 -0.355477 1.192 11 25 10
0.30161 -0.355775 1.193 12 26 11
0.303463 -0.355775 1.193 11 25 8
0.305827 -0.356372 1.195 12 26 9
0.307683 -0.356372 1.195 12 26 9
0.309539 -0.356372 1.195 13 27 10
0.313513 -0.35667 1.196 13 27 10
0.31537 -0.35667 1.196 13 27 10
0.316963 -0.356372 1.195 13 27 10
0.318818 -0.356372 1.195 13 27 10
0.320674 -0.356372 1.195 12 26 9
0.32226 -0.356074 1.194 13 27 10
0.323843 -0.355775 1.193 13 27 10
0.325696 -0.355775 1.193 12 26 9
0.327274 -0.355477 1.192 12 26 9
0.328849 -0.355179 1.191 12 26 9
0.330421 -0.354881 1.19 12 26 9
0.332269 -0.354881 1.19 13 27 10
0.333837 -0.354582 1.189 13 27 10
0.335401 -0.354284 1.188 15 29 12
0.337246 -0.354284 1.188 15 29 12
0.339091 -0.354284 1.188 13 27 10
0.340936 -0.354284 1.188 15 29 12
0.342781 -0.354284 1.188 15 29 12
0.345206 -0.354881 1.19 15 29 12
0.347054 -0.354881 1.19 13 27 10
0.348902 -0.354881 1.19 13 27 10
0.35075 -0.354881 1.19 12 26 11
0.352895 -0.355179 1.191 11 25 10
0.354745 -0.355179 1.191 11 24 11
0.356594 -0.355179 1.191 13 26 13
0.358143 -0.354881 1.19 12 24 14
0.359991 -0.354881 1.19 12 24 14
0.361839 -0.354881 1.19 12 24 14
0.363382 -0.354582 1.189 6 18 8
0.365228 -0.354582 1.189 13 20 16
0.366766 -0.354284 1.188 42 49 45
0.368301 -0.353986 1.187 42 49 45
0.370144 -0.353986 1.187 33 40 36
0.371674 -0.353688 1.186 33 42 40
0.373201 -0.35339 1.185 33 42 40
0.375042 -0.35339 1.185 34 42 44
0.376882 -0.35339 1.185 33 41 43
0.378403 -0.353091 1.184 34 44 46
0.380241 -0.353091 1.184 34 44 46
0.381758 -0.352793 1.183 34 44 46
0.383595 -0.352793 1.183 34 44 46
-0.156773 -0.331967 1.119 157 162 245
-0.155174 -0.332264 1.12 152 157 240
-0.153572 -0.332561 1.121 159 163 250
-0.151966 -0.332857 1.122 158 162 249
-0.150357 -0.333154 1.123 156 160 247
-0.148746 -0.333451 1.124 154 158 245
-0.147131 -0.333747 1.125 154 158 245
-0.145513 -0.334044 1.126 154 158 245
-0.143892 -0.334341 1.127 154 158 245
-0.142142 -0.334341 1.127 153 157 244
-0.140516 -0.334637 1.128 158 162 249
-0.138887 -0.334934 1.129 158 162 249
-0.137255 -0.335231 1.13 158 162 249
-0.1355 -0.335231 1.13 158 162 249
-0.133745 -0.335231 1.13 164 168 255
-0.132107 -0.335527 1.131 156 160 247
-0.130466 -0.335824 1.132 156 160 247
-0.128822 -0.336121 1.133 156 160 247
-0.127062 -0.336121 1.133 154 158 245
-0.125303 -0.336121 1.133 154 158 245
-0.123652 -0.336417 1.134 165 167 254
-0.121998 -0.336714 1.135 162 164 251
-0.120342 -0.337011 1.136 162 164 251
-0.118577 -0.337011 1.136 162 164 251
-0.116916 -0.337307 1.137 161 163 250
-0.115251 -0.337604 1.138 161 163 250
-0.113584 -0.337901 1.139 159 162 246
-0.111913 -0.338197 1.14 162 165 249
-0.110239 -0.338494 1.141 169 172 255
-0.108562 -0.338791 1.142 174 177 255
-0.106976 -0.339384 1.144 170 173 255
-0.105291 -0.339681 1.145 163 166 249
-0.103603 -0.339977 1.146 165 165 249
-0.101912 -0.340274 1.147 157 157 241
-0.100305 -0.340867 1.149 150 151 232
-0.096905 -0.341461 1.151 164 166 244
-0.0952001 -0.341757 1.152 175 177 255
-0.0934921 -0.342054 1.153 178 181 255
-0.091781 -0.342351 1.154 181 184 255
-0.0899888 -0.342351 1.154 179 182 255
-0.088273 -0.342647 1.155 176 179 255
-0.0864792 -0.342647 1.155 170 171 247
-0.0847588 -0.342944 1.156 149 150 226
-0.0829635 -0.342944 1.156 134 133 214
-0.0812384 -0.34324 1.157 113 112 193
-0.0795102 -0.343537 1.158 113 111 195
-0.0777789 -0.343834 1.159 109 107 191
-0.0760445 -0.34413 1.16 111 113 191
-0.074307 -0.344427 1.161 121 123 201
-0.0725663 -0.344724 1.162 150 153 229
-0.0708835 -0.345317 1.164 174 177 253
-0.0691945 -0.34591 1.166 184 188 255
-0.0674992 -0.346504 1.168 186 190 255
-0.0657415 -0.3468 1.169 182 186 255
-0.0640354 -0.347394 1.171 176 180 252
-0.062323 -0.347987 1.173 174 178 250
-0.0606045 -0.34858 1.175 176 180 252
-0.0588297 -0.348877 1.176 171 175 247
-0.0571003 -0.34947 1.178 178 182 254
-0.0553177 -0.349767 1.179 190 194 255
-0.0535321 -0.350064 1.18 197 201 255
-0.0516995 -0.350064 1.18 199 203 255
-0.0498669 -0.350064 1.18 172 176 242
-0.0480343 -0.350064 1.18 140 140 210
-0.0462017 -0.350064 1.18 90 90 160
-0.0443692 -0.350064 1.18 86 88 160
-0.0425005 -0.349767 1.179 85 87 159
-0.0406695 -0.349767 1.179 87 89 161
-0.0388055 -0.34947 1.178 85 87 159
-0.0369761 -0.34947 1.178 76 80 152
-0.0351167 -0.349174 1.177 72 76 148
-0.0332888 -0.349174 1.177 70 74 146
-0.0314342 -0.348877 1.176 77 81 153
-0.0296078 -0.348877 1.176 78 82 154
-0.0277814 -0.348877 1.176 78 82 154
-0.025933 -0.34858 1.175 83 87 159
-0.0241082 -0.34858 1.175 75 79 151
-0.0222834 -0.34858 1.175 68 74 140
-0.0204586 -0.34858 1.175 75 81 147
-0.0186337 -0.34858 1.175 83 89 155
-0.0167946 -0.348284 1.174 83 89 155
-0.0149586 -0.347987 1.173 83 89 155
-0.0131369 -0.347987 1.173 85 91 157
-0.0113152 -0.347987 1.173 85 91 157
-0.00949348 -0.347987 1.173 84 90 156
-0.00766523 -0.34769 1.172 84 90 156
-0.00584507 -0.34769 1.172 83 89 155
-0.00402148 -0.347394 1.171 83 89 155
-0.00220288 -0.347394 1.171 83 89 155
-0.000383949 -0.347097 1.17 91 96 165
0.0014331 -0.347097 1.17 78 83 152
0.00324737 -0.3468 1.169 73 76 145
0.00506287 -0.3468 1.169 71 74 143
0.00687837 -0.3468 1.169 73 76 145
0.00869386 -0.3468 1.169 74 77 146
0.0105094 -0.3468 1.169 77 80 149
0.0123249 -0.3468 1.169 79 82 151
0.0141283 -0.346504 1.168 82 86 152
0.0159559 -0.3468 1.169 84 88 154
0.0177713 -0.3468 1.169 84 88 154
0.0195868 -0.3468 1.169 82 86 152
0.021384 -0.346504 1.168 79 82 151
0.023198 -0.346504 1.168 74 77 146
0.0250119 -0.346504 1.168 77 79 151
0.0268259 -0.346504 1.168 77 79 151
0.0286398 -0.346504 1.168 75 79 151
0.0304277 -0.346207 1.167 75 79 151
0.0322124 -0.34591 1.166 73 77 149
0.0340233 -0.34591 1.166 73 77 149
0.0358341 -0.34591 1.166 73 77 149
0.037645 -0.34591 1.166 72 76 148
0.0394558 -0.34591 1.166 65 69 141
0.0412666 -0.34591 1.166 69 73 145
0.0430775 -0.34591 1.166 77 79 151
0.0448883 -0.34591 1.166 74 76 148
0.0467392 -0.346207 1.167 75 75 145
0.0485516 -0.346207 1.167 90 90 160
0.050364 -0.346207 1.167 99 102 171
0.0522211 -0.346504 1.168 95 98 167
0.054035 -0.346504 1.168 93 96 165
0.055849 -0.346504 1.168 95 98 167
0.0576629 -0.346504 1.168 91 91 161
0.0594769 -0.346504 1.168 84 84 154
0.0612383 -0.346207 1.167 74 73 146
0.0630507 -0.346207 1.167 79 78 151
0.0648631 -0.346207 1.167 75 74 148
0.0666755 -0.346207 1.167 77 76 150
0.0684879 -0.346207 1.167 88 90 162
0.0703605 -0.346504 1.168 89 91 163
0.0721745 -0.346504 1.168 113 116 185
0.0739884 -0.346504 1.168 146 149 218
0.0758023 -0.346504 1.168 164 164 234
0.0776827 -0.3468 1.169 123 123 193
0.0795662 -0.347097 1.17 13 16 66
0.0813833 -0.347097 1.17 5 8 58
0.0832715 -0.347394 1.171 14 22 36
0.0850174 -0.347097 1.17 15 23 37
0.0868344 -0.347097 1.17 20 36 21
0.0885757 -0.3468 1.169 20 36 21
0.0904685 -0.347097 1.17 20 38 16
0.0924433 -0.34769 1.172 20 38 16
0.0942635 -0.34769 1.172 20 39 14
0.0961656 -0.347987 1.173 20 39 14
0.0980709 -0.348284 1.174 18 37 12
0.101804 -0.34858 1.175 17 36 11
0.103717 -0.348877 1.176 18 37 12
0.105723 -0.34947 1.178 18 37 12
0.107644 -0.349767 1.179 17 36 11
0.109568 -0.350064 1.18 17 36 11
0.111589 -0.350657 1.182 17 36 11
0.113617 -0.35125 1.184 18 37 12
0.115553 -0.351547 1.185 18 37 12
0.117393 -0.351547 1.185 18 37 12
0.119435 -0.35214 1.187 18 37 12
0.121278 -0.35214 1.187 18 37 12
0.123225 -0.352437 1.188 18 37 12
0.12507 -0.352437 1.188 17 36 11
0.127022 -0.352734 1.189 16 35 10
0.128869 -0.352734 1.189 16 35 10
0.130715 -0.352734 1.189 16 35 10
0.132562 -0.352734 1.189 16 35 10
0.134522 -0.35303 1.19 16 35 10
0.13637 -0.35303 1.19 17 35 13
0.138218 -0.35303 1.19 17 35 13
0.140184 -0.353327 1.191 17 35 13
0.142153 -0.353624 1.192 18 36 14
0.144004 -0.353624 1.192 18 36 14
0.1461 -0.354217 1.194 18 36 14
0.148078 -0.354514 1.195 18 36 14
0.149934 -0.354514 1.195 18 36 14
0.15179 -0.354514 1.195 18 36 14
0.153646 -0.354514 1.195 17 35 13
0.155501 -0.354514 1.195 21 39 17
0.157357 -0.354514 1.195 21 39 17
0.159213 -0.354514 1.195 21 40 15
0.161069 -0.354514 1.195 20 39 14
0.162789 -0.354217 1.194 21 40 15
0.164367 -0.353624 1.192 21 40 15
0.166218 -0.353624 1.192 22 41 16
0.167788 -0.35303 1.19 18 37 12
0.169493 -0.352734 1.189 17 36 11
0.171051 -0.35214 1.187 18 37 12
0.172604 -0.351547 1.185 20 39 14
0.174444 -0.351547 1.185 20 39 14
0.175987 -0.350954 1.183 18 37 12
0.177674 -0.350657 1.182 20 39 14
0.179509 -0.350657 1.182 21 40 15
0.181345 -0.350657 1.182 21 40 15
0.183336 -0.350954 1.183 21 40 15
0.185173 -0.350954 1.183 18 37 12
0.18701 -0.350954 1.183 18 37 12
0.188847 -0.350954 1.183 20 39 14
0.190846 -0.35125 1.184 18 37 12
0.192685 -0.35125 1.184 18 37 12
0.194688 -0.351547 1.185 17 36 11
0.198536 -0.351844 1.186 15 34 9
0.200547 -0.35214 1.187 15 34 9
0.20239 -0.35214 1.187 17 36 11
0.204406 -0.352437 1.188 16 35 10
0.206251 -0.352437 1.188 18 37 12
0.208271 -0.352734 1.189 18 37 12
0.210117 -0.352734 1.189 18 37 12
0.211786 -0.352437 1.188 18 37 12
0.21381 -0.352734 1.189 18 37 12
0.215476 -0.352437 1.188 21 40 15
0.217321 -0.352437 1.188 18 37 12
0.219166 -0.352437 1.188 18 37 12
0.221011 -0.352437 1.188 18 37 12
0.222856 -0.352437 1.188 20 39 14
0.224512 -0.35214 1.187 21 40 15
0.226355 -0.35214 1.187 20 39 14
0.228198 -0.35214 1.187 22 41 16
0.230042 -0.35214 1.187 21 40 15
0.231885 -0.35214 1.187 17 36 11
0.233532 -0.351844 1.186 16 35 10
0.235175 -0.351547 1.185 17 36 11
0.237016 -0.351547 1.185 16 35 10
0.238654 -0.35125 1.184 15 33 11
0.24029 -0.350954 1.183 14 32 10
0.241923 -0.350657 1.182 11 29 7
0.243552 -0.35036 1.181 11 29 7
0.245386 -0.35036 1.181 11 28 8
0.24722 -0.35036 1.181 10 27 7
0.248844 -0.350064 1.18 11 25 8
0.250889 -0.35036 1.181 11 25 8
0.252723 -0.35036 1.181 10 24 7
0.254773 -0.350657 1.182 10 24 7
0.256608 -0.350657 1.182 10 24 7
0.258444 -0.350657 1.182 10 24 7
0.26072 -0.35125 1.184 10 24 7
0.262781 -0.351547 1.185 10 24 7
0.265067 -0.35214 1.187 11 25 10
0.266911 -0.35214 1.187 11 25 10
0.269207 -0.352734 1.189 11 25 10
0.271282 -0.35303 1.19 12 26 11
0.27313 -0.35303 1.19 11 25 10
0.275209 -0.353327 1.191 10 24 9
0.277291 -0.353624 1.192 10 24 9
0.279143 -0.353624 1.192 10 24 9
0.280994 -0.353624 1.192 11 25 10
0.282845 -0.353624 1.192 10 24 9
0.284696 -0.353624 1.192 9 23 8
0.286307 -0.353327 1.191 10 24 9
0.287915 -0.35303 1.19 9 23 8
0.289763 -0.35303 1.19 10 24 9
0.291611 -0.35303 1.19 9 23 8
0.293459 -0.35303 1.19 10 24 9
0.295555 -0.353327 1.191 9 23 8
0.297655 -0.353624 1.192 9 23 8
0.299506 -0.353624 1.192 10 24 7
0.30161 -0.35392 1.193 11 25 8
0.303717 -0.354217 1.194 10 24 7
0.305827 -0.354514 1.195 11 25 8
0.307683 -0.354514 1.195 11 25 8
0.311656 -0.35481 1.196 12 26 9
0.313513 -0.35481 1.196 12 26 9
0.315107 -0.354514 1.195 12 26 9
0.316963 -0.354514 1.195 13 27 10
0.318818 -0.354514 1.195 13 27 10
0.320406 -0.354217 1.194 13 27 10
0.32199 -0.35392 1.193 13 27 10
0.323572 -0.353624 1.192 13 27 10
0.325423 -0.353624 1.192 13 27 10
0.326725 -0.35303 1.19 13 27 10
0.328573 -0.35303 1.19 13 27 10
0.330144 -0.352734 1.189 15 29 12
0.331711 -0.352437 1.188 15 29 12
0.333275 -0.35214 1.187 13 27 10
0.335119 -0.35214 1.187 13 27 10
0.336962 -0.35214 1.187 13 27 10
0.338806 -0.35214 1.187 13 27 10
0.340649 -0.35214 1.187 15 29 12
0.342781 -0.352437 1.188 15 29 12
0.344916 -0.352734 1.189 15 29 12
0.347054 -0.35303 1.19 13 27 10
0.348902 -0.35303 1.19 12 26 9
0.35075 -0.35303 1.19 12 26 11
0.352599 -0.35303 1.19 11 25 10
0.354447 -0.35303 1.19 11 24 11
0.356295 -0.35303 1.19 11 24 11
0.358143 -0.35303 1.19 12 24 14
0.359991 -0.35303 1.19 12 24 14
0.361535 -0.352734 1.189 12 24 14
0.363382 -0.352734 1.189 8 20 10
0.364921 -0.352437 1.188 13 20 16
0.366457 -0.35214 1.187 40 47 43
0.368301 -0.35214 1.187 41 47 46
0.370144 -0.35214 1.187 34 40 39
0.371674 -0.351844 1.186 34 40 39
0.373201 -0.351547 1.185 35 41 40
0.375042 -0.351547 1.185 34 42 44
0.376882 -0.351547 1.185 34 42 44
0.378403 -0.35125 1.184 32 42 44
0.37992 -0.350954 1.183 32 42 44
0.381435 -0.350657 1.182 31 41 43
0.383271 -0.350657 1.182 32 42 44
-0.156913 -0.330522 1.12 160 165 249
-0.155313 -0.330818 1.121 154 159 243
-0.153572 -0.330818 1.121 159 163 250
-0.152102 -0.331408 1.123 159 163 250
-0.150491 -0.331703 1.124 158 162 249
-0.148878 -0.331998 1.125 151 155 242
-0.147131 -0.331998 1.125 150 154 241
-0.145642 -0.332588 1.127 154 158 245
-0.143892 -0.332588 1.127 156 160 247
-0.142268 -0.332883 1.128 156 160 247
-0.140641 -0.333178 1.129 157 161 248
-0.138887 -0.333178 1.129 157 161 248
-0.137134 -0.333178 1.129 158 162 249
-0.1355 -0.333474 1.13 158 162 249
-0.133745 -0.333474 1.13 158 162 249
-0.132107 -0.333769 1.131 158 162 249
-0.130466 -0.334064 1.132 158 162 249
-0.128708 -0.334064 1.132 157 161 248
-0.127062 -0.334359 1.133 157 161 248
-0.125413 -0.334654 1.134 158 162 249
-0.123652 -0.334654 1.134 159 162 251
-0.121998 -0.334949 1.135 159 162 251
-0.120342 -0.335244 1.136 160 164 251
-0.118577 -0.335244 1.136 160 164 251
-0.117019 -0.335834 1.138 159 163 250
-0.115251 -0.335834 1.138 159 163 250
-0.113584 -0.33613 1.139 159 164 248
-0.111913 -0.336425 1.14 160 165 249
-0.110239 -0.33672 1.141 166 171 254
-0.108562 -0.337015 1.142 168 173 255
-0.106976 -0.337605 1.144 173 176 255
-0.105291 -0.3379 1.145 169 172 255
-0.103603 -0.338195 1.146 169 169 253
-0.101912 -0.33849 1.147 161 161 245
-0.100305 -0.339081 1.149 153 153 237
-0.096905 -0.339671 1.151 164 166 244
-0.0952001 -0.339966 1.152 175 177 255
-0.0934921 -0.340261 1.153 175 177 255
-0.091781 -0.340556 1.154 176 178 255
-0.0899888 -0.340556 1.154 177 179 255
-0.088273 -0.340851 1.155 167 169 247
-0.0864792 -0.340851 1.155 155 155 233
-0.0847588 -0.341146 1.156 130 130 208
-0.0829635 -0.341146 1.156 116 114 198
-0.0812384 -0.341441 1.157 110 108 192
-0.0795102 -0.341737 1.158 110 108 192
-0.0777118 -0.341737 1.158 107 105 189
-0.0760445 -0.342327 1.16 115 117 195
-0.074243 -0.342327 1.16 143 145 223
-0.0725663 -0.342917 1.162 169 175 250
-0.0708835 -0.343507 1.164 180 186 255
-0.0691351 -0.343802 1.165 181 188 255
-0.0674414 -0.344393 1.167 182 189 255
-0.0657415 -0.344983 1.169 177 184 255
-0.0640354 -0.345573 1.171 175 182 254
-0.062323 -0.346163 1.173 177 181 253
-0.0606045 -0.346753 1.175 176 180 252
-0.0588297 -0.347049 1.176 169 173 245
-0.0571003 -0.347639 1.178 170 174 246
-0.0552708 -0.347639 1.178 188 192 255
-0.0534867 -0.347934 1.179 188 192 255
-0.0516995 -0.348229 1.18 178 179 255
-0.0498246 -0.347934 1.179 146 147 223
-0.0479936 -0.347934 1.179 80 81 157
-0.0461626 -0.347934 1.179 58 59 135
-0.044294 -0.347639 1.178 63 64 145
-0.0424645 -0.347639 1.178 63 64 145
-0.040635 -0.347639 1.178 62 65 141
-0.0388055 -0.347639 1.178 63 66 142
-0.0369447 -0.347344 1.177 69 72 148
-0.0351167 -0.347344 1.177 63 66 142
-0.0332888 -0.347344 1.177 63 69 144
-0.0314342 -0.347049 1.176 73 79 154
-0.0296078 -0.347049 1.176 82 88 163
-0.0277578 -0.346753 1.175 77 83 158
-0.025933 -0.346753 1.175 76 83 155
-0.0241082 -0.346753 1.175 75 82 154
-0.0222644 -0.346458 1.174 67 74 145
-0.0204411 -0.346458 1.174 75 82 153
-0.018602 -0.346163 1.173 90 96 162
-0.0167803 -0.346163 1.173 92 98 164
-0.0149586 -0.346163 1.173 85 91 157
-0.0131369 -0.346163 1.173 84 90 156
-0.0113055 -0.345868 1.172 85 91 157
-0.00947729 -0.345573 1.171 85 91 157
-0.00765869 -0.345573 1.171 85 91 157
-0.00584009 -0.345573 1.171 86 92 158
-0.00401805 -0.345278 1.17 82 88 154
-0.002201 -0.345278 1.17 75 81 147
-0.000383621 -0.344983 1.169 91 96 165
0.00143188 -0.344983 1.169 78 83 152
0.00324459 -0.344688 1.168 75 77 149
0.00505854 -0.344688 1.168 68 70 142
0.00687248 -0.344688 1.168 68 71 140
0.00868643 -0.344688 1.168 80 83 152
0.0105004 -0.344688 1.168 88 91 160
0.0123143 -0.344688 1.168 84 87 156
0.0141283 -0.344688 1.168 82 85 154
0.0159422 -0.344688 1.168 84 87 156
0.0177713 -0.344983 1.169 84 87 156
0.0195701 -0.344688 1.168 82 85 154
0.021384 -0.344688 1.168 82 85 154
0.023198 -0.344688 1.168 72 75 144
0.0250119 -0.344688 1.168 73 75 147
0.0268259 -0.344688 1.168 78 80 152
0.0286398 -0.344688 1.168 78 80 152
0.0304538 -0.344688 1.168 75 77 149
0.0322677 -0.344688 1.168 73 75 147
0.0340525 -0.344393 1.167 72 74 146
0.0358649 -0.344393 1.167 72 74 146
0.0376772 -0.344393 1.167 71 73 145
0.0394896 -0.344393 1.167 73 75 147
0.041302 -0.344393 1.167 77 79 151
0.0431144 -0.344393 1.167 81 83 155
0.0449268 -0.344393 1.167 80 82 154
0.0467792 -0.344688 1.168 79 79 149
0.0485932 -0.344688 1.168 95 95 165
0.0504071 -0.344688 1.168 93 96 165
0.0522211 -0.344688 1.168 91 94 163
0.054035 -0.344688 1.168 92 95 164
0.055849 -0.344688 1.168 94 97 166
0.0576629 -0.344688 1.168 89 89 159
0.0594769 -0.344688 1.168 83 83 153
0.0612383 -0.344393 1.167 74 74 144
0.0630507 -0.344393 1.167 73 73 143
0.0648631 -0.344393 1.167 74 73 146
0.0666755 -0.344393 1.167 98 97 170
0.0685466 -0.344688 1.168 98 100 172
0.0703605 -0.344688 1.168 94 96 168
0.0721745 -0.344688 1.168 120 122 194
0.0740517 -0.344983 1.169 146 148 220
0.0758672 -0.344983 1.169 164 165 232
0.0776827 -0.344983 1.169 119 120 187
0.0795662 -0.345278 1.17 15 16 63
0.0813137 -0.344983 1.169 9 10 57
0.0831292 -0.344983 1.169 16 25 36
0.0849447 -0.344983 1.169 15 24 35
0.0867602 -0.344983 1.169 18 36 19
0.0885 -0.344688 1.168 16 34 17
0.0903912 -0.344983 1.169 20 38 16
0.0923645 -0.345573 1.171 20 38 16
0.0941831 -0.345573 1.171 20 39 14
0.0961656 -0.346163 1.173 20 39 14
0.0979873 -0.346163 1.173 18 37 12
0.101804 -0.346753 1.175 17 36 11
0.105723 -0.347639 1.178 18 37 12
0.107552 -0.347639 1.178 18 37 12
0.109568 -0.348229 1.18 17 36 11
0.111495 -0.348524 1.181 17 36 11
0.113425 -0.348819 1.182 20 39 14
0.115358 -0.349114 1.183 21 40 15
0.117393 -0.349705 1.185 21 40 15
0.119234 -0.349705 1.185 21 40 15
0.121176 -0.35 1.186 21 40 15
0.123122 -0.350295 1.187 20 39 14
0.124965 -0.350295 1.187 18 37 12
0.126915 -0.35059 1.188 17 36 11
0.128869 -0.350885 1.189 17 36 11
0.130715 -0.350885 1.189 18 37 12
0.132562 -0.350885 1.189 17 36 11
0.134522 -0.35118 1.19 17 36 11
0.13637 -0.35118 1.19 17 36 11
0.138218 -0.35118 1.19 17 36 11
0.140184 -0.351475 1.191 18 37 12
0.142153 -0.35177 1.192 20 39 14
0.144004 -0.35177 1.192 20 39 14
0.145977 -0.352065 1.193 20 39 14
0.147954 -0.352361 1.194 17 36 11
0.149934 -0.352656 1.195 17 36 11
0.15179 -0.352656 1.195 17 36 11
0.153646 -0.352656 1.195 17 36 11
0.155501 -0.352656 1.195 21 40 15
0.157357 -0.352656 1.195 21 40 15
0.159213 -0.352656 1.195 20 39 14
0.161069 -0.352656 1.195 20 39 14
0.162925 -0.352656 1.195 20 39 14
0.164505 -0.352065 1.193 20 39 14
0.166218 -0.35177 1.192 21 41 14
0.167788 -0.35118 1.19 18 38 11
0.169493 -0.350885 1.189 17 37 10
0.171051 -0.350295 1.187 21 41 14
0.172604 -0.349705 1.185 20 40 13
0.174297 -0.349409 1.184 21 41 14
0.175838 -0.348819 1.182 20 40 13
0.177674 -0.348819 1.182 20 40 13
0.179509 -0.348819 1.182 20 40 13
0.181345 -0.348819 1.182 20 40 13
0.183181 -0.348819 1.182 20 40 13
0.185173 -0.349114 1.183 17 37 10
0.18701 -0.349114 1.183 18 38 11
0.189007 -0.349409 1.184 20 40 13
0.192847 -0.349705 1.185 18 38 11
0.194688 -0.349705 1.185 18 38 11
0.196694 -0.35 1.186 18 38 11
0.198703 -0.350295 1.187 18 38 11
0.200716 -0.35059 1.188 18 38 11
0.202731 -0.350885 1.189 18 38 11
0.20475 -0.35118 1.19 17 37 10
0.206598 -0.35118 1.19 18 37 12
0.208446 -0.35118 1.19 17 36 11
0.210294 -0.35118 1.19 18 37 12
0.212142 -0.35118 1.19 18 37 12
0.21399 -0.35118 1.19 20 39 14
0.215838 -0.35118 1.19 21 40 15
0.217687 -0.35118 1.19 21 40 15
0.219535 -0.35118 1.19 20 39 14
0.221383 -0.35118 1.19 21 40 15
0.223231 -0.35118 1.19 22 41 16
0.225079 -0.35118 1.19 22 41 16
0.226927 -0.35118 1.19 18 37 12
0.228775 -0.35118 1.19 20 39 14
0.23043 -0.350885 1.189 20 39 14
0.232081 -0.35059 1.188 17 36 11
0.233729 -0.350295 1.187 15 34 9
0.235572 -0.350295 1.187 17 36 11
0.237216 -0.35 1.186 16 35 10
0.238856 -0.349705 1.185 15 34 9
0.240493 -0.349409 1.184 14 33 8
0.242127 -0.349114 1.183 13 31 9
0.243758 -0.348819 1.182 11 29 7
0.245594 -0.348819 1.182 11 28 8
0.24722 -0.348524 1.181 10 27 7
0.249055 -0.348524 1.181 11 25 8
0.250889 -0.348524 1.181 11 25 8
0.252723 -0.348524 1.181 10 24 7
0.254773 -0.348819 1.182 11 25 8
0.256608 -0.348819 1.182 10 24 7
0.258663 -0.349114 1.183 10 24 7
0.26072 -0.349409 1.184 10 24 9
0.262781 -0.349705 1.185 10 24 9
0.265067 -0.350295 1.187 11 25 10
0.267136 -0.35059 1.188 11 25 10
0.269207 -0.350885 1.189 14 25 11
0.271282 -0.35118 1.19 14 25 11
0.273359 -0.351475 1.191 12 26 11
0.27544 -0.35177 1.192 13 27 12
0.277291 -0.35177 1.192 12 26 11
0.279143 -0.35177 1.192 11 25 10
0.281229 -0.352065 1.193 11 25 10
0.283082 -0.352065 1.193 11 25 10
0.284696 -0.35177 1.192 11 25 10
0.286547 -0.35177 1.192 11 25 10
0.288399 -0.35177 1.192 10 24 9
0.290006 -0.351475 1.191 9 23 8
0.292101 -0.35177 1.192 11 25 10
0.293952 -0.35177 1.192 11 25 10
0.295803 -0.35177 1.192 11 25 10
0.297655 -0.35177 1.192 12 26 11
0.299757 -0.352065 1.193 10 24 7
0.301863 -0.352361 1.194 10 24 7
0.303971 -0.352656 1.195 10 24 7
0.305827 -0.352656 1.195 10 24 7
0.307683 -0.352656 1.195 11 25 8
0.309539 -0.352656 1.195 12 26 9
0.311395 -0.352656 1.195 12 26 9
0.313251 -0.352656 1.195 12 26 9
0.315107 -0.352656 1.195 12 26 9
0.316697 -0.352361 1.194 13 27 10
0.318552 -0.352361 1.194 13 27 10
0.319869 -0.35177 1.192 16 30 13
0.321721 -0.35177 1.192 15 29 12
0.3233 -0.351475 1.191 16 30 13
0.324877 -0.35118 1.19 16 30 13
0.326725 -0.35118 1.19 16 30 13
0.328021 -0.35059 1.188 14 30 13
0.329588 -0.350295 1.187 14 30 13
0.331432 -0.350295 1.187 13 29 12
0.333275 -0.350295 1.187 13 29 12
0.335119 -0.350295 1.187 13 29 12
0.336962 -0.350295 1.187 14 30 13
0.338806 -0.350295 1.187 14 30 13
0.340649 -0.350295 1.187 14 30 13
0.342492 -0.350295 1.187 14 30 13
0.344626 -0.35059 1.188 13 29 12
0.346763 -0.350885 1.189 13 29 12
0.348609 -0.350885 1.189 11 27 10
0.35075 -0.35118 1.19 10 25 12
0.352599 -0.35118 1.19 9 24 11
0.354447 -0.35118 1.19 11 23 13
0.356295 -0.35118 1.19 15 27 17
0.357842 -0.350885 1.189 15 28 15
0.359689 -0.350885 1.189 15 28 15
0.361231 -0.35059 1.188 12 24 14
0.36277 -0.350295 1.187 9 21 11
0.364614 -0.350295 1.187 12 19 15
0.366457 -0.350295 1.187 40 47 43
0.36799 -0.35 1.186 40 46 45
0.369521 -0.349705 1.185 35 41 40
0.371361 -0.349705 1.185 36 42 41
0.373201 -0.349705 1.185 36 42 41
0.375042 -0.349705 1.185 34 43 42
0.376564 -0.349409 1.184 33 42 41
0.378083 -0.349114 1.183 33 41 43
0.379599 -0.348819 1.182 32 40 42
0.381435 -0.348819 1.182 31 41 43
0.383271 -0.348819 1.182 36 46 48
-0.156913 -0.328781 1.12 163 168 251
-0.155313 -0.329075 1.121 161 166 249
-0.153572 -0.329075 1.121 164 169 253
-0.152102 -0.329662 1.123 164 169 253
-0.150491 -0.329955 1.124 161 166 250
-0.148878 -0.330249 1.125 156 161 245
-0.147262 -0.330542 1.126 151 156 240
-0.145642 -0.330836 1.127 163 168 252
-0.14402 -0.331129 1.128 166 170 255
-0.142268 -0.331129 1.128 158 162 249
-0.140641 -0.331423 1.129 156 160 247
-0.138887 -0.331423 1.129 157 161 248
-0.137134 -0.331423 1.129 158 162 249
-0.1355 -0.331717 1.13 157 161 248
-0.133864 -0.33201 1.131 157 161 248
-0.132107 -0.33201 1.131 158 162 249
-0.130466 -0.332304 1.132 159 163 250
-0.128822 -0.332597 1.133 159 163 250
-0.127062 -0.332597 1.133 159 163 250
-0.125303 -0.332597 1.133 159 163 250
-0.123652 -0.332891 1.134 160 164 251
-0.121891 -0.332891 1.134 160 164 251
-0.120236 -0.333184 1.135 161 165 252
-0.118577 -0.333478 1.136 161 165 252
-0.116916 -0.333771 1.137 161 166 250
-0.115251 -0.334065 1.138 161 166 250
-0.113584 -0.334359 1.139 167 172 255
-0.111913 -0.334652 1.14 166 171 255
-0.110239 -0.334946 1.141 167 172 255
-0.108562 -0.335239 1.142 167 172 255
-0.106976 -0.335826 1.144 167 172 255
-0.105291 -0.33612 1.145 166 171 254
-0.103603 -0.336413 1.146 167 170 253
-0.101912 -0.336707 1.147 159 162 245
-0.100305 -0.337294 1.149 156 159 242
-0.096905 -0.337881 1.151 167 169 247
-0.0952001 -0.338175 1.152 178 180 255
-0.0934921 -0.338468 1.153 179 181 255
-0.091781 -0.338762 1.154 169 171 249
-0.0899888 -0.338762 1.154 175 178 254
-0.088273 -0.339055 1.155 170 173 249
-0.0865541 -0.339349 1.156 160 162 240
-0.0847588 -0.339349 1.156 135 137 215
-0.0829635 -0.339349 1.156 113 111 195
-0.0812384 -0.339643 1.157 112 110 194
-0.0795102 -0.339936 1.158 108 106 190
-0.0777118 -0.339936 1.158 105 103 187
-0.0760445 -0.340523 1.16 127 129 207
-0.074307 -0.340817 1.161 170 172 250
-0.0725663 -0.34111 1.162 179 185 255
-0.0708835 -0.341697 1.164 180 186 255
-0.0691351 -0.341991 1.165 177 181 254
-0.0674414 -0.342578 1.167 178 182 255
-0.0656853 -0.342872 1.168 178 182 254
-0.0640354 -0.343752 1.171 178 182 254
-0.0622699 -0.344046 1.172 184 188 255
-0.0605529 -0.344633 1.174 178 182 254
-0.0587797 -0.344926 1.175 172 176 248
-0.0570033 -0.34522 1.176 181 185 255
-0.0552239 -0.345514 1.177 189 193 255
-0.053396 -0.345514 1.177 155 159 232
