ply
format ascii 1.0
comment Created by Open3D
element vertex 1365
property double x
property double y
property double z
property uchar red
property uchar green
property uchar blue
end_header
0.0142088 -0.108117 1.041 99 129 166
0.0158255 -0.108117 1.041 99 129 166
0.0174422 -0.108117 1.041 94 124 161
0.0190589 -0.108117 1.041 98 128 165
0.0206756 -0.108117 1.041 94 124 161
0.0222923 -0.108117 1.041 95 125 162
0.023909 -0.108117 1.041 96 126 163
0.0255257 -0.108117 1.041 101 131 168
0.0271424 -0.108117 1.041 99 129 166
0.0287591 -0.108117 1.041 91 121 158
0.0303758 -0.108117 1.041 77 107 144
0.0319926 -0.108117 1.041 72 102 139
0.0336093 -0.108117 1.041 74 104 141
0.035226 -0.108117 1.041 77 106 145
0.0368427 -0.108117 1.041 79 108 147
0.0384594 -0.108117 1.041 84 113 152
0.0400761 -0.108117 1.041 79 108 147
0.0416928 -0.108117 1.041 76 101 144
0.0433095 -0.108117 1.041 72 97 140
0.0449262 -0.108117 1.041 72 97 140
0.0465429 -0.108117 1.041 74 99 142
0.0481596 -0.108117 1.041 82 108 148
0.0497763 -0.108117 1.041 91 117 157
0.0513931 -0.108117 1.041 100 126 166
0.0546789 -0.108221 1.042 93 119 159
0.0562972 -0.108221 1.042 94 120 160
0.0579155 -0.108221 1.042 93 119 159
0.0595337 -0.108221 1.042 89 115 155
0.061152 -0.108221 1.042 102 128 168
0.0627703 -0.108221 1.042 110 136 176
0.0643885 -0.108221 1.042 103 131 173
0.0660701 -0.108325 1.043 94 122 164
0.0676899 -0.108325 1.043 84 109 152
0.0693098 -0.108325 1.043 83 108 151
0.0709296 -0.108325 1.043 89 115 155
0.0725494 -0.108325 1.043 90 116 156
0.0758617 -0.108429 1.044 100 127 165
0.0775573 -0.108533 1.045 95 123 158
0.079256 -0.108637 1.046 95 123 158
0.0808804 -0.108637 1.046 101 129 164
0.0825049 -0.108637 1.046 100 128 163
0.0842098 -0.10874 1.047 88 116 151
0.0858358 -0.10874 1.047 98 126 161
0.0874619 -0.10874 1.047 103 131 166
0.0890879 -0.10874 1.047 102 130 165
0.0908005 -0.108844 1.048 102 131 164
0.0924281 -0.108844 1.048 105 134 167
0.0940557 -0.108844 1.048 108 137 170
0.0957746 -0.108948 1.049 103 132 165
0.0974037 -0.108948 1.049 98 127 160
0.0990329 -0.108948 1.049 100 129 162
0.100662 -0.108948 1.049 102 131 164
0.102389 -0.109052 1.05 102 131 164
0.104019 -0.109052 1.05 101 130 163
0.10565 -0.109052 1.05 102 131 164
0.107383 -0.109156 1.051 105 133 168
0.109015 -0.109156 1.051 102 130 165
0.110753 -0.10926 1.052 96 127 161
0.112386 -0.10926 1.052 99 130 164
0.114129 -0.109364 1.053 100 130 167
0.115984 -0.109571 1.055 99 129 166
0.117734 -0.109675 1.056 93 125 162
0.119487 -0.109779 1.057 85 117 154
0.121128 -0.109779 1.057 72 102 139
0.12277 -0.109779 1.057 67 97 134
0.124176 -0.109571 1.055 66 97 131
0.125576 -0.109364 1.053 53 84 118
0.127091 -0.10926 1.052 54 81 112
0.128113 -0.10874 1.047 58 85 116
0.129243 -0.108325 1.043 57 79 111
0.130612 -0.108117 1.041 52 74 106
0.131847 -0.107806 1.038 44 69 93
0.133074 -0.107494 1.035 29 54 78
0.134681 -0.107494 1.035 27 50 66
0.136157 -0.10739 1.034 30 53 69
0.137763 -0.10739 1.034 31 55 61
0.139369 -0.10739 1.034 24 48 54
0.173855 -0.122658 1.181 37 64 29
0.175689 -0.122658 1.181 34 61 26
0.177674 -0.122761 1.182 34 61 26
0.179509 -0.122761 1.182 37 64 29
0.181345 -0.122761 1.182 38 65 30
0.183181 -0.122761 1.182 38 65 30
0.185016 -0.122761 1.182 39 66 31
0.18701 -0.122865 1.183 37 64 29
0.189167 -0.123073 1.185 37 64 29
0.191007 -0.123073 1.185 37 61 27
0.19301 -0.123177 1.186 37 61 27
0.194852 -0.123177 1.186 36 60 26
0.19686 -0.123281 1.187 39 63 29
0.198703 -0.123281 1.187 39 63 29
0.200716 -0.123385 1.188 39 63 29
0.202731 -0.123488 1.189 36 60 26
0.20475 -0.123592 1.19 39 63 29
0.206771 -0.123696 1.191 40 64 30
0.208796 -0.1238 1.192 40 64 30
0.210648 -0.1238 1.192 40 64 30
0.212499 -0.1238 1.192 39 63 29
0.21435 -0.1238 1.192 39 63 29
0.216201 -0.1238 1.192 40 64 30
0.218052 -0.1238 1.192 49 73 39
0.219904 -0.1238 1.192 47 71 37
0.221755 -0.1238 1.192 40 64 30
0.223606 -0.1238 1.192 40 64 30
0.225268 -0.123696 1.191 40 64 30
0.226927 -0.123592 1.19 40 64 30
0.228775 -0.123592 1.19 41 63 29
0.230236 -0.123385 1.188 39 61 27
0.231885 -0.123281 1.187 37 59 25
0.233729 -0.123281 1.187 37 59 25
0.235175 -0.123073 1.185 33 57 23
0.237016 -0.123073 1.185 32 56 22
0.238654 -0.122969 1.184 32 56 22
0.24029 -0.122865 1.183 33 57 23
0.242127 -0.122865 1.183 27 50 18
0.244171 -0.122969 1.184 25 48 16
0.246217 -0.123073 1.185 20 42 13
0.248058 -0.123073 1.185 22 44 15
0.252163 -0.123281 1.187 20 42 13
0.254221 -0.123385 1.188 19 41 14
0.256497 -0.123592 1.19 19 41 14
0.258562 -0.123696 1.191 19 41 14
0.260849 -0.123904 1.193 18 40 13
0.263142 -0.124112 1.195 16 38 11
0.265442 -0.124319 1.197 16 38 11
0.267747 -0.124527 1.199 16 38 11
0.269834 -0.124631 1.2 18 40 13
0.271924 -0.124735 1.201 19 41 14
0.274017 -0.124839 1.202 19 41 14
0.275884 -0.124839 1.202 18 40 13
0.277751 -0.124839 1.202 19 41 14
0.279385 -0.124735 1.201 20 42 15
0.281016 -0.124631 1.2 20 42 15
0.28288 -0.124631 1.2 20 42 15
0.284506 -0.124527 1.199 20 42 15
0.286129 -0.124423 1.198 20 41 16
0.287509 -0.124216 1.196 20 41 16
0.289124 -0.124112 1.195 20 41 16
0.290737 -0.124008 1.194 20 41 16
0.292101 -0.1238 1.192 20 41 16
0.293952 -0.1238 1.192 19 40 15
0.295803 -0.1238 1.192 19 40 15
0.297155 -0.123592 1.19 19 40 15
0.299003 -0.123592 1.19 19 40 15
0.300852 -0.123592 1.19 19 40 15
0.3027 -0.123592 1.19 20 41 16
0.304548 -0.123592 1.19 20 41 16
0.308503 -0.123696 1.191 20 41 16
0.310613 -0.1238 1.192 19 40 15
0.312464 -0.1238 1.192 19 40 15
0.314316 -0.1238 1.192 19 40 15
0.316432 -0.123904 1.193 20 41 16
0.318285 -0.123904 1.193 21 41 19
0.320406 -0.124008 1.194 20 40 18
0.32226 -0.124008 1.194 22 40 18
0.324115 -0.124008 1.194 22 40 18
0.325969 -0.124008 1.194 21 39 17
0.327823 -0.124008 1.194 23 41 19
0.329678 -0.124008 1.194 24 42 20
0.331532 -0.124008 1.194 24 42 20
0.333107 -0.123904 1.193 27 45 23
0.33496 -0.123904 1.193 27 45 23
0.336813 -0.123904 1.193 28 47 22
0.338381 -0.1238 1.192 27 46 21
0.340233 -0.1238 1.192 25 44 19
0.342084 -0.1238 1.192 27 46 21
0.343647 -0.123696 1.191 29 48 23
0.345206 -0.123592 1.19 37 56 31
0.346763 -0.123488 1.189 55 71 49
0.348316 -0.123385 1.188 57 73 51
0.349866 -0.123281 1.187 53 69 47
0.351117 -0.123073 1.185 29 45 23
0.352957 -0.123073 1.185 33 49 27
0.354199 -0.122865 1.183 33 49 27
0.355735 -0.122761 1.182 32 46 29
0.356966 -0.122554 1.18 30 44 27
0.35819 -0.122346 1.178 27 40 27
0.359714 -0.122242 1.177 26 39 26
0.360928 -0.122034 1.175 26 38 28
0.361518 -0.121619 1.171 24 36 26
0.363026 -0.121515 1.17 26 38 28
0.361413 -0.120373 1.159 19 31 21
0.361333 -0.11975 1.153 18 29 21
0.361234 -0.119126 1.147 29 40 32
0.361432 -0.118607 1.142 98 108 103
0.361298 -0.117984 1.136 98 108 103
0.361784 -0.117569 1.132 104 113 112
0.362578 -0.117257 1.129 116 125 124
0.363041 -0.116842 1.125 112 115 123
0.364788 -0.116842 1.125 48 51 59
-0.165039 -0.120514 1.178 5 14 5
-0.163487 -0.120719 1.18 6 15 6
-0.161928 -0.120924 1.182 6 15 6
-0.160363 -0.121128 1.184 5 14 5
-0.158792 -0.121333 1.186 5 14 5
-0.157083 -0.121435 1.187 5 14 5
-0.15537 -0.121537 1.188 7 16 7
-0.153654 -0.12164 1.189 8 17 8
-0.151808 -0.12164 1.189 10 20 8
-0.149961 -0.12164 1.189 11 21 9
-0.148115 -0.12164 1.189 13 23 11
-0.146268 -0.12164 1.189 17 27 15
-0.1443 -0.121537 1.188 15 25 13
-0.142455 -0.121537 1.188 17 27 15
-0.140492 -0.121435 1.187 20 31 17
-0.138648 -0.121435 1.187 20 31 17
-0.136805 -0.121435 1.187 19 30 16
-0.134961 -0.121435 1.187 19 30 16
-0.133118 -0.121435 1.187 19 30 16
-0.131275 -0.121435 1.187 19 30 16
-0.129431 -0.121435 1.187 19 30 16
-0.127588 -0.121435 1.187 18 29 15
-0.125744 -0.121435 1.187 17 28 14
-0.124005 -0.121537 1.188 17 28 14
-0.12216 -0.121537 1.188 19 30 16
-0.120315 -0.121537 1.188 15 26 12
-0.11857 -0.12164 1.189 15 26 12
-0.116723 -0.12164 1.189 15 26 12
-0.114877 -0.12164 1.189 17 28 14
-0.112935 -0.121537 1.188 19 30 16
-0.11109 -0.121537 1.188 19 30 14
-0.109153 -0.121435 1.187 19 30 14
-0.107219 -0.121333 1.186 18 29 13
-0.1052 -0.121128 1.184 18 29 13
-0.103186 -0.120924 1.182 18 29 13
-0.101265 -0.120821 1.181 18 29 13
-0.0992624 -0.120617 1.179 15 26 10
-0.0973487 -0.120514 1.178 14 25 9
-0.0954381 -0.120412 1.177 14 25 9
-0.0935307 -0.12031 1.176 15 26 10
-0.0916263 -0.120207 1.175 14 25 9
-0.0897251 -0.120105 1.174 13 24 8
-0.087827 -0.120003 1.173 13 24 8
-0.0860053 -0.120003 1.173 12 23 7
-0.0841835 -0.120003 1.173 12 23 7
-0.0823618 -0.120003 1.173 12 23 7
-0.0805401 -0.120003 1.173 13 24 8
-0.0787855 -0.120105 1.174 12 23 7
-0.0769623 -0.120105 1.174 12 23 7
-0.075203 -0.120207 1.175 12 23 7
-0.0733157 -0.120105 1.174 12 23 7
-0.0714316 -0.120003 1.173 11 22 6
-0.0696099 -0.120003 1.173 11 22 8
-0.0676726 -0.119798 1.171 10 21 7
-0.0657977 -0.119696 1.17 11 21 9
-0.0638713 -0.119491 1.168 11 21 9
-0.061898 -0.119184 1.165 11 20 11
-0.0599855 -0.11898 1.163 11 20 11
-0.0580293 -0.118673 1.16 11 20 11
-0.0559369 -0.118059 1.154 12 21 12
-0.054004 -0.117752 1.151 12 21 12
-0.052035 -0.117343 1.147 13 22 13
-0.050166 -0.117138 1.145 12 20 13
-0.048261 -0.116831 1.142 13 21 14
-0.0463653 -0.116525 1.139 10 19 23
-0.0444007 -0.116013 1.134 7 16 20
-0.0363576 -0.107829 1.054 63 80 108
-0.034589 -0.107419 1.05 63 80 108
-0.0329269 -0.107317 1.049 45 63 88
-0.0312381 -0.107113 1.047 53 71 96
-0.0295838 -0.10701 1.046 116 136 168
-0.0279593 -0.10701 1.046 85 105 137
-0.0263348 -0.10701 1.046 55 73 112
-0.0247104 -0.10701 1.046 38 56 95
-0.0230859 -0.10701 1.046 19 39 85
-0.0214614 -0.10701 1.046 16 36 82
-0.0198369 -0.10701 1.046 24 47 90
-0.0182125 -0.10701 1.046 64 87 130
-0.016588 -0.10701 1.046 102 132 169
-0.0149492 -0.106908 1.045 110 140 177
-0.0133263 -0.106908 1.045 106 136 173
-0.0116922 -0.106806 1.044 94 124 161
-0.0100708 -0.106806 1.044 87 117 154
-0.00844944 -0.106806 1.044 75 105 142
-0.00682807 -0.106806 1.044 77 107 144
-0.00520172 -0.106703 1.043 88 118 155
-0.0035819 -0.106703 1.043 92 121 160
-0.00196209 -0.106703 1.043 92 121 160
-0.000342273 -0.106703 1.043 88 118 155
0.00127754 -0.106703 1.043 88 118 155
0.00289458 -0.106601 1.042 89 119 156
0.00451284 -0.106601 1.042 89 119 156
0.0061311 -0.106601 1.042 101 131 168
0.00774936 -0.106601 1.042 101 131 168
0.00935863 -0.106499 1.041 93 123 160
0.0109753 -0.106499 1.041 81 111 148
0.0125921 -0.106499 1.041 87 117 154
0.0142088 -0.106499 1.041 91 121 158
0.0158255 -0.106499 1.041 88 118 155
0.0174422 -0.106499 1.041 84 114 151
0.0190589 -0.106499 1.041 93 125 162
0.0206756 -0.106499 1.041 91 123 160
0.0222923 -0.106499 1.041 85 116 155
0.023909 -0.106499 1.041 79 110 149
0.0255257 -0.106499 1.041 80 111 150
0.0271424 -0.106499 1.041 80 111 150
0.0287591 -0.106499 1.041 77 108 147
0.0303758 -0.106499 1.041 72 103 142
0.0319926 -0.106499 1.041 71 102 141
0.0336093 -0.106499 1.041 69 100 139
0.035226 -0.106499 1.041 77 106 145
0.0368427 -0.106499 1.041 88 117 156
0.0384594 -0.106499 1.041 98 127 166
0.0400761 -0.106499 1.041 95 124 163
0.0416928 -0.106499 1.041 75 100 143
0.0433095 -0.106499 1.041 72 97 140
0.0449262 -0.106499 1.041 74 99 142
0.0465429 -0.106499 1.041 80 105 148
0.0481596 -0.106499 1.041 87 113 153
0.0497763 -0.106499 1.041 101 127 167
0.0513931 -0.106499 1.041 101 127 167
0.0546789 -0.106601 1.042 94 120 160
0.0562972 -0.106601 1.042 94 120 160
0.0579155 -0.106601 1.042 90 116 156
0.0595337 -0.106601 1.042 93 119 159
0.061152 -0.106601 1.042 108 134 174
0.0627703 -0.106601 1.042 110 136 176
0.0643885 -0.106601 1.042 98 126 168
0.0660068 -0.106601 1.042 81 109 151
0.0676899 -0.106703 1.043 78 106 148
0.0693098 -0.106703 1.043 80 108 150
0.0709296 -0.106703 1.043 87 113 153
0.0725494 -0.106703 1.043 91 117 157
0.0758617 -0.106806 1.044 95 121 161
0.077483 -0.106806 1.044 94 121 159
0.0808031 -0.106908 1.045 99 129 166
0.0825049 -0.10701 1.046 100 130 167
0.0841294 -0.10701 1.046 84 114 151
0.0857538 -0.10701 1.046 101 131 168
0.0874619 -0.107113 1.047 101 131 168
0.0890879 -0.107113 1.047 101 131 168
0.0907139 -0.107113 1.047 102 133 167
0.0923399 -0.107113 1.047 102 133 167
0.093966 -0.107113 1.047 102 133 167
0.0956833 -0.107215 1.048 102 133 167
0.0973109 -0.107215 1.048 96 128 160
0.0989384 -0.107215 1.048 96 128 160
0.100566 -0.107215 1.048 100 132 164
0.102194 -0.107215 1.048 102 134 166
0.103821 -0.107215 1.048 102 134 166
0.105449 -0.107215 1.048 105 137 169
0.107076 -0.107215 1.048 102 133 167
0.108808 -0.107317 1.049 101 132 166
0.110437 -0.107317 1.049 101 132 166
0.112066 -0.107317 1.049 102 133 167
0.113803 -0.107419 1.05 100 131 165
0.115544 -0.107522 1.051 94 125 159
0.117176 -0.107522 1.051 95 126 160
0.118809 -0.107522 1.051 98 129 163
0.120555 -0.107624 1.052 96 127 161
0.122073 -0.107522 1.051 95 126 160
0.12347 -0.107317 1.049 97 126 159
0.12486 -0.107113 1.047 97 126 159
0.126124 -0.106806 1.044 98 125 158
0.127501 -0.106601 1.042 98 125 158
0.128995 -0.106499 1.041 97 121 153
0.130235 -0.106192 1.038 87 111 143
0.13172 -0.106089 1.037 71 92 121
0.133074 -0.105885 1.035 47 68 97
0.134681 -0.105885 1.035 32 51 74
0.136157 -0.105783 1.034 37 56 79
0.137763 -0.105783 1.034 38 58 78
0.139369 -0.105783 1.034 32 52 72
0.140838 -0.10568 1.033 62 83 90
0.17554 -0.120719 1.18 35 62 27
0.177373 -0.120719 1.18 34 61 26
0.181038 -0.120719 1.18 39 66 31
0.185016 -0.120924 1.182 40 67 32
0.186852 -0.120924 1.182 38 65 30
0.188688 -0.120924 1.182 37 64 29
0.190846 -0.121128 1.184 37 64 29
0.192847 -0.121231 1.185 35 62 27
0.194688 -0.121231 1.185 35 62 27
0.196694 -0.121333 1.186 37 64 29
0.198703 -0.121435 1.187 37 64 29
0.200716 -0.121537 1.188 35 62 27
0.202731 -0.12164 1.189 37 64 29
0.20475 -0.121742 1.19 38 65 30
0.206771 -0.121844 1.191 40 64 30
0.208796 -0.121947 1.192 39 63 29
0.210824 -0.122049 1.193 39 63 29
0.212677 -0.122049 1.193 39 63 29
0.21471 -0.122151 1.194 39 63 29
0.216564 -0.122151 1.194 40 64 30
0.218418 -0.122151 1.194 42 66 32
0.220273 -0.122151 1.194 44 68 34
0.221941 -0.122049 1.193 42 66 32
0.223606 -0.121947 1.192 40 64 30
0.225457 -0.121947 1.192 40 64 30
0.227308 -0.121947 1.192 40 64 30
0.228775 -0.121742 1.19 39 63 29
0.230623 -0.121742 1.19 37 61 27
0.232081 -0.121537 1.188 36 60 26
0.233729 -0.121435 1.187 35 59 25
0.235175 -0.121231 1.185 32 54 20
0.237016 -0.121231 1.185 34 56 22
0.238654 -0.121128 1.184 33 57 23
0.240493 -0.121128 1.184 39 63 29
0.242127 -0.121026 1.183 28 51 19
0.244171 -0.121128 1.184 23 46 14
0.24601 -0.121128 1.184 23 45 16
0.248058 -0.121231 1.185 23 45 16
0.250109 -0.121333 1.186 22 44 17
0.254007 -0.121435 1.187 20 42 15
0.256497 -0.121742 1.19 19 41 14
0.258562 -0.121844 1.191 19 41 14
0.260849 -0.122049 1.193 18 40 13
0.263142 -0.122254 1.195 18 40 13
0.26522 -0.122356 1.196 19 41 14
0.267524 -0.12256 1.198 19 40 15
0.269834 -0.122765 1.2 19 40 15
0.271698 -0.122765 1.2 19 40 15
0.273789 -0.122867 1.201 19 40 15
0.275884 -0.12297 1.202 19 40 15
0.277751 -0.12297 1.202 19 40 15
0.279385 -0.122867 1.201 20 41 16
0.281016 -0.122765 1.2 20 41 16
0.28288 -0.122765 1.2 21 42 17
0.284269 -0.12256 1.198 21 42 17
0.28589 -0.122458 1.197 21 42 17
0.287509 -0.122356 1.196 21 42 17
0.289124 -0.122254 1.195 21 42 17
0.290493 -0.122049 1.193 21 42 17
0.292101 -0.121947 1.192 20 41 16
0.293706 -0.121844 1.191 20 41 16
0.295059 -0.12164 1.189 19 40 15
0.296906 -0.12164 1.189 20 41 16
0.298501 -0.121537 1.188 19 40 15
0.300346 -0.121537 1.188 19 40 15
0.302191 -0.121537 1.188 20 41 16
0.304292 -0.12164 1.189 20 41 16
0.306396 -0.121742 1.19 20 41 16
0.308244 -0.121742 1.19 20 41 16
0.310092 -0.121742 1.19 19 40 15
0.312202 -0.121844 1.191 20 41 16
0.314052 -0.121844 1.191 20 41 16
0.318018 -0.121947 1.192 21 42 17
0.319869 -0.121947 1.192 20 41 16
0.321721 -0.121947 1.192 20 41 16
0.323572 -0.121947 1.192 21 42 17
0.325423 -0.121947 1.192 24 43 18
0.327274 -0.121947 1.192 25 44 19
0.329125 -0.121947 1.192 24 43 18
0.330977 -0.121947 1.192 24 43 18
0.332828 -0.121947 1.192 27 46 21
0.334679 -0.121947 1.192 27 46 21
0.33653 -0.121947 1.192 28 47 22
0.338381 -0.121947 1.192 28 47 22
0.340233 -0.121947 1.192 25 44 19
0.341797 -0.121844 1.191 27 46 21
0.343358 -0.121742 1.19 28 47 22
0.345206 -0.121742 1.19 25 44 19
0.346763 -0.12164 1.189 28 46 24
0.348316 -0.121537 1.188 32 50 28
0.349571 -0.121333 1.186 32 50 28
0.351117 -0.121231 1.185 32 50 28
0.35266 -0.121128 1.184 31 49 27
0.3539 -0.120924 1.182 30 48 26
0.355434 -0.120821 1.181 30 46 29
0.356966 -0.120719 1.18 29 45 28
0.35819 -0.120514 1.178 29 42 29
0.359409 -0.12031 1.176 25 38 25
0.360621 -0.120105 1.174 26 38 28
0.361518 -0.119798 1.171 24 36 26
0.362405 -0.119491 1.168 26 38 28
0.363284 -0.119184 1.165 19 31 21
0.361333 -0.117957 1.153 17 28 20
0.361234 -0.117343 1.147 27 38 30
0.361432 -0.116831 1.142 98 108 103
0.361298 -0.116218 1.136 101 111 106
0.361784 -0.115808 1.132 102 111 110
0.362578 -0.115501 1.129 112 121 120
0.363363 -0.115195 1.126 111 114 122
0.364788 -0.115092 1.125 47 50 58
-0.165039 -0.118683 1.178 6 15 6
-0.163487 -0.118884 1.18 6 15 6
-0.161928 -0.119086 1.182 6 15 6
-0.160228 -0.119186 1.183 5 14 5
-0.158659 -0.119388 1.185 7 16 7
-0.157083 -0.119589 1.187 6 15 6
-0.155239 -0.119589 1.187 8 17 8
-0.153525 -0.11969 1.188 8 17 8
-0.15168 -0.11969 1.188 11 21 9
-0.149835 -0.11969 1.188 11 21 9
-0.14799 -0.11969 1.188 15 25 13
-0.146145 -0.11969 1.188 17 27 15
-0.1443 -0.11969 1.188 17 27 15
-0.142455 -0.11969 1.188 18 28 16
-0.140492 -0.119589 1.187 20 31 17
-0.138648 -0.119589 1.187 19 30 16
-0.136805 -0.119589 1.187 18 29 15
-0.134961 -0.119589 1.187 19 30 16
-0.133118 -0.119589 1.187 20 31 17
-0.131275 -0.119589 1.187 20 31 17
-0.129431 -0.119589 1.187 20 31 17
-0.127588 -0.119589 1.187 18 29 15
-0.125744 -0.119589 1.187 17 28 14
-0.123901 -0.119589 1.187 17 28 14
-0.12216 -0.11969 1.188 19 30 16
-0.120214 -0.119589 1.187 15 26 12
-0.11847 -0.11969 1.188 15 26 12
-0.116723 -0.119791 1.189 17 28 14
-0.114877 -0.119791 1.189 17 28 14
-0.112935 -0.11969 1.188 17 28 14
-0.11109 -0.11969 1.188 17 28 12
-0.109153 -0.119589 1.187 18 29 13
-0.10731 -0.119589 1.187 19 30 14
-0.1052 -0.119287 1.184 18 29 13
-0.103274 -0.119186 1.183 17 28 12
-0.101351 -0.119086 1.182 17 28 12
-0.0993466 -0.118884 1.18 17 28 12
-0.097514 -0.118884 1.18 15 26 10
-0.0955192 -0.118683 1.178 12 23 7
-0.0936102 -0.118582 1.177 13 24 8
-0.0917043 -0.118481 1.176 13 24 8
-0.0898015 -0.11838 1.175 13 24 8
-0.0879767 -0.11838 1.175 14 25 9
-0.0860786 -0.11828 1.174 12 23 7
-0.0841835 -0.118179 1.173 12 23 7
-0.0823618 -0.118179 1.173 12 23 7
-0.0806088 -0.11828 1.174 12 23 7
-0.0788526 -0.11838 1.175 13 24 8
-0.0770278 -0.11838 1.175 14 25 9
-0.075139 -0.11828 1.174 14 25 9
-0.0732533 -0.118179 1.173 14 25 9
-0.0713707 -0.118078 1.172 12 23 7
-0.0694912 -0.117977 1.171 11 22 8
-0.0676148 -0.117877 1.17 11 22 8
-0.0656853 -0.117675 1.168 11 21 9
-0.063762 -0.117474 1.166 11 21 9
-0.0617917 -0.117172 1.163 11 20 11
-0.0598824 -0.11697 1.161 12 21 12
-0.0579793 -0.116769 1.159 12 21 12
-0.0559369 -0.116265 1.154 12 21 12
-0.0539571 -0.115862 1.15 12 21 12
-0.052035 -0.11556 1.147 12 21 12
-0.0501222 -0.115257 1.144 12 20 13
-0.048261 -0.115056 1.142 12 20 13
-0.0463246 -0.114653 1.138 9 17 24
-0.0444007 -0.11425 1.134 7 15 22
-0.0382469 -0.106895 1.061 41 53 77
-0.0362886 -0.105988 1.052 63 79 109
-0.0346219 -0.105888 1.051 63 79 109
-0.0328955 -0.105585 1.048 46 63 91
-0.0312381 -0.105485 1.047 70 87 115
-0.0296121 -0.105485 1.047 119 140 169
-0.0279593 -0.105384 1.046 80 101 130
-0.0263348 -0.105384 1.046 56 75 111
-0.0247104 -0.105384 1.046 38 57 93
-0.0230859 -0.105384 1.046 23 41 85
-0.0214614 -0.105384 1.046 21 39 83
-0.0198369 -0.105384 1.046 27 50 93
-0.0182125 -0.105384 1.046 62 85 128
-0.016588 -0.105384 1.046 105 131 171
-0.0149492 -0.105283 1.045 112 138 178
-0.0133263 -0.105283 1.045 107 137 174
-0.0116922 -0.105182 1.044 98 128 165
-0.0100708 -0.105182 1.044 89 118 157
-0.00844944 -0.105182 1.044 75 104 143
-0.00682807 -0.105182 1.044 77 106 145
-0.0052067 -0.105182 1.044 93 122 161
-0.0035819 -0.105082 1.043 92 122 159
-0.00196209 -0.105082 1.043 87 117 154
-0.000342273 -0.105082 1.043 87 117 154
0.00127754 -0.105082 1.043 88 118 155
0.00289736 -0.105082 1.043 88 118 155
0.00451717 -0.105082 1.043 91 121 158
0.0061311 -0.104981 1.042 101 131 168
0.00774936 -0.104981 1.042 99 129 166
0.00936762 -0.104981 1.042 80 110 147
0.0109859 -0.104981 1.042 78 108 145
0.0126041 -0.104981 1.042 81 111 148
0.0142224 -0.104981 1.042 84 114 151
0.0158407 -0.104981 1.042 80 109 148
0.0174589 -0.104981 1.042 84 113 152
0.0190589 -0.10488 1.041 96 125 164
0.0206756 -0.10488 1.041 88 117 156
0.0222923 -0.10488 1.041 81 111 148
0.023932 -0.104981 1.042 84 114 151
0.0255502 -0.104981 1.042 93 123 160
0.0271685 -0.104981 1.042 94 124 161
0.0287868 -0.104981 1.042 95 125 162
0.030405 -0.104981 1.042 93 123 160
0.0320233 -0.104981 1.042 87 117 154
0.0336415 -0.104981 1.042 79 109 146
0.0352598 -0.104981 1.042 90 116 156
0.0368781 -0.104981 1.042 103 129 169
0.0384963 -0.104981 1.042 107 133 173
0.0401146 -0.104981 1.042 96 122 162
0.0417329 -0.104981 1.042 74 99 142
0.0433511 -0.104981 1.042 74 99 142
0.0449262 -0.10488 1.041 81 106 149
0.0465429 -0.10488 1.041 94 119 162
0.0481596 -0.10488 1.041 89 115 155
0.0497763 -0.10488 1.041 97 123 163
0.0530607 -0.104981 1.042 95 121 161
0.0546789 -0.104981 1.042 91 118 156
0.0562972 -0.104981 1.042 91 118 156
0.0579155 -0.104981 1.042 95 122 160
0.0595337 -0.104981 1.042 105 132 170
0.061152 -0.104981 1.042 108 134 174
0.0627703 -0.104981 1.042 104 130 170
0.0643885 -0.104981 1.042 81 106 149
0.0660068 -0.104981 1.042 80 105 148
0.067625 -0.104981 1.042 81 106 149
0.0693098 -0.105082 1.043 84 109 152
0.0709296 -0.105082 1.043 89 115 155
0.0725494 -0.105082 1.043 93 119 159
0.0741692 -0.105082 1.043 97 123 163
0.077483 -0.105182 1.044 95 121 161
0.0791044 -0.105182 1.044 94 120 160
0.082426 -0.105283 1.045 94 120 160
0.0840489 -0.105283 1.045 93 120 158
0.0856719 -0.105283 1.045 96 123 161
0.0873783 -0.105384 1.046 98 125 163
0.0890028 -0.105384 1.046 98 125 163
0.0906273 -0.105384 1.046 98 128 165
0.0922517 -0.105384 1.046 98 128 165
0.0938762 -0.105384 1.046 98 128 165
0.095592 -0.105485 1.047 100 130 167
0.097218 -0.105485 1.047 95 126 160
0.098844 -0.105485 1.047 98 129 163
0.10047 -0.105485 1.047 101 132 166
0.102096 -0.105485 1.047 98 129 163
0.103722 -0.105485 1.047 98 129 163
0.105248 -0.105384 1.046 102 133 167
0.1086 -0.105485 1.047 93 124 158
0.110121 -0.105384 1.046 93 124 158
0.111852 -0.105485 1.047 100 131 165
0.113478 -0.105485 1.047 98 129 163
0.115104 -0.105485 1.047 99 130 164
0.11673 -0.105485 1.047 100 131 165
0.118356 -0.105485 1.047 100 131 165
0.119868 -0.105384 1.046 99 130 164
0.121376 -0.105283 1.045 100 131 165
0.122764 -0.105082 1.043 100 132 164
0.124264 -0.104981 1.042 100 132 164
0.125762 -0.10488 1.041 101 130 163
0.127134 -0.104679 1.039 103 132 165
0.128623 -0.104578 1.038 109 133 167
0.13011 -0.104477 1.037 102 126 160
0.131593 -0.104376 1.036 89 111 143
0.133074 -0.104276 1.035 69 91 123
0.134681 -0.104276 1.035 41 58 91
0.136289 -0.104276 1.035 43 60 93
0.137763 -0.104175 1.034 55 73 103
0.139369 -0.104175 1.034 46 64 94
0.140974 -0.104175 1.034 89 109 129
0.142442 -0.104074 1.033 108 128 148
0.173561 -0.118783 1.179 39 65 32
0.17554 -0.118884 1.18 40 64 30
0.177223 -0.118783 1.179 36 60 26
0.179206 -0.118884 1.18 40 64 30
0.181038 -0.118884 1.18 41 65 31
0.182871 -0.118884 1.18 42 66 32
0.184703 -0.118884 1.18 42 66 32
0.188688 -0.119086 1.182 40 64 30
0.190523 -0.119086 1.182 39 63 29
0.192685 -0.119287 1.184 39 63 29
0.194523 -0.119287 1.184 39 63 29
0.196528 -0.119388 1.185 40 64 30
0.198703 -0.119589 1.187 40 64 30
0.200716 -0.11969 1.188 39 63 29
0.202902 -0.119892 1.19 40 64 30
0.20475 -0.119892 1.19 40 64 30
0.206945 -0.120093 1.192 40 64 30
0.208971 -0.120194 1.193 41 65 31
0.211001 -0.120295 1.194 43 67 33
0.213034 -0.120395 1.195 43 67 33
0.214889 -0.120395 1.195 43 67 33
0.216745 -0.120395 1.195 41 65 31
0.218601 -0.120395 1.195 42 66 32
0.220457 -0.120395 1.195 42 66 32
0.222127 -0.120295 1.194 43 67 33
0.223981 -0.120295 1.194 41 65 31
0.225646 -0.120194 1.193 40 64 30
0.227308 -0.120093 1.192 39 63 29
0.22916 -0.120093 1.192 39 63 29
0.230623 -0.119892 1.19 37 61 27
0.232471 -0.119892 1.19 37 61 27
0.233926 -0.11969 1.188 36 60 26
0.235572 -0.119589 1.187 35 59 25
0.237016 -0.119388 1.185 35 59 25
0.238856 -0.119388 1.185 34 58 24
0.240493 -0.119287 1.184 36 60 26
0.242332 -0.119287 1.184 32 55 23
0.244377 -0.119388 1.185 28 51 19
0.246217 -0.119388 1.185 26 48 19
0.248058 -0.119388 1.185 25 47 18
0.250109 -0.119489 1.186 23 45 18
0.254007 -0.119589 1.187 21 43 16
0.256281 -0.119791 1.189 20 42 15
0.258562 -0.119992 1.191 18 39 14
0.260849 -0.120194 1.193 18 39 14
0.263142 -0.120395 1.195 19 40 15
0.264998 -0.120395 1.195 19 40 15
0.267301 -0.120597 1.197 19 40 15
0.269609 -0.120798 1.199 20 41 16
0.271698 -0.120899 1.2 20 41 16
0.273561 -0.120899 1.2 19 40 15
0.275655 -0.121 1.201 19 40 15
0.277289 -0.120899 1.2 19 40 15
0.279152 -0.120899 1.2 19 40 15
0.281016 -0.120899 1.2 20 41 16
0.282408 -0.120698 1.198 19 40 15
0.284031 -0.120597 1.197 20 41 16
0.28589 -0.120597 1.197 19 40 15
0.287269 -0.120395 1.195 20 41 16
0.288641 -0.120194 1.193 21 41 19
0.29025 -0.120093 1.192 21 41 19
0.291856 -0.119992 1.191 21 41 19
0.292966 -0.11969 1.188 21 41 19
0.294563 -0.119589 1.187 20 40 18
0.296406 -0.119589 1.187 20 40 18
0.29825 -0.119589 1.187 20 41 16
0.300093 -0.119589 1.187 20 41 16
0.301937 -0.119589 1.187 21 42 17
0.30378 -0.119589 1.187 20 41 16
0.305881 -0.11969 1.188 20 41 16
0.307726 -0.11969 1.188 19 40 15
0.309831 -0.119791 1.189 19 40 15
0.31194 -0.119892 1.19 19 40 15
0.313788 -0.119892 1.19 20 41 16
0.315636 -0.119892 1.19 21 42 17
0.317484 -0.119892 1.19 20 41 16
0.319601 -0.119992 1.191 20 41 16
0.321451 -0.119992 1.191 20 41 16
0.3233 -0.119992 1.191 21 42 17
0.32515 -0.119992 1.191 23 44 19
0.327 -0.119992 1.191 25 46 21
0.329125 -0.120093 1.192 22 43 18
0.330977 -0.120093 1.192 23 44 19
0.332828 -0.120093 1.192 25 46 21
0.334679 -0.120093 1.192 26 47 22
0.33653 -0.120093 1.192 26 47 22
0.338098 -0.119992 1.191 26 47 22
0.339947 -0.119992 1.191 27 46 21
0.34151 -0.119892 1.19 27 46 21
0.343358 -0.119892 1.19 25 44 19
0.344916 -0.119791 1.189 21 40 15
0.346471 -0.11969 1.188 21 40 15
0.348023 -0.119589 1.187 23 42 17
0.349571 -0.119489 1.186 25 44 19
0.351117 -0.119388 1.185 30 49 24
0.352362 -0.119186 1.183 30 48 26
0.3539 -0.119086 1.182 30 48 26
0.355133 -0.118884 1.18 30 47 27
0.356663 -0.118783 1.179 30 47 27
0.35819 -0.118683 1.178 30 46 31
0.359409 -0.118481 1.176 25 41 26
0.360928 -0.11838 1.175 26 38 28
0.361826 -0.118078 1.172 25 37 27
0.362716 -0.117776 1.169 26 38 28
0.363596 -0.117474 1.166 18 30 20
0.361646 -0.116265 1.154 16 26 21
0.361549 -0.11566 1.148 30 40 35
0.361934 -0.114653 1.138 101 111 106
0.361784 -0.114048 1.132 98 107 106
0.362578 -0.113746 1.129 118 127 126
0.363686 -0.113545 1.127 112 115 123
0.365436 -0.113545 1.127 49 52 60
-0.165039 -0.116851 1.178 5 14 5
-0.163487 -0.117049 1.18 5 14 5
-0.161791 -0.117149 1.181 6 15 6
-0.160093 -0.117248 1.182 5 14 5
-0.158391 -0.117347 1.183 7 16 7
-0.156818 -0.117545 1.185 6 15 6
-0.154978 -0.117545 1.185 7 16 7
-0.153267 -0.117645 1.186 6 15 6
-0.151553 -0.117744 1.187 11 21 9
-0.149709 -0.117744 1.187 12 22 10
-0.14799 -0.117843 1.188 14 24 12
-0.146145 -0.117843 1.188 17 27 15
-0.144422 -0.117942 1.189 17 27 15
-0.142575 -0.117942 1.189 19 29 17
-0.14061 -0.117843 1.188 19 30 16
-0.138765 -0.117843 1.188 18 29 15
-0.13692 -0.117843 1.188 18 29 15
-0.135075 -0.117843 1.188 18 29 15
-0.133118 -0.117744 1.187 19 30 16
-0.131275 -0.117744 1.187 20 31 17
-0.129431 -0.117744 1.187 19 30 16
-0.127695 -0.117843 1.188 18 29 15
-0.125744 -0.117744 1.187 18 29 15
-0.123901 -0.117744 1.187 18 29 15
-0.122057 -0.117744 1.187 19 30 16
-0.120315 -0.117843 1.188 17 28 14
-0.11837 -0.117744 1.187 18 29 15
-0.116625 -0.117843 1.188 18 29 15
-0.114877 -0.117942 1.189 17 28 14
-0.112935 -0.117843 1.188 15 26 12
-0.11109 -0.117843 1.188 15 26 10
-0.109153 -0.117744 1.187 17 28 12
-0.10731 -0.117744 1.187 17 28 12
-0.105377 -0.117645 1.186 17 28 12
-0.103361 -0.117446 1.184 15 26 10
-0.101351 -0.117248 1.182 15 26 10
-0.0994308 -0.117149 1.181 17 28 12
-0.097514 -0.117049 1.18 17 28 12
-0.0956003 -0.11695 1.179 12 23 7
-0.0936898 -0.116851 1.178 13 24 8
-0.0918603 -0.116851 1.178 12 23 7
-0.0899544 -0.116752 1.177 12 23 7
-0.0880516 -0.116653 1.176 13 24 8
-0.0861519 -0.116554 1.175 12 23 7
-0.0843271 -0.116554 1.175 12 23 7
-0.0825023 -0.116554 1.175 12 23 7
-0.0806775 -0.116554 1.175 12 23 7
-0.0788526 -0.116554 1.175 12 23 7
-0.0769623 -0.116454 1.174 13 24 8
-0.075075 -0.116355 1.173 13 24 8
-0.0732533 -0.116355 1.173 14 25 9
-0.0713098 -0.116157 1.171 12 23 7
-0.0694318 -0.116058 1.17 12 23 9
-0.0674992 -0.115859 1.168 12 23 9
-0.0655728 -0.115661 1.166 11 21 9
-0.0636526 -0.115462 1.164 11 21 9
-0.0617386 -0.115264 1.162 11 20 11
-0.0598308 -0.115066 1.16 12 21 12
-0.0579292 -0.114867 1.158 12 22 10
-0.0558885 -0.114371 1.153 12 22 10
-0.0539101 -0.113974 1.149 12 22 10
-0.0519442 -0.113578 1.145 12 22 10
-0.0501222 -0.113478 1.144 10 22 12
-0.048261 -0.11328 1.142 9 21 11
-0.0463246 -0.112883 1.138 2 12 19
-0.0438916 -0.111197 1.121 2 12 19
-0.0409099 -0.107924 1.088 0 13 39
-0.0362886 -0.104353 1.052 63 79 109
-0.034589 -0.104154 1.05 57 73 103
-0.0328955 -0.103956 1.048 46 65 93
-0.0312381 -0.103857 1.047 83 102 130
-0.0295838 -0.103757 1.046 126 144 174
-0.0279593 -0.103757 1.046 76 94 124
-0.0263348 -0.103757 1.046 49 66 101
-0.0247104 -0.103757 1.046 34 51 86
-0.0230859 -0.103757 1.046 26 43 84
-0.0214614 -0.103757 1.046 24 41 82
-0.0198369 -0.103757 1.046 30 51 92
-0.0182125 -0.103757 1.046 62 83 124
-0.016588 -0.103757 1.046 105 132 170
-0.0149492 -0.103658 1.045 114 141 179
-0.0133135 -0.103559 1.044 107 138 172
-0.0116922 -0.103559 1.044 101 132 166
-0.0100708 -0.103559 1.044 87 117 154
-0.00844944 -0.103559 1.044 77 107 144
-0.00682807 -0.103559 1.044 77 107 144
-0.0052067 -0.103559 1.044 92 122 159
-0.00358534 -0.103559 1.044 85 115 152
-0.00196397 -0.103559 1.044 79 109 146
-0.000342601 -0.103559 1.044 85 115 152
0.00127754 -0.10346 1.043 88 118 155
0.00289736 -0.10346 1.043 91 118 156
0.00451717 -0.10346 1.043 93 120 158
0.00613699 -0.10346 1.043 103 130 168
0.00774936 -0.103361 1.042 98 125 163
0.00936762 -0.103361 1.042 84 111 149
0.0109859 -0.103361 1.042 77 104 142
0.0126041 -0.103361 1.042 86 116 153
0.0142224 -0.103361 1.042 87 117 154
0.0158407 -0.103361 1.042 86 115 154
0.0174589 -0.103361 1.042 88 117 156
0.0190772 -0.103361 1.042 92 121 160
0.0206955 -0.103361 1.042 89 118 157
0.0223137 -0.103361 1.042 85 115 152
0.023932 -0.103361 1.042 88 118 155
0.0255502 -0.103361 1.042 99 129 166
0.0271685 -0.103361 1.042 101 131 168
0.0287868 -0.103361 1.042 101 131 168
0.030405 -0.103361 1.042 101 131 168
0.0320233 -0.103361 1.042 99 129 166
0.0336415 -0.103361 1.042 92 122 159
0.0352598 -0.103361 1.042 91 118 156
0.0368781 -0.103361 1.042 108 135 173
0.0384963 -0.103361 1.042 107 133 173
0.0401146 -0.103361 1.042 89 115 155
0.0417329 -0.103361 1.042 74 99 142
0.0433511 -0.103361 1.042 75 100 143
0.0449694 -0.103361 1.042 84 109 152
0.0465876 -0.103361 1.042 103 128 171
0.0482059 -0.103361 1.042 102 128 168
0.0497763 -0.103261 1.041 95 121 161
0.0513931 -0.103261 1.041 97 123 163
0.0530098 -0.103261 1.041 91 117 157
0.0546265 -0.103261 1.041 100 126 166
0.0562432 -0.103261 1.041 110 136 176
0.0579155 -0.103361 1.042 109 135 175
0.0595337 -0.103361 1.042 105 131 171
0.061152 -0.103361 1.042 103 129 169
0.0627703 -0.103361 1.042 86 112 152
0.0643885 -0.103361 1.042 79 105 145
0.0660068 -0.103361 1.042 81 107 147
0.067625 -0.103361 1.042 91 117 157
0.0693098 -0.10346 1.043 98 124 164
0.0709296 -0.10346 1.043 96 122 162
0.0725494 -0.10346 1.043 94 120 160
0.0741692 -0.10346 1.043 96 122 162
0.075789 -0.10346 1.043 94 120 160
0.077483 -0.103559 1.044 95 121 161
0.0791044 -0.103559 1.044 95 121 161
0.0807258 -0.103559 1.044 94 120 160
0.0823471 -0.103559 1.044 94 120 160
0.0856719 -0.103658 1.045 94 123 162
0.0873783 -0.103757 1.046 94 123 162
0.0889177 -0.103658 1.045 94 123 162
0.0922517 -0.103757 1.046 96 125 164
0.0938762 -0.103757 1.046 94 124 161
0.0955007 -0.103757 1.046 88 118 155
0.0971252 -0.103757 1.046 94 124 161
0.0987496 -0.103757 1.046 95 125 162
0.100374 -0.103757 1.046 96 127 161
0.101999 -0.103757 1.046 96 127 161
0.103524 -0.103658 1.045 96 127 161
0.105147 -0.103658 1.045 95 126 160
0.10677 -0.103658 1.045 94 125 159
0.108393 -0.103658 1.045 92 123 157
0.10991 -0.103559 1.044 93 124 158
0.111532 -0.103559 1.044 95 126 160
0.113262 -0.103658 1.045 94 125 159
0.114884 -0.103658 1.045 92 123 157
0.116396 -0.103559 1.044 94 125 159
0.118017 -0.103559 1.044 95 126 160
0.119524 -0.10346 1.043 94 125 159
0.121028 -0.103361 1.042 94 125 159
0.122528 -0.103261 1.041 94 125 159
0.124026 -0.103162 1.04 99 130 164
0.125399 -0.102964 1.038 103 132 165
0.126889 -0.102865 1.037 104 133 166
0.128499 -0.102865 1.037 107 134 167
0.129984 -0.102765 1.036 104 131 164
0.131593 -0.102765 1.036 111 133 167
0.133074 -0.102666 1.035 111 133 167
0.134681 -0.102666 1.035 80 97 132
0.136157 -0.102567 1.034 50 67 102
0.137763 -0.102567 1.034 52 69 102
0.139369 -0.102567 1.034 55 72 105
0.140974 -0.102567 1.034 98 117 145
0.14258 -0.102567 1.034 128 147 175
0.144186 -0.102567 1.034 56 80 80
0.173413 -0.116851 1.178 39 65 32
0.175243 -0.116851 1.178 40 64 30
0.177072 -0.116851 1.178 37 61 27
0.178902 -0.116851 1.178 39 63 29
0.180885 -0.11695 1.179 37 61 27
0.182871 -0.117049 1.18 39 63 29
0.184703 -0.117049 1.18 39 63 29
0.186536 -0.117049 1.18 40 64 30
0.190523 -0.117248 1.182 42 66 32
0.192522 -0.117347 1.183 42 66 32
0.194359 -0.117347 1.183 40 64 30
0.196528 -0.117545 1.185 39 63 29
0.198703 -0.117744 1.187 39 63 29
0.200716 -0.117843 1.188 39 63 29
0.202902 -0.118041 1.19 40 64 30
0.204922 -0.118141 1.191 39 63 29
0.206945 -0.11824 1.192 41 65 31
0.208971 -0.118339 1.193 42 66 32
0.211001 -0.118438 1.194 42 66 32
0.213034 -0.118537 1.195 41 65 31
0.214889 -0.118537 1.195 40 64 30
0.216745 -0.118537 1.195 40 64 30
0.218601 -0.118537 1.195 40 64 30
0.220457 -0.118537 1.195 40 64 30
0.222313 -0.118537 1.195 42 66 32
0.224169 -0.118537 1.195 42 66 32
0.225836 -0.118438 1.194 40 64 30
0.227499 -0.118339 1.193 39 63 29
0.22916 -0.11824 1.192 39 63 29
0.230817 -0.118141 1.191 39 63 29
0.232471 -0.118041 1.19 37 61 27
0.23432 -0.118041 1.19 39 63 29
0.235771 -0.117843 1.188 37 61 27
0.237416 -0.117744 1.187 35 59 25
0.239259 -0.117744 1.187 33 57 23
0.240696 -0.117545 1.185 32 56 22
0.242537 -0.117545 1.185 30 53 21
0.244377 -0.117545 1.185 32 55 23
0.246217 -0.117545 1.185 28 50 21
0.248058 -0.117545 1.185 25 47 18
0.250109 -0.117645 1.186 23 45 18
0.254007 -0.117744 1.187 21 43 16
0.256281 -0.117942 1.189 21 43 16
0.258345 -0.118041 1.19 20 42 15
0.26063 -0.11824 1.192 19 41 14
0.262702 -0.118339 1.193 18 39 14
0.264998 -0.118537 1.195 18 39 14
0.267077 -0.118637 1.196 19 40 15
0.26916 -0.118736 1.197 19 40 15
0.271245 -0.118835 1.198 20 41 16
0.273333 -0.118934 1.199 20 41 16
0.275425 -0.119033 1.2 19 40 15
0.277058 -0.118934 1.199 19 40 15
0.27892 -0.118934 1.199 20 41 16
0.280548 -0.118835 1.198 21 42 17
0.282172 -0.118736 1.197 19 40 15
0.283794 -0.118637 1.196 19 40 15
0.285413 -0.118537 1.195 20 40 18
0.287028 -0.118438 1.194 20 40 18
0.288399 -0.11824 1.192 21 41 19
0.290006 -0.118141 1.191 21 41 19
0.291121 -0.117843 1.188 21 41 19
0.292719 -0.117744 1.187 21 41 19
0.294563 -0.117744 1.187 20 40 18
0.296156 -0.117645 1.186 19 39 17
0.297747 -0.117545 1.185 20 40 18
0.299587 -0.117545 1.185 21 41 19
0.301428 -0.117545 1.185 20 40 18
0.303524 -0.117645 1.186 19 39 17
0.305623 -0.117744 1.187 20 40 18
0.307467 -0.117744 1.187 20 40 18
0.30931 -0.117744 1.187 20 40 18
0.311416 -0.117843 1.188 20 40 18
0.313261 -0.117843 1.188 20 40 18
0.315371 -0.117942 1.189 21 41 19
0.317218 -0.117942 1.189 20 40 18
0.319333 -0.118041 1.19 19 39 17
0.321181 -0.118041 1.19 20 40 18
0.323029 -0.118041 1.19 20 40 18
0.324877 -0.118041 1.19 22 42 20
0.326725 -0.118041 1.19 25 45 23
0.328573 -0.118041 1.19 23 43 21
0.330421 -0.118041 1.19 25 45 23
0.332269 -0.118041 1.19 26 47 22
0.334398 -0.118141 1.191 25 46 21
0.336248 -0.118141 1.191 26 47 22
0.337814 -0.118041 1.19 27 48 23
0.339662 -0.118041 1.19 28 47 22
0.34151 -0.118041 1.19 27 46 21
0.34307 -0.117942 1.189 25 44 19
0.344626 -0.117843 1.188 25 44 19
0.346179 -0.117744 1.187 27 46 21
0.348023 -0.117744 1.187 28 47 22
0.349277 -0.117545 1.185 29 47 25
0.350821 -0.117446 1.184 30 48 26
0.352064 -0.117248 1.182 30 48 26
0.3539 -0.117248 1.182 30 48 26
0.355133 -0.117049 1.18 30 47 27
0.356663 -0.11695 1.179 29 46 26
0.35819 -0.116851 1.178 28 44 29
0.359409 -0.116653 1.176 23 39 24
0.360928 -0.116554 1.175 25 40 27
0.361826 -0.116256 1.172 24 39 26
0.363026 -0.116058 1.17 23 37 27
0.363596 -0.115661 1.166 16 30 20
0.361646 -0.11447 1.154 13 23 18
0.361863 -0.113974 1.149 39 49 44
0.361934 -0.112883 1.138 100 110 105
0.362103 -0.112387 1.133 102 111 110
0.362578 -0.111991 1.129 124 133 132
0.363686 -0.111792 1.127 119 122 130
0.365761 -0.111891 1.128 50 53 61
-0.165179 -0.115117 1.179 4 13 4
-0.163487 -0.115215 1.18 7 16 7
-0.161791 -0.115312 1.181 8 17 8
-0.160093 -0.11541 1.182 6 15 6
-0.158391 -0.115508 1.183 6 15 6
-0.156686 -0.115605 1.184 7 16 7
-0.154978 -0.115703 1.185 7 16 7
-0.153138 -0.115703 1.185 7 16 7
-0.151425 -0.115801 1.186 8 18 6
-0.149709 -0.115898 1.187 12 22 10
-0.14799 -0.115996 1.188 14 24 12
-0.146268 -0.116093 1.189 17 27 15
-0.144422 -0.116093 1.189 18 29 15
-0.142575 -0.116093 1.189 19 30 16
-0.140729 -0.116093 1.189 19 30 16
-0.138999 -0.116191 1.19 19 30 16
-0.137151 -0.116191 1.19 19 30 16
-0.135189 -0.116093 1.189 19 30 16
-0.13323 -0.115996 1.188 19 30 16
-0.131385 -0.115996 1.188 19 30 16
-0.12954 -0.115996 1.188 19 30 16
-0.127695 -0.115996 1.188 19 30 16
-0.12585 -0.115996 1.188 19 30 16
-0.124005 -0.115996 1.188 19 30 16
-0.12216 -0.115996 1.188 19 30 16
-0.120214 -0.115898 1.187 19 30 16
-0.11847 -0.115996 1.188 19 30 14
-0.116625 -0.115996 1.188 18 29 13
-0.114877 -0.116093 1.189 18 29 13
-0.112935 -0.115996 1.188 17 28 12
-0.11109 -0.115996 1.188 14 25 9
-0.109245 -0.115996 1.188 15 26 10
-0.10731 -0.115898 1.187 15 26 10
-0.105466 -0.115898 1.187 15 26 10
-0.103448 -0.115703 1.185 15 26 10
-0.101522 -0.115605 1.184 15 26 10
-0.0995149 -0.11541 1.182 17 28 12
-0.0976793 -0.11541 1.182 15 26 10
-0.0956814 -0.115215 1.18 12 23 7
-0.0938488 -0.115215 1.18 13 24 8
-0.0919383 -0.115117 1.179 14 25 9
-0.0900308 -0.115019 1.178 12 23 7
-0.0882013 -0.115019 1.178 14 25 9
-0.0862985 -0.114922 1.177 13 24 8
-0.0843988 -0.114824 1.176 13 24 8
-0.0825023 -0.114727 1.175 13 24 8
-0.0806775 -0.114727 1.175 13 24 8
-0.0788526 -0.114727 1.175 13 24 8
-0.0770278 -0.114727 1.175 11 22 6
-0.075139 -0.114629 1.174 13 24 8
-0.0732533 -0.114531 1.173 14 25 11
-0.0713098 -0.114336 1.171 13 24 10
-0.0693725 -0.114141 1.169 13 24 10
-0.0674992 -0.114043 1.168 12 23 9
-0.0655728 -0.113848 1.166 12 22 10
-0.0636526 -0.113652 1.164 11 21 9
-0.0617386 -0.113457 1.162 11 21 9
-0.0598308 -0.113262 1.16 12 22 10
-0.0579292 -0.113067 1.158 12 22 10
-0.0558885 -0.112578 1.153 12 22 10
-0.0539571 -0.112286 1.15 11 21 9
-0.052035 -0.111993 1.147 11 21 9
-0.0501222 -0.1117 1.144 9 20 12
-0.048261 -0.111504 1.142 10 21 13
-0.0463246 -0.111114 1.138 1 10 19
-0.0438133 -0.109259 1.119 2 11 20
-0.0407219 -0.105744 1.083 14 26 55
-0.0362542 -0.102619 1.051 61 76 109
-0.034556 -0.102424 1.049 53 68 101
-0.0328641 -0.102229 1.047 47 65 95
-0.0312381 -0.102229 1.047 100 118 148
-0.0295838 -0.102131 1.046 130 151 180
-0.0279593 -0.102131 1.046 62 83 112
-0.0263348 -0.102131 1.046 42 59 94
-0.0247104 -0.102131 1.046 33 50 85
-0.0230859 -0.102131 1.046 26 44 83
-0.0214614 -0.102131 1.046 27 45 84
-0.0198369 -0.102131 1.046 34 55 96
-0.0182125 -0.102131 1.046 63 84 125
-0.0165721 -0.102033 1.045 105 132 170
-0.0149349 -0.101936 1.044 114 141 179
-0.0133135 -0.101936 1.044 109 136 174
-0.0116922 -0.101936 1.044 97 124 162
-0.0100708 -0.101936 1.044 80 109 148
-0.00844944 -0.101936 1.044 75 104 143
-0.00682807 -0.101936 1.044 75 104 143
-0.0052067 -0.101936 1.044 78 107 146
-0.0035819 -0.101838 1.043 74 104 141
-0.00196209 -0.101838 1.043 78 108 145
-0.000342273 -0.101838 1.043 87 117 154
0.00127754 -0.101838 1.043 91 121 158
0.00289736 -0.101838 1.043 90 117 155
0.00451717 -0.101838 1.043 94 121 159
0.00613699 -0.101838 1.043 103 130 168
0.00774936 -0.10174 1.042 100 127 165
0.00936762 -0.10174 1.042 87 114 152
0.0109859 -0.10174 1.042 77 104 142
0.0126041 -0.10174 1.042 85 115 152
0.0142224 -0.10174 1.042 86 116 153
0.0158407 -0.10174 1.042 87 116 155
0.0174589 -0.10174 1.042 88 117 156
0.0190772 -0.10174 1.042 92 121 160
0.0206955 -0.10174 1.042 92 121 160
0.0223137 -0.10174 1.042 92 122 159
0.023932 -0.10174 1.042 99 129 166
0.0255502 -0.10174 1.042 96 126 163
0.0271685 -0.10174 1.042 96 126 163
0.0287868 -0.10174 1.042 96 126 163
0.030405 -0.10174 1.042 95 125 162
0.0320233 -0.10174 1.042 95 122 160
0.0336415 -0.10174 1.042 96 123 161
0.0352598 -0.10174 1.042 94 121 159
0.0368781 -0.10174 1.042 107 134 172
0.0384963 -0.10174 1.042 109 135 175
0.0401146 -0.10174 1.042 87 113 153
0.0417329 -0.10174 1.042 74 100 140
0.0433511 -0.10174 1.042 75 101 141
0.0449694 -0.10174 1.042 82 108 148
0.0465876 -0.10174 1.042 102 128 168
0.0482059 -0.10174 1.042 103 129 169
0.0497763 -0.101643 1.041 97 123 163
0.0513931 -0.101643 1.041 98 125 163
0.0530098 -0.101643 1.041 97 124 162
0.0546265 -0.101643 1.041 110 137 175
0.0562432 -0.101643 1.041 109 136 174
0.0578599 -0.101643 1.041 108 135 173
0.0594766 -0.101643 1.041 98 125 163
0.0610933 -0.101643 1.041 91 118 156
0.06271 -0.101643 1.041 82 109 147
0.0643267 -0.101643 1.041 81 108 146
0.0660068 -0.10174 1.042 90 117 155
0.067625 -0.10174 1.042 97 123 163
0.0692433 -0.10174 1.042 94 120 160
0.0708616 -0.10174 1.042 94 120 160
0.0725494 -0.101838 1.043 95 121 161
0.0741692 -0.101838 1.043 97 123 163
0.075789 -0.101838 1.043 95 121 161
0.077483 -0.101936 1.044 94 120 160
0.0791044 -0.101936 1.044 95 121 161
0.0807258 -0.101936 1.044 95 121 161
0.0823471 -0.101936 1.044 95 121 161
0.0839685 -0.101936 1.044 95 121 161
0.0872948 -0.102033 1.045 94 123 162
0.0888326 -0.101936 1.044 94 123 162
0.0905406 -0.102033 1.045 94 123 162
0.0921635 -0.102033 1.045 93 122 161
0.0936967 -0.101936 1.044 92 121 160
0.0954094 -0.102033 1.045 87 116 155
0.0969395 -0.101936 1.044 87 117 154
0.0985608 -0.101936 1.044 95 125 162
0.100182 -0.101936 1.044 98 128 165
0.101804 -0.101936 1.044 96 126 163
0.103326 -0.101838 1.043 94 124 161
0.104946 -0.101838 1.043 95 125 162
0.106565 -0.101838 1.043 94 124 161
0.108185 -0.101838 1.043 94 124 161
0.109805 -0.101838 1.043 95 125 162
0.111425 -0.101838 1.043 96 126 163
0.113045 -0.101838 1.043 96 126 163
0.114665 -0.101838 1.043 95 125 162
0.116284 -0.101838 1.043 95 126 160
0.117904 -0.101838 1.043 95 126 160
0.119409 -0.10174 1.042 95 126 160
0.120795 -0.101545 1.04 95 126 160
0.122293 -0.101448 1.039 95 126 160
0.123787 -0.10135 1.038 95 126 160
0.125278 -0.101252 1.037 97 125 160
0.126767 -0.101155 1.036 97 125 160
0.128375 -0.101155 1.036 100 126 161
0.129984 -0.101155 1.036 102 128 163
0.131466 -0.101057 1.035 108 130 164
0.133074 -0.101057 1.035 117 139 173
0.134681 -0.101057 1.035 109 129 163
0.136157 -0.100959 1.034 66 86 120
0.137763 -0.100959 1.034 55 76 105
0.139369 -0.100959 1.034 64 85 114
0.140838 -0.100862 1.033 108 129 158
0.142442 -0.100862 1.033 138 159 188
0.144186 -0.100959 1.034 56 83 87
0.173413 -0.115019 1.178 40 63 31
0.175243 -0.115019 1.178 40 63 31
0.177072 -0.115019 1.178 40 63 31
0.178902 -0.115019 1.178 40 64 30
0.180885 -0.115117 1.179 39 63 29
0.182716 -0.115117 1.179 37 61 27
0.184703 -0.115215 1.18 39 63 29
0.186536 -0.115215 1.18 39 63 29
0.190523 -0.11541 1.182 43 67 33
0.192359 -0.11541 1.182 42 66 32
0.194359 -0.115508 1.183 41 65 31
0.196528 -0.115703 1.185 40 64 30
0.198703 -0.115898 1.187 39 63 29
0.200716 -0.115996 1.188 39 63 29
0.202902 -0.116191 1.19 41 65 31
0.204922 -0.116289 1.191 41 65 31
0.206945 -0.116386 1.192 41 65 31
0.209147 -0.116582 1.194 41 65 31
0.211178 -0.116679 1.195 40 64 30
0.213034 -0.116679 1.195 41 65 31
0.215069 -0.116777 1.196 41 65 31
0.216927 -0.116777 1.196 41 65 31
0.218784 -0.116777 1.196 41 65 31
0.220642 -0.116777 1.196 40 64 30
0.222499 -0.116777 1.196 41 65 31
0.224169 -0.116679 1.195 42 66 32
0.226025 -0.116679 1.195 40 64 30
0.22769 -0.116582 1.194 37 61 27
0.229352 -0.116484 1.193 39 63 29
0.231011 -0.116386 1.192 39 63 29
0.232667 -0.116289 1.191 36 60 26
0.23432 -0.116191 1.19 37 61 27
0.236168 -0.116191 1.19 37 61 27
0.237816 -0.116093 1.189 35 59 25
0.239259 -0.115898 1.187 29 53 19
0.241103 -0.115898 1.187 30 54 20
0.242741 -0.115801 1.186 29 52 20
0.244583 -0.115801 1.186 29 52 20
0.246425 -0.115801 1.186 26 48 19
0.248267 -0.115801 1.186 22 44 15
0.252163 -0.115898 1.187 20 42 15
0.254007 -0.115898 1.187 18 39 14
0.256281 -0.116093 1.189 20 41 16
0.258345 -0.116191 1.19 20 41 16
0.260412 -0.116289 1.191 19 40 15
0.262482 -0.116386 1.192 18 39 14
0.264555 -0.116484 1.193 18 39 14
0.266854 -0.116679 1.195 19 40 15
0.26871 -0.116679 1.195 20 41 16
0.270792 -0.116777 1.196 21 41 19
0.272878 -0.116875 1.197 20 40 18
0.274736 -0.116875 1.197 19 39 17
0.276595 -0.116875 1.197 20 40 18
0.278454 -0.116875 1.197 20 40 18
0.280079 -0.116777 1.196 20 40 18
0.281701 -0.116679 1.195 18 38 16
0.28332 -0.116582 1.194 19 39 17
0.285174 -0.116582 1.194 19 39 17
0.286547 -0.116386 1.192 20 40 18
0.288157 -0.116289 1.191 21 41 19
0.289276 -0.115996 1.188 21 41 19
0.290876 -0.115898 1.187 21 41 19
0.292719 -0.115898 1.187 21 41 19
0.294066 -0.115703 1.185 21 41 19
0.295907 -0.115703 1.185 20 40 18
0.297747 -0.115703 1.185 20 40 18
0.299587 -0.115703 1.185 20 40 18
0.301428 -0.115703 1.185 19 39 17
0.303268 -0.115703 1.185 20 40 18
0.305366 -0.115801 1.186 20 41 16
0.307208 -0.115801 1.186 20 41 16
0.30931 -0.115898 1.187 21 42 17
0.311154 -0.115898 1.187 20 41 16
0.312997 -0.115898 1.187 21 42 17
0.314841 -0.115898 1.187 20 41 16
0.316684 -0.115898 1.187 20 41 16
0.318796 -0.115996 1.188 20 41 16
0.320641 -0.115996 1.188 19 40 15
0.322486 -0.115996 1.188 20 41 16
0.324331 -0.115996 1.188 21 42 17
0.326176 -0.115996 1.188 22 43 18
0.328297 -0.116093 1.189 23 44 19
0.330144 -0.116093 1.189 25 46 21
0.332269 -0.116191 1.19 26 47 22
0.334117 -0.116191 1.19 26 47 22
0.335966 -0.116191 1.19 26 47 22
0.337814 -0.116191 1.19 26 47 22
0.339376 -0.116093 1.189 27 46 21
0.341223 -0.116093 1.189 27 46 21
0.34307 -0.116093 1.189 27 46 21
0.344626 -0.115996 1.188 27 46 21
0.346179 -0.115898 1.187 29 48 23
0.34773 -0.115801 1.186 30 49 24
0.349277 -0.115703 1.185 30 48 26
0.350524 -0.115508 1.183 29 47 25
0.352064 -0.11541 1.182 29 47 25
0.3536 -0.115312 1.181 29 47 25
0.355133 -0.115215 1.18 28 45 25
0.356663 -0.115117 1.179 28 45 25
0.35819 -0.115019 1.178 27 43 26
0.359409 -0.114824 1.176 29 45 28
0.360928 -0.114727 1.175 30 46 31
0.361826 -0.114434 1.172 25 41 26
0.362716 -0.114141 1.169 22 36 26
0.363908 -0.113945 1.167 16 30 20
0.361959 -0.112774 1.155 12 22 17
0.361863 -0.112188 1.149 32 42 37
0.361934 -0.111114 1.138 101 110 108
0.362423 -0.110723 1.134 104 113 112
0.362899 -0.110333 1.13 123 132 131
0.363686 -0.11004 1.127 126 129 137
0.366085 -0.110235 1.129 50 53 61
-0.165179 -0.113284 1.179 6 15 6
-0.163487 -0.11338 1.18 14 23 14
-0.161791 -0.113476 1.181 8 17 8
-0.160093 -0.113572 1.182 7 16 7
-0.158257 -0.113572 1.182 7 16 7
-0.156686 -0.113764 1.184 8 17 8
-0.154978 -0.11386 1.185 7 16 7
-0.153138 -0.11386 1.185 7 16 7
-0.151425 -0.113956 1.186 8 18 6
-0.149709 -0.114053 1.187 12 22 10
-0.147866 -0.114053 1.187 18 28 16
-0.146268 -0.114245 1.189 17 27 15
-0.144422 -0.114245 1.189 18 29 15
-0.142695 -0.114341 1.19 19 30 16
-0.140847 -0.114341 1.19 20 31 17
-0.138999 -0.114341 1.19 20 31 17
-0.137151 -0.114341 1.19 19 30 16
-0.135303 -0.114341 1.19 19 30 16
-0.133454 -0.114341 1.19 19 30 16
-0.131496 -0.114245 1.189 20 31 17
-0.129649 -0.114245 1.189 19 30 16
-0.127803 -0.114245 1.189 19 30 16
-0.125956 -0.114245 1.189 18 29 13
