ply
format ascii 1.0
comment Created by Open3D
element vertex 1354
property double x
property double y
property double z
property uchar red
property uchar green
property uchar blue
end_header
0.168353 -0.100622 1.181 51 75 29
0.170331 -0.100707 1.182 48 72 26
0.172458 -0.100877 1.184 48 72 26
0.174444 -0.100963 1.185 48 72 26
0.176284 -0.100963 1.185 50 74 28
0.178275 -0.101048 1.186 48 72 26
0.180117 -0.101048 1.186 48 72 26
0.182112 -0.101133 1.187 50 74 28
0.183956 -0.101133 1.187 48 71 27
0.185799 -0.101133 1.187 48 71 27
0.187484 -0.101048 1.186 45 69 28
0.189326 -0.101048 1.186 49 73 32
0.191007 -0.100963 1.185 51 75 34
0.192847 -0.100963 1.185 50 74 33
0.194688 -0.100963 1.185 50 74 33
0.196528 -0.100963 1.185 49 73 32
0.198201 -0.100877 1.184 46 70 29
0.20004 -0.100877 1.184 48 72 31
0.201879 -0.100877 1.184 48 72 31
0.203889 -0.100963 1.185 48 72 31
0.20573 -0.100963 1.185 48 72 31
0.20757 -0.100963 1.185 48 72 31
0.209587 -0.101048 1.186 49 73 32
0.211607 -0.101133 1.187 49 73 32
0.213451 -0.101133 1.187 48 72 31
0.215657 -0.101303 1.189 48 72 31
0.217687 -0.101389 1.19 46 70 29
0.219535 -0.101389 1.19 48 72 31
0.221755 -0.101559 1.192 49 73 32
0.223606 -0.101559 1.192 46 70 29
0.225457 -0.101559 1.192 43 67 26
0.227308 -0.101559 1.192 43 67 26
0.229352 -0.101644 1.193 42 66 25
0.231205 -0.101644 1.193 42 66 25
0.232862 -0.101559 1.192 44 66 27
0.234713 -0.101559 1.192 43 65 26
0.236565 -0.101559 1.192 38 59 22
0.238216 -0.101474 1.191 37 58 21
0.239864 -0.101389 1.19 37 58 21
0.241712 -0.101389 1.19 38 59 22
0.243355 -0.101303 1.189 27 47 13
0.244996 -0.101218 1.188 26 46 12
0.246841 -0.101218 1.188 30 49 17
0.248476 -0.101133 1.187 34 53 21
0.25032 -0.101133 1.187 33 51 22
0.251951 -0.101048 1.186 24 42 13
0.253579 -0.100963 1.185 20 38 11
0.255419 -0.100963 1.185 22 40 13
0.257259 -0.100963 1.185 20 38 11
0.258881 -0.100877 1.184 20 38 11
0.26072 -0.100877 1.184 23 41 14
0.262559 -0.100877 1.184 23 41 14
0.264398 -0.100877 1.184 22 40 13
0.266236 -0.100877 1.184 22 40 13
0.268075 -0.100877 1.184 20 38 11
0.269914 -0.100877 1.184 22 40 13
0.271523 -0.100792 1.183 22 40 13
0.27336 -0.100792 1.183 23 41 14
0.275198 -0.100792 1.183 23 41 14
0.277035 -0.100792 1.183 24 42 15
0.279108 -0.100877 1.184 23 40 15
0.280947 -0.100877 1.184 23 40 15
0.282785 -0.100877 1.184 20 39 14
0.284624 -0.100877 1.184 21 40 15
0.286463 -0.100877 1.184 20 38 16
0.288302 -0.100877 1.184 21 39 17
0.289896 -0.100792 1.183 22 40 18
0.291486 -0.100707 1.182 21 39 17
0.293322 -0.100707 1.182 23 41 19
0.295158 -0.100707 1.182 23 41 19
0.296993 -0.100707 1.182 20 38 16
0.298829 -0.100707 1.182 21 39 17
0.300665 -0.100707 1.182 18 36 14
0.3025 -0.100707 1.182 20 38 16
0.304594 -0.100792 1.183 21 39 17
0.30669 -0.100877 1.184 21 39 17
0.308529 -0.100877 1.184 21 39 17
0.311154 -0.101133 1.187 21 39 17
0.313261 -0.101218 1.188 21 39 17
0.315636 -0.101389 1.19 21 39 17
0.317484 -0.101389 1.19 22 40 18
0.321721 -0.101559 1.192 23 41 19
0.323572 -0.101559 1.192 22 40 18
0.325969 -0.101729 1.194 22 40 18
0.328098 -0.101815 1.195 22 40 18
0.329954 -0.101815 1.195 24 42 20
0.331532 -0.101729 1.194 24 42 20
0.333386 -0.101729 1.194 27 45 23
0.334679 -0.101559 1.192 28 46 24
0.336248 -0.101474 1.191 28 46 24
0.337814 -0.101389 1.19 28 46 24
0.339376 -0.101303 1.189 28 47 22
0.340649 -0.101133 1.187 28 47 22
0.342204 -0.101048 1.186 28 47 22
0.343756 -0.100963 1.185 27 46 21
0.345304 -0.100877 1.184 25 44 19
0.346557 -0.100707 1.182 27 46 21
0.348098 -0.100622 1.181 27 46 21
0.349339 -0.100451 1.179 25 44 19
0.350575 -0.100281 1.177 25 44 19
0.351804 -0.100111 1.175 28 47 22
0.353027 -0.0999403 1.173 29 48 23
0.354243 -0.0997699 1.171 28 47 22
0.35515 -0.0995143 1.168 25 43 21
0.356352 -0.0993439 1.166 24 42 20
0.357549 -0.0991735 1.164 34 50 28
0.357504 -0.0986622 1.158 23 39 17
0.358372 -0.0984066 1.155 24 36 17
0.358918 -0.0980658 1.151 17 29 10
0.360079 -0.0978954 1.149 15 25 13
0.360604 -0.0975546 1.145 27 37 25
0.361432 -0.097299 1.142 104 113 104
0.36257 -0.0971286 1.14 111 120 111
0.363382 -0.096873 1.137 119 125 124
0.364826 -0.0967878 1.136 130 136 135
0.366591 -0.0967878 1.136 128 135 139
0.369652 -0.0971286 1.14 54 61 65
-0.16546 -0.0987855 1.181 7 16 7
-0.163764 -0.0988692 1.182 8 17 8
-0.161928 -0.0988692 1.182 8 17 8
-0.160228 -0.0989528 1.183 10 19 10
-0.158391 -0.0989528 1.183 10 19 10
-0.156686 -0.0990365 1.184 10 19 10
-0.154847 -0.0990365 1.184 11 20 11
-0.153008 -0.0990365 1.184 11 20 11
-0.15117 -0.0990365 1.184 12 22 10
-0.149331 -0.0990365 1.184 13 23 11
-0.147492 -0.0990365 1.184 14 25 11
-0.145653 -0.0990365 1.184 18 29 15
-0.143814 -0.0990365 1.184 19 31 12
-0.141856 -0.0989528 1.183 20 32 13
-0.1399 -0.0988692 1.182 20 32 13
-0.138064 -0.0988692 1.182 20 32 13
-0.136229 -0.0988692 1.182 20 32 13
-0.134393 -0.0988692 1.182 20 32 13
-0.132557 -0.0988692 1.182 21 34 13
-0.130611 -0.0987855 1.181 18 31 10
-0.12705 -0.0988692 1.182 19 32 11
-0.125215 -0.0988692 1.182 20 34 10
-0.123483 -0.0989528 1.183 20 34 10
-0.121749 -0.0990365 1.184 20 34 10
-0.120011 -0.0991201 1.185 19 33 9
-0.118271 -0.0992038 1.186 20 35 9
-0.116527 -0.0992874 1.187 18 33 7
-0.11478 -0.0993711 1.188 15 33 6
-0.11303 -0.0994547 1.189 16 34 7
-0.111277 -0.0995384 1.19 20 38 11
-0.109429 -0.0995384 1.19 20 38 11
-0.107671 -0.099622 1.191 23 43 14
-0.105911 -0.0997057 1.192 31 51 22
-0.104059 -0.0997057 1.192 31 53 19
-0.102208 -0.0997057 1.192 39 61 27
-0.100273 -0.099622 1.191 42 65 28
-0.0983404 -0.0995384 1.19 43 66 29
-0.0964112 -0.0994547 1.189 39 62 25
-0.0944851 -0.0993711 1.188 38 61 24
-0.0924061 -0.0991201 1.185 38 61 24
-0.0905658 -0.0991201 1.185 38 61 24
-0.0886506 -0.0990365 1.184 37 60 23
-0.0866651 -0.0988692 1.182 38 61 24
-0.0848295 -0.0988692 1.182 37 60 23
-0.0829938 -0.0988692 1.182 36 59 22
-0.0811581 -0.0988692 1.182 37 60 23
-0.0792553 -0.0987855 1.181 37 60 23
-0.0774212 -0.0987855 1.181 36 59 22
-0.075523 -0.0987019 1.18 37 60 23
-0.0736904 -0.0987019 1.18 39 62 25
-0.0717361 -0.0985346 1.178 37 60 23
-0.0697879 -0.0983673 1.176 37 60 23
-0.067846 -0.0982 1.174 37 60 23
-0.0659665 -0.0981164 1.173 37 60 23
-0.0640354 -0.0979491 1.171 37 60 23
-0.0620043 -0.0976145 1.167 37 60 23
-0.0600371 -0.0973636 1.164 32 55 18
-0.0581293 -0.0971963 1.162 47 59 24
-0.0561308 -0.0968617 1.158 55 67 32
-0.0540978 -0.0964435 1.153 50 55 21
-0.0521711 -0.0961925 1.15 60 65 31
-0.0502536 -0.0959416 1.147 78 80 44
-0.0483878 -0.0957743 1.145 87 89 53
-0.0465689 -0.0956907 1.144 114 114 74
-0.0447922 -0.0956907 1.144 140 140 100
-0.0430155 -0.0956907 1.144 131 133 88
-0.0412749 -0.0957743 1.145 57 59 14
-0.0396347 -0.0961089 1.149 23 30 0
-0.037982 -0.0964435 1.153 44 51 10
-0.0362855 -0.0966944 1.156 56 62 24
-0.0328646 -0.0971963 1.162 38 58 24
-0.0311669 -0.0975309 1.166 39 59 25
-0.0294819 -0.0979491 1.171 39 59 25
-0.0278051 -0.098451 1.177 39 59 25
-0.0261096 -0.0989528 1.183 40 60 26
-0.0243749 -0.0993711 1.188 40 60 26
-0.0226058 -0.0997057 1.192 40 59 27
-0.0208068 -0.0999566 1.195 41 60 28
-0.017138 -0.100208 1.198 40 59 27
-0.0153029 -0.100375 1.2 39 58 26
-0.0134393 -0.100375 1.2 39 58 26
-0.0115756 -0.100375 1.2 40 60 26
-0.009712 -0.100375 1.2 41 61 27
-0.0078549 -0.100458 1.201 40 60 26
-0.0059897 -0.100458 1.201 41 61 27
-0.00412794 -0.100542 1.202 40 60 26
-0.0022612 -0.100542 1.202 41 61 27
-0.000394122 -0.100458 1.201 40 60 26
0.00147107 -0.100458 1.201 40 60 26
0.00333627 -0.100458 1.201 40 60 26
0.00519713 -0.100375 1.2 41 61 27
0.00706077 -0.100375 1.2 41 61 27
0.00891697 -0.100291 1.199 43 63 29
0.0107611 -0.100124 1.197 43 63 29
0.0126201 -0.100124 1.197 41 61 27
0.014479 -0.100124 1.197 40 60 26
0.016338 -0.100124 1.197 39 59 25
0.0181818 -0.10004 1.196 41 60 28
0.0200392 -0.10004 1.196 40 59 27
0.0218784 -0.0999566 1.195 39 58 26
0.0237342 -0.0999566 1.195 39 58 26
0.0255901 -0.0999566 1.195 39 58 26
0.027446 -0.0999566 1.195 40 59 27
0.0293019 -0.0999566 1.195 40 58 29
0.0311838 -0.10004 1.196 40 58 29
0.0330136 -0.0999566 1.195 40 58 29
0.0348987 -0.10004 1.196 41 59 30
0.0367561 -0.10004 1.196 41 59 30
0.0385812 -0.0999566 1.195 43 61 32
0.0404371 -0.0999566 1.195 43 62 30
0.042293 -0.0999566 1.195 44 63 31
0.0441489 -0.0999566 1.195 44 63 31
0.0460047 -0.0999566 1.195 44 63 31
0.0478206 -0.0998729 1.194 44 63 31
0.0496749 -0.0998729 1.194 43 62 30
0.0514861 -0.0997893 1.193 44 63 31
0.0533388 -0.0997893 1.193 45 64 32
0.0551916 -0.0997893 1.193 44 63 31
0.0569965 -0.0997057 1.192 43 62 30
0.0588478 -0.0997057 1.192 44 63 31
0.060699 -0.0997057 1.192 43 62 30
0.0625502 -0.0997057 1.192 41 61 32
0.0644014 -0.0997057 1.192 37 57 28
0.0662526 -0.0997057 1.192 37 57 30
0.0682181 -0.0998729 1.194 38 58 31
0.0701311 -0.0999566 1.195 38 57 32
0.071987 -0.0999566 1.195 39 58 33
0.0738429 -0.0999566 1.195 38 57 32
0.0756988 -0.0999566 1.195 35 54 29
0.0776195 -0.10004 1.196 35 54 29
0.0795434 -0.100124 1.197 34 53 28
0.0814024 -0.100124 1.197 36 55 30
0.0832614 -0.100124 1.197 39 58 33
0.0851204 -0.100124 1.197 39 59 32
0.0869793 -0.100124 1.197 39 59 32
0.0889125 -0.100208 1.198 38 58 31
0.0906973 -0.100124 1.197 38 58 31
0.0926336 -0.100208 1.198 40 58 31
0.0944153 -0.100124 1.197 37 55 28
0.0961938 -0.10004 1.196 32 50 21
0.0979693 -0.0999566 1.195 31 49 20
0.0997416 -0.0998729 1.194 33 51 24
0.101426 -0.0997057 1.192 38 56 29
0.103104 -0.0995384 1.19 38 56 34
0.104952 -0.0995384 1.19 41 59 37
0.106531 -0.0992874 1.187 40 58 41
0.108283 -0.0992038 1.186 40 58 41
0.110125 -0.0992038 1.186 39 57 42
0.111967 -0.0992038 1.186 37 55 40
0.113713 -0.0991201 1.185 39 56 43
0.11565 -0.0992038 1.186 37 54 41
0.117492 -0.0992038 1.186 39 56 43
0.119334 -0.0992038 1.186 40 57 44
0.121278 -0.0992874 1.187 44 59 46
0.123122 -0.0992874 1.187 45 60 47
0.124965 -0.0992874 1.187 46 59 46
0.126809 -0.0992874 1.187 46 59 46
0.128652 -0.0992874 1.187 49 59 47
0.130386 -0.0992038 1.186 49 59 47
0.132227 -0.0992038 1.186 54 62 50
0.133956 -0.0991201 1.185 56 64 52
0.135797 -0.0991201 1.185 56 65 51
0.137521 -0.0990365 1.184 55 64 50
0.139124 -0.0988692 1.182 55 64 48
0.14096 -0.0988692 1.182 55 64 48
0.142554 -0.0987019 1.18 57 63 40
0.144264 -0.0986183 1.179 53 59 36
0.145971 -0.0985346 1.178 52 60 30
0.147675 -0.098451 1.177 53 61 31
0.149376 -0.0983673 1.176 47 58 26
0.151203 -0.0983673 1.176 50 61 29
0.153029 -0.0983673 1.176 50 66 30
0.154987 -0.098451 1.177 52 68 32
0.156815 -0.098451 1.177 56 73 35
0.158778 -0.0985346 1.178 56 73 35
0.162575 -0.0986183 1.179 54 71 33
0.164545 -0.0987019 1.18 50 70 27
0.166519 -0.0987855 1.181 53 73 30
0.168495 -0.0988692 1.182 50 74 28
0.170475 -0.0989528 1.183 47 71 25
0.172604 -0.0991201 1.185 48 72 26
0.174444 -0.0991201 1.185 48 72 26
0.176433 -0.0992038 1.186 48 72 26
0.178425 -0.0992874 1.187 48 72 26
0.180269 -0.0992874 1.187 48 72 26
0.182112 -0.0992874 1.187 50 74 28
0.183956 -0.0992874 1.187 50 73 29
0.185799 -0.0992874 1.187 51 74 30
0.187643 -0.0992874 1.187 48 73 29
0.189486 -0.0992874 1.187 49 74 30
0.191168 -0.0992038 1.186 49 73 32
0.192847 -0.0991201 1.185 48 72 31
0.194688 -0.0991201 1.185 48 72 31
0.196528 -0.0991201 1.185 46 70 29
0.198201 -0.0990365 1.184 46 70 29
0.20004 -0.0990365 1.184 49 73 32
0.201879 -0.0990365 1.184 48 72 31
0.203889 -0.0991201 1.185 45 69 28
0.20573 -0.0991201 1.185 46 70 29
0.20757 -0.0991201 1.185 46 70 29
0.209587 -0.0992038 1.186 46 70 29
0.211607 -0.0992874 1.187 48 72 31
0.213451 -0.0992874 1.187 48 72 31
0.215657 -0.0994547 1.189 48 72 31
0.217687 -0.0995384 1.19 48 72 31
0.219535 -0.0995384 1.19 49 73 32
0.221755 -0.0997057 1.192 48 72 31
0.223606 -0.0997057 1.192 44 68 27
0.225457 -0.0997057 1.192 44 68 27
0.227499 -0.0997893 1.193 44 68 27
0.229352 -0.0997893 1.193 43 67 26
0.231205 -0.0997893 1.193 42 66 25
0.232862 -0.0997057 1.192 43 65 26
0.234713 -0.0997057 1.192 40 62 23
0.236565 -0.0997057 1.192 39 60 23
0.238416 -0.0997057 1.192 37 58 21
0.239864 -0.0995384 1.19 37 57 23
0.241712 -0.0995384 1.19 37 57 23
0.24356 -0.0995384 1.19 36 56 22
0.245408 -0.0995384 1.19 36 56 22
0.247049 -0.0994547 1.189 33 52 20
0.248686 -0.0993711 1.188 34 53 21
0.25032 -0.0992874 1.187 27 45 16
0.252163 -0.0992874 1.187 19 37 8
0.253793 -0.0992038 1.186 23 40 15
0.255635 -0.0992038 1.186 23 40 15
0.257259 -0.0991201 1.185 22 39 14
0.2591 -0.0991201 1.185 22 39 14
0.26094 -0.0991201 1.185 22 40 13
0.262781 -0.0991201 1.185 22 40 13
0.264398 -0.0990365 1.184 22 40 13
0.266236 -0.0990365 1.184 22 40 13
0.268075 -0.0990365 1.184 22 40 13
0.269914 -0.0990365 1.184 22 40 13
0.271523 -0.0989528 1.183 22 40 13
0.273129 -0.0988692 1.182 22 40 13
0.274965 -0.0988692 1.182 23 40 15
0.276801 -0.0988692 1.182 24 41 16
0.278636 -0.0988692 1.182 22 41 16
0.280709 -0.0989528 1.183 22 41 16
0.282547 -0.0989528 1.183 21 39 17
0.284384 -0.0989528 1.183 21 39 17
0.286221 -0.0989528 1.183 20 38 16
0.288058 -0.0989528 1.183 21 39 17
0.289651 -0.0988692 1.182 21 39 17
0.291486 -0.0988692 1.182 22 40 18
0.293322 -0.0988692 1.182 23 41 19
0.295158 -0.0988692 1.182 22 40 18
0.296993 -0.0988692 1.182 21 39 17
0.298829 -0.0988692 1.182 22 40 18
0.300665 -0.0988692 1.182 20 38 16
0.3025 -0.0988692 1.182 18 36 14
0.304336 -0.0988692 1.182 18 36 14
0.306431 -0.0989528 1.183 18 36 14
0.308529 -0.0990365 1.184 20 38 16
0.311154 -0.0992874 1.187 20 38 16
0.313261 -0.0993711 1.188 20 38 16
0.315636 -0.0995384 1.19 21 39 17
0.317751 -0.099622 1.191 21 39 17
0.321721 -0.0997057 1.192 23 41 19
0.324115 -0.0998729 1.194 22 40 18
0.326242 -0.0999566 1.195 22 40 18
0.328098 -0.0999566 1.195 22 40 18
0.329954 -0.0999566 1.195 23 41 19
0.33181 -0.0999566 1.195 23 41 19
0.333386 -0.0998729 1.194 27 45 23
0.335241 -0.0998729 1.194 29 47 25
0.33653 -0.0997057 1.192 29 47 25
0.337814 -0.0995384 1.19 29 47 25
0.339662 -0.0995384 1.19 28 46 24
0.340936 -0.0993711 1.188 29 47 25
0.342492 -0.0992874 1.187 27 45 23
0.343756 -0.0991201 1.185 25 43 21
0.345596 -0.0991201 1.185 24 43 18
0.34685 -0.0989528 1.183 23 42 17
0.348098 -0.0987855 1.181 25 44 19
0.349636 -0.0987019 1.18 25 44 19
0.350872 -0.0985346 1.178 28 47 22
0.351804 -0.0982837 1.175 29 48 23
0.353027 -0.0981164 1.173 29 48 23
0.354243 -0.0979491 1.171 27 46 21
0.355454 -0.0977818 1.169 29 45 23
0.356658 -0.0976145 1.167 26 42 20
0.357856 -0.0974472 1.165 27 42 22
0.358739 -0.0971963 1.162 25 40 20
0.358682 -0.0966944 1.156 24 36 17
0.35923 -0.0963598 1.152 17 29 10
0.360079 -0.0961089 1.149 17 25 13
0.360604 -0.0957743 1.145 29 37 25
0.361432 -0.0955234 1.142 104 113 104
0.36257 -0.0953561 1.14 112 121 112
0.363382 -0.0951051 1.137 119 125 124
0.364826 -0.0950215 1.136 128 134 133
0.366591 -0.0950215 1.136 128 135 139
0.369652 -0.0953561 1.14 52 59 63
-0.16546 -0.0969492 1.181 7 17 5
-0.163625 -0.0969492 1.181 8 18 6
-0.161928 -0.0970313 1.182 7 17 5
-0.160093 -0.0970313 1.182 10 20 8
-0.158257 -0.0970313 1.182 10 20 8
-0.156554 -0.0971134 1.183 11 21 9
-0.154716 -0.0971134 1.183 11 21 9
-0.152879 -0.0971134 1.183 11 21 9
-0.151042 -0.0971134 1.183 12 22 10
-0.149205 -0.0971134 1.183 12 22 10
-0.147367 -0.0971134 1.183 13 24 8
-0.14553 -0.0971134 1.183 17 28 12
-0.143693 -0.0971134 1.183 19 31 12
-0.141736 -0.0970313 1.182 20 32 13
-0.1399 -0.0970313 1.182 20 32 13
-0.138064 -0.0970313 1.182 21 33 14
-0.136229 -0.0970313 1.182 20 32 13
-0.134279 -0.0969492 1.181 21 33 14
-0.132445 -0.0969492 1.181 21 34 13
-0.1305 -0.0968671 1.18 18 31 10
-0.128777 -0.0969492 1.181 18 31 10
-0.125215 -0.0970313 1.182 18 32 8
-0.121646 -0.0971134 1.183 20 34 10
-0.11991 -0.0971955 1.184 19 33 9
-0.118171 -0.0972776 1.185 19 33 9
-0.116429 -0.0973597 1.186 20 34 10
-0.114684 -0.0974418 1.187 17 34 9
-0.112935 -0.0975239 1.188 12 29 4
-0.111184 -0.097606 1.189 11 28 3
-0.109429 -0.0976881 1.19 15 32 7
-0.107581 -0.0976881 1.19 22 42 13
-0.105822 -0.0977701 1.191 27 47 18
-0.103972 -0.0977701 1.191 29 50 18
-0.102122 -0.0977701 1.191 30 51 19
-0.100188 -0.0976881 1.19 37 58 21
-0.0983404 -0.0976881 1.19 46 67 30
-0.0963301 -0.0975239 1.188 44 68 29
-0.094326 -0.0973597 1.186 39 63 24
-0.0924061 -0.0972776 1.185 38 62 23
-0.0904894 -0.0971955 1.184 37 61 22
-0.0885008 -0.0970313 1.182 36 60 21
-0.0866651 -0.0970313 1.182 37 61 22
-0.0848295 -0.0970313 1.182 37 61 22
-0.0829236 -0.0969492 1.181 38 62 23
-0.0810208 -0.0968671 1.18 38 62 23
-0.0791882 -0.0968671 1.18 38 62 23
-0.07729 -0.0967851 1.179 36 60 21
-0.075395 -0.096703 1.178 37 61 22
-0.0735031 -0.0966209 1.177 38 62 23
-0.0714925 -0.0963746 1.174 36 60 21
-0.0694912 -0.0961283 1.171 36 59 22
-0.0674992 -0.0958821 1.168 36 59 22
-0.065629 -0.0958 1.167 37 60 23
-0.0636526 -0.0955537 1.164 37 60 23
-0.0616855 -0.0953074 1.161 37 58 21
-0.0597277 -0.0950611 1.158 30 51 14
-0.0575791 -0.0944865 1.151 45 54 22
-0.0556946 -0.0943223 1.149 54 63 31
-0.0537694 -0.0940761 1.146 71 72 38
-0.0518535 -0.0938298 1.143 92 93 59
-0.0499908 -0.0936656 1.141 110 107 72
-0.048092 -0.0934193 1.138 107 104 69
-0.0463246 -0.0934193 1.138 116 111 72
-0.0445573 -0.0934193 1.138 142 137 98
-0.0427899 -0.0934193 1.138 168 165 121
-0.0410947 -0.0935835 1.14 148 145 101
-0.0394622 -0.0939119 1.144 55 56 14
-0.0377843 -0.0941581 1.147 28 29 0
-0.0361599 -0.0945686 1.152 45 52 11
-0.0327515 -0.0950611 1.158 41 56 23
-0.0310867 -0.0954716 1.163 42 57 24
-0.0294316 -0.0959641 1.169 39 59 25
-0.0277578 -0.0964567 1.175 39 59 25
-0.0260654 -0.0969492 1.181 38 58 24
-0.0243544 -0.0974418 1.187 40 60 26
-0.0226058 -0.0978522 1.192 40 60 26
-0.0189826 -0.0982627 1.197 38 58 24
-0.0171523 -0.0984269 1.199 38 58 24
-0.0153029 -0.098509 1.2 38 58 24
-0.0134393 -0.098509 1.2 39 59 25
-0.0115949 -0.0986731 1.202 39 59 25
-0.00972009 -0.0985911 1.201 40 60 26
-0.00786798 -0.0987552 1.203 40 60 26
-0.00599469 -0.0986731 1.202 41 61 27
-0.00413138 -0.0987552 1.203 40 60 26
-0.00226308 -0.0987552 1.203 41 61 27
-0.000394779 -0.0987552 1.203 40 60 26
0.0014723 -0.0986731 1.202 40 60 26
0.00333904 -0.0986731 1.202 40 60 26
0.00520579 -0.0986731 1.202 41 61 27
0.00706665 -0.0985911 1.201 40 60 26
0.00891697 -0.0984269 1.199 40 60 26
0.0107791 -0.0984269 1.199 39 59 25
0.0126306 -0.0983448 1.198 40 60 26
0.014479 -0.0982627 1.197 40 60 26
0.016338 -0.0982627 1.197 40 60 26
0.0181818 -0.0981806 1.196 41 61 27
0.0200392 -0.0981806 1.196 40 60 26
0.0218784 -0.0980985 1.195 39 59 25
0.0237342 -0.0980985 1.195 39 59 25
0.0256115 -0.0981806 1.196 38 57 25
0.027446 -0.0980985 1.195 39 58 26
0.0293264 -0.0981806 1.196 39 58 26
0.0311838 -0.0981806 1.196 40 59 27
0.0330412 -0.0981806 1.196 41 60 28
0.0348987 -0.0981806 1.196 40 59 27
0.0367561 -0.0981806 1.196 41 60 28
0.0386135 -0.0981806 1.196 41 60 28
0.040471 -0.0981806 1.196 41 60 28
0.0423284 -0.0981806 1.196 43 62 30
0.0441858 -0.0981806 1.196 44 63 31
0.0460432 -0.0981806 1.196 44 63 31
0.0478606 -0.0980985 1.195 43 62 30
0.0497165 -0.0980985 1.195 41 60 28
0.0515724 -0.0980985 1.195 41 60 28
0.0534282 -0.0980985 1.195 43 62 30
0.0552379 -0.0980164 1.194 43 63 29
0.0570922 -0.0980164 1.194 43 63 29
0.0588971 -0.0979343 1.193 42 64 30
0.0607499 -0.0979343 1.193 43 65 31
0.0626027 -0.0979343 1.193 44 65 33
0.0644554 -0.0979343 1.193 44 65 33
0.0663638 -0.0980164 1.194 45 66 34
0.0682752 -0.0980985 1.195 45 66 34
0.0701311 -0.0980985 1.195 45 65 36
0.071987 -0.0980985 1.195 44 64 35
0.0739047 -0.0981806 1.196 41 61 34
0.0757621 -0.0981806 1.196 36 56 29
0.0776844 -0.0982627 1.197 35 55 28
0.0795434 -0.0982627 1.197 36 56 29
0.0814024 -0.0982627 1.197 38 58 31
0.0832614 -0.0982627 1.197 43 63 36
0.0851915 -0.0983448 1.198 46 66 37
0.0869793 -0.0982627 1.197 46 66 37
0.0888383 -0.0982627 1.197 46 66 37
0.0906973 -0.0982627 1.197 44 64 35
0.0925563 -0.0982627 1.197 41 61 32
0.0944153 -0.0982627 1.197 38 58 29
0.0962742 -0.0982627 1.197 38 56 27
0.0981332 -0.0982627 1.197 40 58 29
0.0999087 -0.0981806 1.196 52 70 41
0.101681 -0.0980985 1.195 46 64 35
0.10345 -0.0980164 1.194 41 63 36
0.105216 -0.0979343 1.193 41 63 36
0.106979 -0.0978522 1.192 42 62 40
0.108739 -0.0977701 1.191 43 63 41
0.110589 -0.0977701 1.191 43 62 42
0.112439 -0.0977701 1.191 43 62 42
0.114192 -0.0976881 1.19 44 62 45
0.11604 -0.0976881 1.19 42 60 43
0.117889 -0.0976881 1.19 41 59 44
0.119837 -0.0977701 1.191 43 61 46
0.121585 -0.0976881 1.19 47 65 50
0.12364 -0.0978522 1.192 47 65 50
0.125492 -0.0978522 1.192 49 65 50
0.127343 -0.0978522 1.192 49 65 50
0.129194 -0.0978522 1.192 46 62 47
0.130935 -0.0977701 1.191 44 60 45
0.132673 -0.0976881 1.19 44 58 43
0.134522 -0.0976881 1.19 45 59 44
0.136255 -0.097606 1.189 45 59 44
0.137869 -0.0974418 1.187 45 59 44
0.139595 -0.0973597 1.186 45 59 42
0.141318 -0.0972776 1.185 45 59 42
0.143037 -0.0971955 1.184 49 63 39
0.144631 -0.0970313 1.182 47 61 37
0.146343 -0.0969492 1.181 46 62 31
0.148052 -0.0968671 1.18 43 59 28
0.149884 -0.0968671 1.18 45 61 25
0.151588 -0.0967851 1.179 49 65 29
0.153289 -0.096703 1.178 49 66 28
0.155119 -0.096703 1.178 56 73 35
0.157081 -0.0967851 1.179 56 73 35
0.158912 -0.0967851 1.179 55 72 34
0.16088 -0.0968671 1.18 52 71 31
0.162712 -0.0968671 1.18 52 71 31
0.164684 -0.0969492 1.181 50 70 27
0.16666 -0.0970313 1.182 52 72 29
0.168638 -0.0971134 1.183 48 71 27
0.170763 -0.0972776 1.185 47 70 26
0.172604 -0.0972776 1.185 48 72 26
0.174591 -0.0973597 1.186 48 72 26
0.176582 -0.0974418 1.187 47 71 25
0.178425 -0.0974418 1.187 48 72 26
0.180269 -0.0974418 1.187 48 72 26
0.182266 -0.0975239 1.188 50 74 28
0.183956 -0.0974418 1.187 51 74 30
0.185956 -0.0975239 1.188 51 74 30
0.187643 -0.0974418 1.187 48 71 27
0.189486 -0.0974418 1.187 50 73 29
0.191168 -0.0973597 1.186 48 71 27
0.19301 -0.0973597 1.186 50 73 29
0.194688 -0.0972776 1.185 48 73 29
0.196528 -0.0972776 1.185 48 73 29
0.198368 -0.0972776 1.185 46 71 27
0.20004 -0.0971955 1.184 48 73 29
0.201879 -0.0971955 1.184 45 70 26
0.203717 -0.0971955 1.184 45 70 26
0.20573 -0.0972776 1.185 45 69 28
0.20757 -0.0972776 1.185 45 69 28
0.209587 -0.0973597 1.186 46 70 29
0.211607 -0.0974418 1.187 48 72 31
0.213451 -0.0974418 1.187 49 73 32
0.215657 -0.097606 1.189 49 73 32
0.217687 -0.0976881 1.19 49 73 32
0.219535 -0.0976881 1.19 48 72 31
0.221569 -0.0977701 1.191 46 70 29
0.223606 -0.0978522 1.192 45 69 28
0.225457 -0.0978522 1.192 46 70 29
0.227308 -0.0978522 1.192 45 69 28
0.22916 -0.0978522 1.192 44 68 27
0.231011 -0.0978522 1.192 42 66 25
0.232862 -0.0978522 1.192 40 62 23
0.234713 -0.0978522 1.192 40 62 23
0.236565 -0.0978522 1.192 40 61 24
0.238216 -0.0977701 1.191 39 60 23
0.239864 -0.0976881 1.19 38 59 22
0.241712 -0.0976881 1.19 37 58 21
0.24356 -0.0976881 1.19 38 58 24
0.245408 -0.0976881 1.19 36 56 22
0.247256 -0.0976881 1.19 34 54 20
0.248895 -0.097606 1.189 30 50 16
0.250531 -0.0975239 1.188 19 37 8
0.252376 -0.0975239 1.188 24 42 13
0.254007 -0.0974418 1.187 25 43 16
0.25585 -0.0974418 1.187 23 41 14
0.257477 -0.0973597 1.186 23 41 14
0.2591 -0.0972776 1.185 22 40 13
0.26094 -0.0972776 1.185 23 41 14
0.262559 -0.0971955 1.184 23 41 14
0.264398 -0.0971955 1.184 24 42 15
0.266011 -0.0971134 1.183 24 42 15
0.267849 -0.0971134 1.183 23 41 14
0.269458 -0.0970313 1.182 22 40 13
0.271523 -0.0971134 1.183 22 40 13
0.273129 -0.0970313 1.182 22 40 13
0.274965 -0.0970313 1.182 22 40 13
0.276801 -0.0970313 1.182 23 41 14
0.278636 -0.0970313 1.182 21 40 15
0.280472 -0.0970313 1.182 22 41 16
0.282308 -0.0970313 1.182 22 41 16
0.284143 -0.0970313 1.182 21 40 15
0.285979 -0.0970313 1.182 20 38 16
0.287815 -0.0970313 1.182 20 38 16
0.289651 -0.0970313 1.182 21 39 17
0.291486 -0.0970313 1.182 22 40 18
0.293322 -0.0970313 1.182 23 41 19
0.295158 -0.0970313 1.182 22 40 18
0.296742 -0.0969492 1.181 22 40 18
0.298576 -0.0969492 1.181 22 40 18
0.30041 -0.0969492 1.181 21 39 17
0.3025 -0.0970313 1.182 20 38 16
0.304336 -0.0970313 1.182 20 38 16
0.306431 -0.0971134 1.183 21 39 17
0.308529 -0.0971955 1.184 21 39 17
0.310892 -0.0973597 1.186 20 38 16
0.313261 -0.0975239 1.188 21 39 17
0.315636 -0.0976881 1.19 21 39 17
0.319869 -0.0978522 1.192 21 39 17
0.321721 -0.0978522 1.192 22 40 18
0.323843 -0.0979343 1.193 22 40 18
0.325969 -0.0980164 1.194 22 40 18
0.328098 -0.0980985 1.195 22 40 18
0.329954 -0.0980985 1.195 23 41 19
0.33181 -0.0980985 1.195 24 42 20
0.333386 -0.0980164 1.194 24 42 20
0.33496 -0.0979343 1.193 27 45 23
0.33653 -0.0978522 1.192 27 45 23
0.338098 -0.0977701 1.191 28 46 24
0.339662 -0.0976881 1.19 28 46 24
0.341223 -0.097606 1.189 27 45 23
0.342492 -0.0974418 1.187 24 42 20
0.344046 -0.0973597 1.186 25 43 21
0.345596 -0.0972776 1.185 24 42 20
0.347143 -0.0971955 1.184 23 41 19
0.348393 -0.0970313 1.182 30 48 26
0.349636 -0.0968671 1.18 28 46 24
0.35117 -0.0967851 1.179 30 48 26
0.352403 -0.0966209 1.177 30 48 26
0.353629 -0.0964567 1.175 30 48 26
0.354848 -0.0962925 1.173 28 46 24
0.356062 -0.0961283 1.171 28 46 24
0.356964 -0.0958821 1.168 25 43 21
0.358163 -0.0957179 1.166 33 48 28
0.359048 -0.0954716 1.163 24 39 19
0.358682 -0.094897 1.156 20 34 17
0.359542 -0.0946507 1.153 16 30 13
0.360079 -0.0943223 1.149 17 25 13
0.360604 -0.093994 1.145 30 38 26
0.361432 -0.0937477 1.142 104 113 104
0.36257 -0.0935835 1.14 112 121 112
0.363382 -0.0933372 1.137 120 126 125
0.364826 -0.0932551 1.136 131 137 136
0.366913 -0.0933372 1.137 132 136 141
0.369976 -0.0936656 1.141 55 59 64
-0.165319 -0.0950324 1.18 6 16 4
-0.163625 -0.0951129 1.181 8 18 6
-0.161791 -0.0951129 1.181 8 18 6
-0.160093 -0.0951935 1.182 8 18 6
-0.158257 -0.0951935 1.182 10 20 8
-0.156421 -0.0951935 1.182 10 20 8
-0.154586 -0.0951935 1.182 11 21 9
-0.15275 -0.0951935 1.182 12 22 10
-0.151042 -0.095274 1.183 12 22 10
-0.149205 -0.095274 1.183 13 23 11
-0.147367 -0.095274 1.183 14 25 9
-0.14553 -0.095274 1.183 14 25 9
-0.143693 -0.095274 1.183 19 31 12
-0.141856 -0.095274 1.183 20 32 13
-0.1399 -0.0951935 1.182 20 32 13
-0.138064 -0.0951935 1.182 21 33 14
-0.136229 -0.0951935 1.182 20 32 13
-0.134393 -0.0951935 1.182 21 33 14
-0.132445 -0.0951129 1.181 20 32 13
-0.130611 -0.0951129 1.181 19 31 12
-0.128777 -0.0951129 1.181 19 32 11
-0.125215 -0.0951935 1.182 18 31 10
-0.121646 -0.095274 1.183 18 31 10
-0.11991 -0.0953545 1.184 18 31 10
-0.118171 -0.0954351 1.185 20 34 10
-0.116331 -0.0954351 1.185 20 34 10
-0.114684 -0.0955961 1.187 19 33 9
-0.11284 -0.0955961 1.187 19 33 9
-0.11109 -0.0956767 1.188 16 33 8
-0.109337 -0.0957572 1.189 12 29 4
-0.107581 -0.0958377 1.19 20 37 12
-0.105733 -0.0958377 1.19 20 37 12
-0.103885 -0.0958377 1.19 18 36 7
-0.102037 -0.0958377 1.19 18 36 7
-0.100188 -0.0958377 1.19 25 45 11
-0.0982577 -0.0957572 1.189 39 59 25
-0.096249 -0.0955961 1.187 45 66 29
-0.0942465 -0.0954351 1.185 46 67 30
-0.0924061 -0.0954351 1.185 42 65 28
-0.0904129 -0.095274 1.183 36 59 22
-0.0885008 -0.0951935 1.182 36 59 22
-0.0865918 -0.0951129 1.181 35 58 21
-0.0847577 -0.0951129 1.181 36 59 22
-0.0828533 -0.0950324 1.18 36 59 22
-0.0808834 -0.0948713 1.178 38 61 24
-0.079054 -0.0948713 1.178 38 61 24
-0.0770934 -0.0947102 1.176 36 59 22
-0.075203 -0.0946297 1.175 37 60 23
-0.0732533 -0.0944686 1.173 38 61 24
-0.0712489 -0.094227 1.17 36 59 22
-0.0691945 -0.0939049 1.166 36 59 22
-0.0672681 -0.0937438 1.164 36 59 22
-0.0652354 -0.0934217 1.16 37 60 23
-0.0631057 -0.0929385 1.154 36 59 22
-0.0572789 -0.0922136 1.145 62 65 31
-0.0554522 -0.0921331 1.144 85 88 54
-0.0535348 -0.0918915 1.141 103 100 65
-0.0516267 -0.0916499 1.138 102 99 64
-0.0497717 -0.0914888 1.136 116 108 72
-0.0479229 -0.0913277 1.134 109 101 65
-0.0461618 -0.0913277 1.134 104 100 59
-0.0444007 -0.0913277 1.134 120 116 75
-0.0426395 -0.0913277 1.134 169 162 118
-0.0409505 -0.0914888 1.136 188 181 137
-0.0393242 -0.091811 1.14 156 153 104
-0.0376855 -0.0921331 1.144 63 60 11
-0.0360658 -0.0925358 1.149 28 28 0
-0.0344305 -0.0929385 1.154 50 50 10
-0.0310065 -0.0934217 1.16 52 61 24
-0.029356 -0.0939049 1.166 40 61 24
-0.0277106 -0.0944686 1.173 40 61 24
-0.0260434 -0.0950324 1.18 39 60 23
-0.0243544 -0.0955961 1.187 40 61 24
-0.0226058 -0.0959988 1.192 39 59 25
-0.0189826 -0.0964015 1.197 37 57 23
-0.0171666 -0.0966431 1.2 37 57 23
-0.0153284 -0.0968042 1.202 38 58 24
-0.0134617 -0.0968042 1.202 39 59 25
-0.0115949 -0.0968042 1.202 39 59 25
-0.00973628 -0.0968847 1.203 39 59 25
-0.00786798 -0.0968847 1.203 40 60 26
-0.00599968 -0.0968847 1.203 41 61 27
-0.00413481 -0.0969652 1.204 40 60 26
-0.00226308 -0.0968847 1.203 40 60 26
-0.000394779 -0.0968847 1.203 41 61 27
0.00147352 -0.0968847 1.203 41 61 27
0.00334182 -0.0968847 1.203 41 61 27
0.00521012 -0.0968847 1.203 41 61 27
0.00707254 -0.0968042 1.202 40 60 26
0.00893185 -0.0967236 1.201 38 58 24
0.0107881 -0.0966431 1.2 38 58 24
0.0126306 -0.096482 1.198 39 59 25
0.014479 -0.0964015 1.197 40 60 26
0.016338 -0.0964015 1.197 40 60 26
0.018197 -0.0964015 1.197 39 59 25
0.0200392 -0.096321 1.196 39 59 25
0.0218967 -0.096321 1.196 39 59 25
0.023774 -0.0964015 1.197 39 59 25
0.0256115 -0.096321 1.196 39 59 25
0.0274919 -0.0964015 1.197 40 60 26
0.0293509 -0.0964015 1.197 40 60 26
0.0312099 -0.0964015 1.197 41 61 27
0.0330689 -0.0964015 1.197 41 61 27
0.0349278 -0.0964015 1.197 39 59 25
0.0367868 -0.0964015 1.197 39 59 25
0.0386458 -0.0964015 1.197 39 59 25
0.0405048 -0.0964015 1.197 41 61 27
0.0423638 -0.0964015 1.197 43 63 29
0.0442228 -0.0964015 1.197 43 63 29
0.0460817 -0.0964015 1.197 43 63 29
0.0479407 -0.0964015 1.197 43 63 29
0.0497581 -0.096321 1.196 41 61 27
0.0516155 -0.096321 1.196 41 61 27
0.0534282 -0.0962404 1.195 41 61 27
0.0552841 -0.0962404 1.195 43 63 29
0.05714 -0.0962404 1.195 43 63 29
0.0589959 -0.0962404 1.195 41 63 29
0.0608008 -0.0961599 1.194 41 63 29
0.0626551 -0.0961599 1.194 43 65 31
0.0645095 -0.0961599 1.194 43 65 31
0.0663638 -0.0961599 1.194 43 65 31
0.0682752 -0.0962404 1.195 44 66 32
0.0701311 -0.0962404 1.195 44 66 32
0.071987 -0.0962404 1.195 44 66 32
0.0738429 -0.0962404 1.195 43 65 31
0.0757621 -0.096321 1.196 41 63 29
0.0776195 -0.096321 1.196 41 63 29
0.0795434 -0.0964015 1.197 41 63 29
0.0814024 -0.0964015 1.197 43 65 31
0.0832614 -0.0964015 1.197 44 66 32
0.0851204 -0.0964015 1.197 46 68 34
0.0869793 -0.0964015 1.197 46 68 34
0.0888383 -0.0964015 1.197 46 68 34
0.0906973 -0.0964015 1.197 45 67 33
0.0925563 -0.0964015 1.197 45 67 33
0.0944153 -0.0964015 1.197 44 66 32
0.0962742 -0.0964015 1.197 46 66 32
0.0981332 -0.0964015 1.197 44 64 30
0.0999087 -0.096321 1.196 58 78 44
0.101766 -0.096321 1.196 51 71 37
0.103537 -0.0962404 1.195 49 70 38
0.105393 -0.0962404 1.195 50 71 39
0.107249 -0.0962404 1.195 48 70 41
0.109105 -0.0962404 1.195 49 71 42
0.11096 -0.0962404 1.195 50 72 43
0.112816 -0.0962404 1.195 51 73 44
0.114672 -0.0962404 1.195 50 72 45
0.116528 -0.0962404 1.195 50 72 45
0.118384 -0.0962404 1.195 48 70 43
0.12024 -0.0962404 1.195 50 72 45
0.122096 -0.0962404 1.195 52 72 45
0.123952 -0.0962404 1.195 51 71 44
0.125913 -0.096321 1.196 53 71 42
0.127663 -0.0962404 1.195 54 72 43
0.129519 -0.0962404 1.195 48 66 37
0.131375 -0.0962404 1.195 47 65 36
0.133119 -0.0961599 1.194 52 67 39
0.134748 -0.0959988 1.192 55 70 42
0.136599 -0.0959988 1.192 53 68 40
0.138334 -0.0959183 1.191 50 65 37
0.140066 -0.0958377 1.19 52 68 37
0.141675 -0.0956767 1.188 50 66 35
0.1434 -0.0955961 1.187 53 70 37
0.144998 -0.0954351 1.185 45 62 29
0.146715 -0.0953545 1.184 45 63 27
0.148303 -0.0951935 1.182 46 64 28
0.150138 -0.0951935 1.182 52 71 33
0.151845 -0.0951129 1.181 53 72 34
0.15355 -0.0950324 1.18 52 71 31
0.155382 -0.0950324 1.18 54 73 33
0.157215 -0.0950324 1.18 53 72 32
0.159182 -0.0951129 1.181 50 69 29
0.161153 -0.0951935 1.182 50 69 29
0.162988 -0.0951935 1.182 50 69 29
0.164963 -0.095274 1.183 50 70 27
0.166942 -0.0953545 1.184 52 72 29
0.168923 -0.0954351 1.185 50 73 29
0.170763 -0.0954351 1.185 47 70 26
0.172895 -0.0955961 1.187 48 72 26
0.174738 -0.0955961 1.187 48 72 26
0.176731 -0.0956767 1.188 47 71 25
0.178576 -0.0956767 1.188 50 74 28
0.180421 -0.0956767 1.188 48 71 27
0.182266 -0.0956767 1.188 50 73 29
0.184266 -0.0957572 1.189 50 73 29
0.185956 -0.0956767 1.188 50 73 29
0.187801 -0.0956767 1.188 48 71 27
0.189486 -0.0955961 1.187 48 71 27
0.191329 -0.0955961 1.187 48 71 27
0.19301 -0.0955156 1.186 50 73 29
0.194852 -0.0955156 1.186 50 73 29
0.196528 -0.0954351 1.185 51 74 30
0.198368 -0.0954351 1.185 48 73 29
0.20004 -0.0953545 1.184 49 74 30
0.201879 -0.0953545 1.184 48 73 29
0.203717 -0.0953545 1.184 48 73 29
0.20573 -0.0954351 1.185 46 70 29
0.20757 -0.0954351 1.185 45 69 28
0.209587 -0.0955156 1.186 46 70 29
0.211607 -0.0955961 1.187 48 72 31
0.213451 -0.0955961 1.187 49 73 32
0.215476 -0.0956767 1.188 48 72 31
0.217504 -0.0957572 1.189 48 72 31
0.219535 -0.0958377 1.19 46 70 29
0.221569 -0.0959183 1.191 45 69 28
0.223418 -0.0959183 1.191 45 69 28
0.225457 -0.0959988 1.192 45 69 28
0.227308 -0.0959988 1.192 45 69 28
0.22916 -0.0959988 1.192 47 69 28
0.231011 -0.0959988 1.192 40 62 21
0.232862 -0.0959988 1.192 41 63 24
0.234516 -0.0959183 1.191 40 62 23
0.236366 -0.0959183 1.191 41 62 25
0.238016 -0.0958377 1.19 40 61 24
0.239864 -0.0958377 1.19 39 60 23
0.241712 -0.0958377 1.19 37 58 21
0.24356 -0.0958377 1.19 32 52 18
0.245408 -0.0958377 1.19 30 50 16
0.247256 -0.0958377 1.19 32 52 18
0.249104 -0.0958377 1.19 31 51 17
0.250742 -0.0957572 1.189 26 44 15
0.252588 -0.0957572 1.189 27 45 16
0.254221 -0.0956767 1.188 25 43 16
0.25585 -0.0955961 1.187 23 41 14
0.257477 -0.0955156 1.186 23 41 14
0.2591 -0.0954351 1.185 22 40 13
0.26094 -0.0954351 1.185 22 40 13
0.262559 -0.0953545 1.184 23 41 14
0.264398 -0.0953545 1.184 23 41 14
0.266011 -0.095274 1.183 24 42 15
0.267622 -0.0951935 1.182 23 41 14
0.269458 -0.0951935 1.182 22 40 13
0.271064 -0.0951129 1.181 22 40 13
0.272898 -0.0951129 1.181 22 40 13
0.274732 -0.0951129 1.181 20 39 14
0.276567 -0.0951129 1.181 21 40 15
0.278401 -0.0951129 1.181 21 40 15
0.280235 -0.0951129 1.181 22 41 16
0.282069 -0.0951129 1.181 22 40 18
0.284143 -0.0951935 1.182 21 39 17
0.285979 -0.0951935 1.182 20 38 16
0.287815 -0.0951935 1.182 18 36 14
0.289651 -0.0951935 1.182 20 38 16
0.291486 -0.0951935 1.182 22 40 18
0.293074 -0.0951129 1.181 22 40 18
0.294658 -0.0950324 1.18 22 40 18
0.296491 -0.0950324 1.18 22 40 18
0.298323 -0.0950324 1.18 22 40 18
0.30041 -0.0951129 1.181 22 40 18
0.302244 -0.0951129 1.181 22 40 18
0.304079 -0.0951129 1.181 21 39 17
0.306172 -0.0951935 1.182 21 39 17
0.308007 -0.0951935 1.182 21 39 17
0.310629 -0.0954351 1.185 21 39 17
0.313261 -0.0956767 1.188 21 39 17
0.315636 -0.0958377 1.19 21 39 17
0.319869 -0.0959988 1.192 20 38 16
0.321721 -0.0959988 1.192 20 38 16
0.323572 -0.0959988 1.192 20 38 16
0.325969 -0.0961599 1.194 22 40 18
0.327823 -0.0961599 1.194 22 40 18
0.329678 -0.0961599 1.194 25 41 19
0.331532 -0.0961599 1.194 31 47 25
0.333107 -0.0960794 1.193 27 45 23
0.33496 -0.0960794 1.193 28 46 24
0.33653 -0.0959988 1.192 28 46 24
0.338381 -0.0959988 1.192 28 46 24
0.339662 -0.0958377 1.19 28 46 24
0.34151 -0.0958377 1.19 27 45 23
0.342781 -0.0956767 1.188 27 45 23
0.344336 -0.0955961 1.187 27 45 23
0.345888 -0.0955156 1.186 24 42 20
0.347436 -0.0954351 1.185 23 41 19
0.348982 -0.0953545 1.184 30 48 26
0.350228 -0.0951935 1.182 29 47 25
0.351468 -0.0950324 1.18 29 47 25
0.352702 -0.0948713 1.178 27 45 23
0.353929 -0.0947102 1.176 28 46 24
0.355453 -0.0946297 1.175 29 47 25
0.35667 -0.0944686 1.173 27 43 21
0.357575 -0.094227 1.17 20 36 14
0.358778 -0.094066 1.168 25 40 20
0.359357 -0.0937438 1.164 24 39 19
0.358992 -0.0931801 1.157 22 33 17
0.359542 -0.0928579 1.153 19 30 14
0.360079 -0.0925358 1.149 19 27 15
0.360604 -0.0922136 1.145 31 39 27
0.361432 -0.091972 1.142 106 115 106
0.362252 -0.0917304 1.139 113 122 113
0.363062 -0.0914888 1.136 121 128 124
0.364826 -0.0914888 1.136 132 139 135
0.366913 -0.0915693 1.137 131 135 140
0.369976 -0.0918915 1.141 57 61 66
-0.165319 -0.0931976 1.18 6 16 4
-0.163487 -0.0931976 1.18 7 17 5
-0.161654 -0.0931976 1.18 8 18 6
-0.159957 -0.0932766 1.181 10 20 8
-0.158123 -0.0932766 1.181 10 20 8
-0.156289 -0.0932766 1.181 10 20 8
-0.154586 -0.0933556 1.182 11 21 9
-0.15275 -0.0933556 1.182 12 22 10
-0.150914 -0.0933556 1.182 12 22 10
-0.149078 -0.0933556 1.182 13 23 11
-0.147367 -0.0934346 1.183 15 26 10
-0.14553 -0.0934346 1.183 15 26 10
-0.143693 -0.0934346 1.183 20 32 13
-0.141856 -0.0934346 1.183 20 32 13
-0.140018 -0.0934346 1.183 19 31 12
-0.138064 -0.0933556 1.182 20 32 13
-0.136229 -0.0933556 1.182 19 31 12
-0.134393 -0.0933556 1.182 20 32 13
-0.132557 -0.0933556 1.182 20 32 13
-0.130722 -0.0933556 1.182 19 31 12
-0.128886 -0.0933556 1.182 18 31 10
-0.12705 -0.0933556 1.182 19 32 11
-0.125215 -0.0933556 1.182 19 32 11
-0.123483 -0.0934346 1.183 19 32 11
-0.121749 -0.0935136 1.184 20 33 12
-0.120011 -0.0935925 1.185 20 33 12
-0.118171 -0.0935925 1.185 21 34 13
-0.116429 -0.0936715 1.186 20 33 12
-0.114684 -0.0937505 1.187 19 32 11
-0.11284 -0.0937505 1.187 18 31 10
-0.11109 -0.0938295 1.188 16 32 10
-0.109245 -0.0938295 1.188 17 33 11
-0.107491 -0.0939085 1.189 18 34 12
-0.105733 -0.0939874 1.19 16 32 10
-0.103885 -0.0939874 1.19 11 28 3
-0.102037 -0.0939874 1.19 13 30 5
-0.100104 -0.0939085 1.189 17 36 4
-0.0981751 -0.0938295 1.188 23 42 10
-0.0961679 -0.0936715 1.186 29 49 15
-0.0942465 -0.0935925 1.185 34 54 20
-0.0923282 -0.0935136 1.184 43 64 27
-0.0903365 -0.0933556 1.182 41 62 25
-0.0885008 -0.0933556 1.182 38 59 22
-0.0865918 -0.0932766 1.181 37 58 21
-0.0846859 -0.0931976 1.18 37 58 21
-0.0827831 -0.0931186 1.179 38 59 22
-0.0808834 -0.0930397 1.178 40 61 24
-0.0789197 -0.0928817 1.176 40 61 24
-0.0770278 -0.0928027 1.175 38 59 22
-0.075075 -0.0926448 1.173 38 59 22
-0.0731284 -0.0924868 1.171 39 60 23
-0.0710053 -0.0920919 1.166 38 59 22
-0.0690164 -0.091855 1.163 39 60 23
-0.0670369 -0.091618 1.16 40 61 24
-0.0648417 -0.0910651 1.153 40 61 24
-0.0628323 -0.0907492 1.149 36 57 20
-0.0570788 -0.0901174 1.141 91 92 58
-0.0551614 -0.0898804 1.138 110 111 77
-0.0533002 -0.0897225 1.136 117 111 77
-0.0514452 -0.0895645 1.134 116 110 76
-0.0495964 -0.0894065 1.132 125 116 77
-0.0477539 -0.0892486 1.13 124 115 76
-0.045999 -0.0892486 1.13 117 106 66
-0.044244 -0.0892486 1.13 123 112 72
-0.0424891 -0.0892486 1.13 164 154 111
-0.0408423 -0.0894855 1.133 182 172 129
-0.0391862 -0.0897225 1.136 195 187 137
-0.0375537 -0.0900384 1.14 160 152 102
-0.0359088 -0.0903543 1.144 62 62 17
-0.034341 -0.0909072 1.151 32 32 0
-0.0327515 -0.09146 1.158 47 53 15
-0.0293057 -0.0919339 1.164 38 56 20
-0.0276633 -0.0924868 1.171 40 58 22
-0.0260213 -0.0931186 1.179 38 59 22
-0.0243339 -0.0936715 1.186 40 61 24
-0.0226058 -0.0941454 1.192 39 59 25
-0.0189985 -0.0946193 1.198 38 58 24
-0.0171666 -0.0947772 1.2 37 57 23
-0.0153284 -0.0949352 1.202 38 58 24
-0.0134729 -0.0950142 1.203 39 59 25
-0.0116046 -0.0950142 1.203 39 59 25
-0.00974437 -0.0950932 1.204 39 59 25
-0.00787452 -0.0950932 1.204 40 60 26
-0.00600467 -0.0950932 1.204 40 60 26
-0.00413481 -0.0950932 1.204 40 60 26
-0.00226496 -0.0950932 1.204 41 61 27
-0.000395107 -0.0950932 1.204 41 61 27
0.00147475 -0.0950932 1.204 41 61 27
0.00334182 -0.0950142 1.203 41 61 27
0.00521012 -0.0950142 1.203 41 61 27
0.00707842 -0.0950142 1.203 40 60 26
0.00893928 -0.0949352 1.202 39 59 25
0.0107881 -0.0947772 1.2 40 60 26
0.0126411 -0.0946983 1.199 40 60 26
0.0144911 -0.0946193 1.198 43 63 29
0.0163517 -0.0946193 1.198 41 61 27
0.018197 -0.0945403 1.197 41 61 27
0.020056 -0.0945403 1.197 40 60 26
0.021915 -0.0945403 1.197 40 60 26
0.023774 -0.0945403 1.197 40 60 26
0.0256329 -0.0945403 1.197 39 59 25
0.0274919 -0.0945403 1.197 40 60 26
0.0293509 -0.0945403 1.197 41 61 27
0.0312099 -0.0945403 1.197 41 61 27
0.0330689 -0.0945403 1.197 41 61 27
0.0349278 -0.0945403 1.197 40 60 26
0.0367868 -0.0945403 1.197 39 59 25
0.0386458 -0.0945403 1.197 39 59 25
0.0405048 -0.0945403 1.197 39 59 25
0.0423638 -0.0945403 1.197 40 60 26
0.0442228 -0.0945403 1.197 40 60 26
0.0460817 -0.0945403 1.197 41 61 27
0.0479407 -0.0945403 1.197 44 64 30
0.0497997 -0.0945403 1.197 43 63 29
0.0516587 -0.0945403 1.197 41 61 27
0.053473 -0.0944613 1.196 41 61 27
0.0552841 -0.0943823 1.195 43 64 27
0.05714 -0.0943823 1.195 43 64 27
0.0589959 -0.0943823 1.195 39 62 25
0.0608517 -0.0943823 1.195 41 64 27
0.0626551 -0.0943034 1.194 43 66 29
0.0645095 -0.0943034 1.194 43 66 29
0.0663638 -0.0943034 1.194 43 66 29
0.0682181 -0.0943034 1.194 43 66 29
0.0701311 -0.0943823 1.195 43 66 29
0.071987 -0.0943823 1.195 44 67 30
0.0738429 -0.0943823 1.195 44 66 32
0.0756988 -0.0943823 1.195 44 66 32
0.0775546 -0.0943823 1.195 44 66 32
0.079477 -0.0944613 1.196 45 67 33
0.0813344 -0.0944613 1.196 45 67 33
0.0832614 -0.0945403 1.197 44 66 32
0.0851204 -0.0945403 1.197 46 68 34
0.0869793 -0.0945403 1.197 46 68 34
0.0888383 -0.0945403 1.197 46 68 34
0.0906973 -0.0945403 1.197 44 66 32
0.0925563 -0.0945403 1.197 44 66 32
0.0944153 -0.0945403 1.197 45 67 33
0.0962742 -0.0945403 1.197 45 67 33
0.0981332 -0.0945403 1.197 45 67 33
0.0999922 -0.0945403 1.197 51 73 39
0.101851 -0.0945403 1.197 49 71 37
0.10371 -0.0945403 1.197 48 70 36
0.105569 -0.0945403 1.197 49 71 37
0.107428 -0.0945403 1.197 48 71 39
0.109196 -0.0944613 1.196 48 71 39
0.111146 -0.0945403 1.197 48 71 39
0.113005 -0.0945403 1.197 49 72 40
0.11496 -0.0946193 1.198 49 71 42
0.116821 -0.0946193 1.198 49 71 42
0.118681 -0.0946193 1.198 49 71 42
0.120642 -0.0946983 1.199 49 71 42
0.122504 -0.0946983 1.199 49 70 38
0.124366 -0.0946983 1.199 48 69 37
0.126334 -0.0947772 1.2 44 65 33
0.128197 -0.0947772 1.2 43 64 32
0.130061 -0.0947772 1.2 46 65 33
0.131815 -0.0946983 1.199 53 72 40
0.133677 -0.0946983 1.199 55 74 42
0.135313 -0.0945403 1.197 52 71 39
0.137057 -0.0944613 1.196 48 67 35
0.138799 -0.0943823 1.195 52 71 39
0.140301 -0.0941454 1.192 50 70 36
0.142153 -0.0941454 1.192 52 72 38
0.143762 -0.0939874 1.19 51 71 37
0.145243 -0.0937505 1.187 45 65 31
0.147087 -0.0937505 1.187 48 70 31
0.148679 -0.0935925 1.185 48 70 31
0.150519 -0.0935925 1.185 48 70 29
0.152103 -0.0934346 1.183 50 72 31
0.15394 -0.0934346 1.183 50 72 31
0.155645 -0.0933556 1.182 50 72 31
0.157614 -0.0934346 1.183 48 70 29
0.159452 -0.0934346 1.183 48 70 29
0.161425 -0.0935136 1.184 48 71 27
0.163402 -0.0935925 1.185 48 71 27
0.165242 -0.0935925 1.185 47 70 26
0.167083 -0.0935925 1.185 48 71 27
0.169065 -0.0936715 1.186 50 73 29
0.171051 -0.0937505 1.187 48 71 27
0.173041 -0.0938295 1.188 48 71 27
0.174886 -0.0938295 1.188 48 71 27
0.176879 -0.0939085 1.189 48 71 27
0.178726 -0.0939085 1.189 50 73 29
0.180724 -0.0939874 1.19 50 73 29
0.182572 -0.0939874 1.19 48 71 27
0.184266 -0.0939085 1.189 48 71 27
0.186112 -0.0939085 1.189 48 71 27
0.187959 -0.0939085 1.189 47 70 26
0.189486 -0.0937505 1.187 48 71 27
0.191329 -0.0937505 1.187 48 71 27
0.193173 -0.0937505 1.187 50 73 29
0.194852 -0.0936715 1.186 50 73 29
0.196528 -0.0935925 1.185 51 74 30
0.198368 -0.0935925 1.185 48 73 29
0.200209 -0.0935925 1.185 49 74 30
0.201879 -0.0935136 1.184 49 74 30
0.203889 -0.0935925 1.185 49 74 30
0.20573 -0.0935925 1.185 46 70 29
0.20757 -0.0935925 1.185 46 70 29
0.209587 -0.0936715 1.186 46 70 29
0.211607 -0.0937505 1.187 48 72 31
0.213451 -0.0937505 1.187 49 73 32
0.215476 -0.0938295 1.188 48 72 31
0.217504 -0.0939085 1.189 46 70 29
0.219535 -0.0939874 1.19 46 70 29
0.221383 -0.0939874 1.19 46 70 29
0.223231 -0.0939874 1.19 46 70 29
0.225268 -0.0940664 1.191 46 70 29
0.227118 -0.0940664 1.191 46 70 29
0.228967 -0.0940664 1.191 48 70 29
0.230817 -0.0940664 1.191 43 65 24
0.232667 -0.0940664 1.191 43 65 26
0.234516 -0.0940664 1.191 43 65 26
0.236168 -0.0939874 1.19 41 62 25
0.238016 -0.0939874 1.19 40 61 24
0.239864 -0.0939874 1.19 43 64 27
0.241712 -0.0939874 1.19 36 57 20
0.24356 -0.0939874 1.19 26 47 10
0.245408 -0.0939874 1.19 31 52 15
0.247256 -0.0939874 1.19 30 50 16
0.249104 -0.0939874 1.19 29 49 15
0.250953 -0.0939874 1.19 26 45 13
0.252588 -0.0939085 1.189 26 45 13
0.254435 -0.0939085 1.189 25 43 16
0.256066 -0.0938295 1.188 23 41 14
0.257694 -0.0937505 1.187 22 40 13
0.2591 -0.0935925 1.185 22 40 13
0.26094 -0.0935925 1.185 20 40 13
0.262559 -0.0935136 1.184 20 40 13
0.264398 -0.0935136 1.184 21 41 14
0.266011 -0.0934346 1.183 20 40 13
0.267622 -0.0933556 1.182 18 38 11
0.269458 -0.0933556 1.182 20 40 13
0.271294 -0.0933556 1.182 20 40 13
0.272898 -0.0932766 1.181 20 40 13
0.274732 -0.0932766 1.181 18 37 12
0.276332 -0.0931976 1.18 20 39 14
0.278401 -0.0932766 1.181 20 39 14
0.280235 -0.0932766 1.181 21 40 15
0.28183 -0.0931976 1.18 22 41 16
0.283903 -0.0932766 1.181 21 40 15
0.285495 -0.0931976 1.18 20 39 14
0.287571 -0.0932766 1.181 20 39 14
0.289405 -0.0932766 1.181 20 39 14
0.29124 -0.0932766 1.181 21 40 15
0.292826 -0.0931976 1.18 22 41 16
0.294658 -0.0931976 1.18 22 41 16
0.296491 -0.0931976 1.18 22 41 16
0.298071 -0.0931186 1.179 22 41 16
0.300156 -0.0931976 1.18 22 41 16
0.301989 -0.0931976 1.18 22 41 16
0.303821 -0.0931976 1.18 21 40 15
0.306172 -0.0933556 1.182 21 40 15
0.308007 -0.0933556 1.182 21 40 15
0.310367 -0.0935136 1.184 21 40 15
0.312734 -0.0936715 1.186 22 41 16
0.315106 -0.0938295 1.188 22 41 16
0.317484 -0.0939874 1.19 22 41 16
0.319333 -0.0939874 1.19 21 40 15
0.321451 -0.0940664 1.191 22 41 16
0.325423 -0.0941454 1.192 22 41 16
0.327274 -0.0941454 1.192 22 41 16
0.329401 -0.0942244 1.193 23 42 17
0.330977 -0.0941454 1.192 29 48 23
0.332828 -0.0941454 1.192 29 48 23
0.334679 -0.0941454 1.192 29 48 23
0.33653 -0.0941454 1.192 29 48 23
0.338381 -0.0941454 1.192 29 48 23
0.339662 -0.0939874 1.19 29 48 23
0.34151 -0.0939874 1.19 28 47 22
0.34307 -0.0939085 1.189 28 47 22
0.344626 -0.0938295 1.188 27 46 21
0.346179 -0.0937505 1.187 24 43 18
0.34773 -0.0936715 1.186 24 43 18
0.349277 -0.0935925 1.185 28 46 24
0.350524 -0.0934346 1.183 28 46 24
0.352064 -0.0933556 1.182 28 46 24
0.353301 -0.0931976 1.18 27 45 23
0.354531 -0.0930397 1.178 27 45 23
0.356058 -0.0929607 1.177 28 46 24
0.357278 -0.0928027 1.175 23 40 20
0.358186 -0.0925658 1.172 22 39 19
0.359085 -0.0923288 1.169 25 40 20
0.359974 -0.0920919 1.166 23 38 18
0.359303 -0.09146 1.158 24 35 19
0.359854 -0.0911441 1.154 19 30 14
0.360079 -0.0907492 1.149 17 25 13
0.360604 -0.0904333 1.145 33 41 29
0.361432 -0.0901963 1.142 109 118 109
0.361934 -0.0898804 1.138 113 122 113
0.363062 -0.0897225 1.136 123 130 126
0.364826 -0.0897225 1.136 132 139 135
0.366913 -0.0898014 1.137 128 133 136
0.3703 -0.0901963 1.142 55 60 63
-0.165319 -0.0913629 1.18 7 17 5
-0.163487 -0.0913629 1.18 7 17 5
-0.161654 -0.0913629 1.18 8 18 6
-0.159957 -0.0914403 1.181 10 20 8
-0.157989 -0.0913629 1.18 10 20 8
-0.156289 -0.0914403 1.181 10 20 8
-0.154455 -0.0914403 1.181 11 21 9
-0.15275 -0.0915177 1.182 11 21 9
-0.150914 -0.0915177 1.182 12 23 9
-0.149078 -0.0915177 1.182 13 24 10
-0.147367 -0.0915951 1.183 15 26 10
-0.14553 -0.0915951 1.183 15 26 10
-0.143693 -0.0915951 1.183 20 32 13
-0.141976 -0.0916726 1.184 20 32 13
-0.140137 -0.0916726 1.184 19 31 12
-0.138298 -0.0916726 1.184 20 32 13
-0.136344 -0.0915951 1.183 20 32 13
-0.134507 -0.0915951 1.183 20 32 13
-0.132669 -0.0915951 1.183 20 32 13
-0.130832 -0.0915951 1.183 20 32 13
-0.128995 -0.0915951 1.183 19 31 12
-0.127265 -0.0916726 1.184 18 30 11
-0.125426 -0.0916726 1.184 19 32 11
-0.123588 -0.0916726 1.184 20 33 12
-0.121852 -0.09175 1.185 20 33 12
-0.120011 -0.09175 1.185 20 33 12
-0.118171 -0.09175 1.185 20 33 12
-0.116429 -0.0918274 1.186 20 33 12
-0.114684 -0.0919049 1.187 19 32 11
-0.11284 -0.0919049 1.187 18 31 10
-0.110997 -0.0919049 1.187 16 32 10
-0.109245 -0.0919823 1.188 17 33 11
-0.107491 -0.0920597 1.189 17 33 11
-0.105644 -0.0920597 1.189 16 32 10
-0.103885 -0.0921371 1.19 13 30 5
-0.102037 -0.0921371 1.19 17 34 9
-0.10002 -0.0919823 1.188 17 35 8
-0.0981751 -0.0919823 1.188 16 34 7
-0.0961679 -0.0918274 1.186 23 42 10
-0.0942465 -0.09175 1.185 30 49 17
-0.0923282 -0.0916726 1.184 40 60 26
-0.0903365 -0.0915177 1.182 43 63 29
-0.0885008 -0.0915177 1.182 43 64 27
-0.0865918 -0.0914403 1.181 38 59 22
-0.0846859 -0.0913629 1.18 38 59 22
-0.0827831 -0.0912854 1.179 38 59 22
-0.0808834 -0.091208 1.178 39 60 23
-0.0789197 -0.0910532 1.176 40 61 24
-0.0770278 -0.0909757 1.175 38 59 22
-0.075011 -0.0907435 1.172 37 58 21
-0.0730659 -0.0905886 1.17 38 59 22
-0.0710053 -0.0902789 1.166 38 59 22
-0.0688978 -0.0898918 1.161 39 60 23
-0.0669791 -0.0897369 1.159 41 62 25
-0.0646168 -0.0889627 1.149 41 59 23
-0.0626683 -0.0887304 1.146 36 54 18
-0.060676 -0.0884207 1.142 56 61 27
-0.0586961 -0.088111 1.138 86 91 57
-0.0568287 -0.0879561 1.136 118 114 81
