ply
format ascii 1.0
comment Created by Open3D
element vertex 1415
property double x
property double y
property double z
property uchar red
property uchar green
property uchar blue
end_header
0.0337443 0.150588 1.098 243 255 254
0.0354495 0.150588 1.098 243 255 254
0.0371886 0.150725 1.099 251 253 255
0.0389662 0.150999 1.101 250 252 255
0.0408238 0.151548 1.105 223 225 214
0.0427709 0.152371 1.111 89 91 80
0.0450571 0.154291 1.125 75 79 56
0.0579591 0.161011 1.174 80 94 63
0.0601388 0.161971 1.181 72 86 55
0.0622353 0.162657 1.186 71 85 54
0.0640772 0.162657 1.186 70 84 53
0.0658636 0.162519 1.185 64 80 49
0.0677039 0.162519 1.185 66 82 51
0.0695443 0.162519 1.185 64 80 49
0.0713846 0.162519 1.185 63 79 48
0.0732249 0.162519 1.185 61 76 48
0.0750653 0.162519 1.185 57 72 44
0.0769056 0.162519 1.185 59 75 44
0.078746 0.162519 1.185 60 76 45
0.0805863 0.162519 1.185 60 76 45
0.0824267 0.162519 1.185 60 76 45
0.0843381 0.162657 1.186 60 76 45
0.08618 0.162657 1.186 59 75 44
0.0880961 0.162794 1.187 60 76 45
0.0899396 0.162794 1.187 60 76 45
0.0918604 0.162931 1.188 59 75 44
0.0938631 0.163205 1.19 56 72 41
0.0957112 0.163205 1.19 56 72 41
0.0976413 0.163342 1.191 57 73 42
0.0995745 0.16348 1.192 59 76 43
0.101426 0.16348 1.192 59 76 43
0.103277 0.16348 1.192 59 76 43
0.105216 0.163617 1.193 59 76 43
0.107069 0.163617 1.193 62 79 46
0.108922 0.163617 1.193 63 80 47
0.110775 0.163617 1.193 62 79 46
0.112627 0.163617 1.193 63 80 47
0.11448 0.163617 1.193 62 79 46
0.116235 0.16348 1.192 62 79 46
0.118087 0.16348 1.192 63 80 47
0.119938 0.16348 1.192 62 79 46
0.121789 0.16348 1.192 63 80 47
0.12364 0.16348 1.192 63 80 47
0.125492 0.16348 1.192 63 80 47
0.127343 0.16348 1.192 61 78 45
0.129194 0.16348 1.192 61 78 45
0.131045 0.16348 1.192 61 78 45
0.132896 0.16348 1.192 60 77 44
0.134748 0.16348 1.192 59 76 43
0.136599 0.16348 1.192 63 80 47
0.13845 0.16348 1.192 63 80 47
0.140301 0.16348 1.192 66 83 50
0.142153 0.16348 1.192 70 87 54
0.144004 0.16348 1.192 66 83 50
0.145855 0.16348 1.192 61 78 45
0.147706 0.16348 1.192 58 73 40
0.149557 0.16348 1.192 61 76 43
0.151409 0.16348 1.192 63 78 45
0.15326 0.16348 1.192 64 79 46
0.155111 0.16348 1.192 64 79 46
0.156831 0.163342 1.191 64 79 46
0.158547 0.163205 1.19 64 79 46
0.160395 0.163205 1.19 64 79 46
0.162243 0.163205 1.19 64 79 46
0.164091 0.163205 1.19 64 79 46
0.165939 0.163205 1.19 63 78 45
0.167788 0.163205 1.19 63 78 45
0.169636 0.163205 1.19 58 73 40
0.171484 0.163205 1.19 54 69 36
0.173332 0.163205 1.19 66 81 48
0.17518 0.163205 1.19 65 80 47
0.177028 0.163205 1.19 64 79 46
0.178876 0.163205 1.19 65 80 47
0.180724 0.163205 1.19 64 79 46
0.182572 0.163205 1.19 64 79 46
0.184421 0.163205 1.19 64 79 46
0.186269 0.163205 1.19 64 79 46
0.188117 0.163205 1.19 64 79 46
0.189965 0.163205 1.19 64 79 46
0.191813 0.163205 1.19 65 80 47
0.193661 0.163205 1.19 66 81 48
0.195509 0.163205 1.19 68 84 48
0.197357 0.163205 1.19 68 84 48
0.199205 0.163205 1.19 66 82 46
0.200885 0.163068 1.189 65 81 45
0.202731 0.163068 1.189 65 81 45
0.204578 0.163068 1.189 64 80 44
0.206251 0.162931 1.188 65 81 45
0.208096 0.162931 1.188 65 81 45
0.209941 0.162931 1.188 67 79 44
0.211607 0.162794 1.187 67 79 44
0.213451 0.162794 1.187 67 79 44
0.215476 0.162931 1.188 66 78 43
0.217138 0.162794 1.187 66 78 43
0.219166 0.162931 1.188 66 78 43
0.220825 0.162794 1.187 64 79 46
0.222668 0.162794 1.187 64 79 46
0.224701 0.162931 1.188 66 81 48
0.226355 0.162794 1.187 65 80 47
0.228198 0.162794 1.187 65 80 47
0.229848 0.162657 1.186 66 81 48
0.23169 0.162657 1.186 64 81 48
0.233335 0.162519 1.185 64 81 48
0.235175 0.162519 1.185 63 80 47
0.237016 0.162519 1.185 62 79 46
0.238856 0.162519 1.185 61 78 45
0.240696 0.162519 1.185 60 77 44
0.242537 0.162519 1.185 61 78 45
0.244377 0.162519 1.185 63 80 47
0.246425 0.162657 1.186 64 81 48
0.248476 0.162794 1.187 63 80 47
0.25032 0.162794 1.187 63 80 47
0.252163 0.162794 1.187 62 79 46
0.254221 0.162931 1.188 62 79 46
0.256066 0.162931 1.188 61 78 45
0.258128 0.163068 1.189 62 80 44
0.260193 0.163205 1.19 63 81 45
0.262041 0.163205 1.19 62 80 44
0.263889 0.163205 1.19 61 79 43
0.265737 0.163205 1.19 61 79 43
0.267586 0.163205 1.19 59 77 41
0.26966 0.163342 1.191 57 73 37
0.27151 0.163342 1.191 62 78 42
0.273359 0.163342 1.191 67 85 49
0.275209 0.163342 1.191 67 85 49
0.277059 0.163342 1.191 63 80 47
0.279143 0.16348 1.192 104 121 88
0.280994 0.16348 1.192 125 140 112
0.282845 0.16348 1.192 138 153 125
0.284696 0.16348 1.192 149 165 148
0.286547 0.16348 1.192 165 181 164
0.288399 0.16348 1.192 141 157 147
0.290006 0.163342 1.191 96 112 102
0.291856 0.163342 1.191 100 114 97
0.293459 0.163205 1.19 110 124 107
0.295307 0.163205 1.19 106 120 96
0.296656 0.162931 1.188 98 112 88
0.29825 0.162794 1.187 71 86 58
0.29984 0.162657 1.186 60 75 47
0.301173 0.162382 1.184 66 82 51
0.303012 0.162382 1.184 66 82 51
0.304594 0.162245 1.183 66 82 51
0.306172 0.162108 1.182 63 79 48
0.307747 0.161971 1.181 67 83 52
0.309581 0.161971 1.181 71 87 56
0.311151 0.161834 1.18 72 91 59
0.312984 0.161834 1.18 72 91 59
0.314283 0.161559 1.178 70 90 56
0.316112 0.161559 1.178 70 90 56
0.317942 0.161559 1.178 67 89 50
0.3195 0.161422 1.177 70 92 53
0.321601 0.161559 1.178 74 94 51
0.32343 0.161559 1.178 79 99 56
0.324984 0.161422 1.177 94 113 68
0.327089 0.161559 1.178 93 112 67
0.328919 0.161559 1.178 94 113 68
0.330748 0.161559 1.178 94 113 68
0.33286 0.161697 1.179 92 111 66
0.334975 0.161834 1.18 99 118 73
0.337093 0.161971 1.181 99 118 73
0.339214 0.162108 1.182 99 118 73
0.34105 0.162108 1.182 98 117 72
0.343176 0.162245 1.183 93 112 67
0.345304 0.162382 1.184 94 113 68
0.347436 0.162519 1.185 97 116 71
0.349277 0.162519 1.185 93 111 68
0.351413 0.162657 1.186 92 110 67
0.353553 0.162794 1.187 91 108 68
0.355397 0.162794 1.187 93 110 70
0.35724 0.162794 1.187 81 99 70
0.359084 0.162794 1.187 75 93 64
0.360623 0.162657 1.186 172 191 180
0.361854 0.162382 1.184 212 231 220
0.363078 0.162108 1.182 79 97 94
0.363988 0.161697 1.179 60 78 75
0.363957 0.160874 1.173 64 82 80
0.363284 0.159777 1.165 62 80 78
0.3629 0.158817 1.158 95 120 90
0.361549 0.157445 1.148 238 255 233
0.362065 0.156896 1.144 225 243 228
0.36257 0.156348 1.14 84 102 87
0.363701 0.156074 1.138 78 84 77
0.364826 0.155799 1.136 102 108 101
0.366268 0.155662 1.135 19 13 26
0.368355 0.155799 1.136 15 9 22
-0.170783 0.169078 1.219 64 83 58
-0.168198 0.168384 1.214 78 97 72
-0.165764 0.16783 1.21 79 99 72
-0.163614 0.167552 1.208 73 93 66
-0.16147 0.167275 1.206 63 83 56
-0.159465 0.167136 1.205 64 84 57
-0.157463 0.166997 1.204 63 85 58
-0.155464 0.166859 1.203 63 85 58
-0.153468 0.16672 1.202 64 86 59
-0.151475 0.166581 1.201 64 86 59
-0.149485 0.166443 1.2 60 82 55
-0.147498 0.166304 1.199 71 93 66
-0.145393 0.166026 1.197 66 88 61
-0.143534 0.166026 1.197 69 91 64
-0.141439 0.165749 1.195 68 90 61
-0.139466 0.16561 1.194 69 91 62
-0.137612 0.16561 1.194 70 91 59
-0.135644 0.165472 1.193 70 91 59
-0.133679 0.165333 1.192 70 91 59
-0.131938 0.165472 1.193 71 92 60
-0.130303 0.165749 1.195 71 93 59
-0.128555 0.165888 1.196 71 93 59
-0.126804 0.166026 1.197 71 93 59
-0.125153 0.166304 1.199 70 92 58
-0.123394 0.166443 1.2 74 96 62
-0.121632 0.166581 1.201 71 93 59
-0.119767 0.166581 1.201 64 87 50
-0.118 0.16672 1.202 70 93 56
-0.116133 0.16672 1.202 70 93 56
-0.114076 0.166443 1.2 71 94 57
-0.112119 0.166304 1.199 72 95 58
-0.110257 0.166304 1.199 73 96 59
-0.108395 0.166304 1.199 74 97 60
-0.106444 0.166165 1.198 75 98 61
-0.104583 0.166165 1.198 73 96 59
-0.102723 0.166165 1.198 74 97 60
-0.100862 0.166165 1.198 74 97 60
-0.0989188 0.166026 1.197 75 98 61
-0.0970599 0.166026 1.197 72 95 58
-0.0952009 0.166026 1.197 72 95 58
-0.0932639 0.165888 1.196 75 98 61
-0.0913301 0.165749 1.195 74 97 60
-0.0894742 0.165749 1.195 73 95 61
-0.087545 0.16561 1.194 74 96 62
-0.0855471 0.165333 1.192 74 95 63
-0.0836959 0.165333 1.192 74 95 63
-0.0818447 0.165333 1.192 76 94 65
-0.0799935 0.165333 1.192 76 94 65
-0.0781423 0.165333 1.192 76 94 67
-0.076291 0.165333 1.192 76 94 67
-0.0743774 0.165194 1.191 70 87 62
-0.0725886 0.165333 1.192 72 89 64
-0.0707374 0.165333 1.192 75 92 67
-0.068944 0.165472 1.193 76 93 68
-0.0671474 0.16561 1.194 73 89 72
-0.0320161 0.157011 1.132 163 190 214
-0.0230413 0.155762 1.123 161 190 221
-0.0212403 0.155346 1.12 160 192 222
-0.0194661 0.155069 1.118 160 192 222
-0.0175236 0.153266 1.105 160 192 224
-0.015736 0.152572 1.1 163 195 227
-0.0139894 0.152156 1.097 165 197 229
-0.0122633 0.151879 1.095 157 189 221
-0.0105435 0.151601 1.093 155 187 219
-0.00884601 0.151601 1.093 152 184 216
-0.00714855 0.151601 1.093 164 198 230
-0.00545607 0.15174 1.094 167 201 233
-0.00375705 0.15174 1.094 149 182 216
-0.00205803 0.15174 1.094 162 195 229
0.00134124 0.151879 1.095 162 194 231
0.00304181 0.151879 1.095 152 182 219
0.00474671 0.152018 1.096 153 183 220
0.00645472 0.152156 1.097 152 180 222
0.00816584 0.152295 1.098 155 183 225
0.00988006 0.152434 1.099 164 191 229
0.0115763 0.152295 1.098 198 225 255
0.0133057 0.152572 1.1 209 232 255
0.0150004 0.152434 1.099 149 172 208
0.0167224 0.152572 1.1 142 162 194
0.018414 0.152434 1.099 153 173 205
0.0201208 0.152434 1.099 167 180 211
0.0218275 0.152434 1.099 166 179 210
0.0235129 0.152295 1.098 164 176 205
0.0251952 0.152156 1.097 169 181 210
0.0268989 0.152156 1.097 177 190 211
0.0286025 0.152156 1.097 187 200 221
0.0320391 0.152295 1.098 230 244 255
0.0337443 0.152295 1.098 237 253 255
0.0354495 0.152295 1.098 237 253 255
0.0372224 0.152572 1.1 239 254 255
0.0391077 0.153266 1.105 234 249 255
0.0409716 0.153821 1.109 154 157 149
0.0430019 0.15493 1.117 88 91 83
0.055849 0.162004 1.168 81 95 64
0.0581072 0.163252 1.177 80 94 63
0.0601898 0.163946 1.182 73 87 56
0.0622353 0.164501 1.186 69 83 52
0.0640232 0.164362 1.185 71 85 54
0.0658636 0.164362 1.185 70 84 53
0.0677039 0.164362 1.185 69 83 52
0.0695443 0.164362 1.185 74 90 59
0.0713244 0.164223 1.184 66 82 51
0.0731631 0.164223 1.184 56 72 41
0.0750019 0.164223 1.184 54 70 39
0.0768407 0.164223 1.184 52 68 37
0.078746 0.164362 1.185 52 68 37
0.0805183 0.164223 1.184 56 72 41
0.0824267 0.164362 1.185 60 76 45
0.084267 0.164362 1.185 60 76 45
0.0861074 0.164362 1.185 60 76 45
0.0880219 0.164501 1.186 60 76 45
0.0899396 0.164639 1.187 60 76 45
0.091783 0.164639 1.187 59 75 44
0.0937054 0.164778 1.188 59 75 44
0.0956308 0.164917 1.189 59 75 44
0.0975593 0.165056 1.19 59 75 44
0.0994075 0.165056 1.19 59 76 43
0.101341 0.165194 1.191 59 76 43
0.103277 0.165333 1.192 59 76 43
0.105128 0.165333 1.192 59 76 43
0.106979 0.165333 1.192 60 77 44
0.108831 0.165333 1.192 60 77 44
0.110682 0.165333 1.192 60 77 44
0.112533 0.165333 1.192 61 78 45
0.114384 0.165333 1.192 62 79 46
0.116235 0.165333 1.192 62 79 46
0.118087 0.165333 1.192 63 80 47
0.119837 0.165194 1.191 63 80 47
0.121687 0.165194 1.191 64 81 48
0.123433 0.165056 1.19 63 80 47
0.125281 0.165056 1.19 61 77 46
0.127129 0.165056 1.19 61 77 46
0.128977 0.165056 1.19 61 77 46
0.130825 0.165056 1.19 61 77 46
0.132785 0.165194 1.191 59 76 43
0.134635 0.165194 1.191 61 78 45
0.136599 0.165333 1.192 67 84 51
0.13845 0.165333 1.192 68 85 52
0.140301 0.165333 1.192 68 85 52
0.142153 0.165333 1.192 68 85 52
0.144004 0.165333 1.192 67 84 51
0.145855 0.165333 1.192 66 83 50
0.147706 0.165333 1.192 63 80 47
0.149557 0.165333 1.192 61 78 45
0.151409 0.165333 1.192 64 81 48
0.15326 0.165333 1.192 64 81 48
0.154981 0.165194 1.191 62 79 46
0.156699 0.165056 1.19 62 79 46
0.158547 0.165056 1.19 62 79 46
0.160395 0.165056 1.19 62 79 46
0.162107 0.164917 1.189 62 79 46
0.163953 0.164917 1.189 63 80 47
0.1658 0.164917 1.189 64 81 48
0.167506 0.164778 1.188 63 80 47
0.169351 0.164778 1.188 59 74 41
0.171196 0.164778 1.188 56 71 38
0.173041 0.164778 1.188 64 79 46
0.174886 0.164778 1.188 64 79 46
0.176582 0.164639 1.187 63 78 45
0.178425 0.164639 1.187 63 78 45
0.180421 0.164778 1.188 63 78 45
0.182266 0.164778 1.188 64 79 46
0.184111 0.164778 1.188 65 80 47
0.185956 0.164778 1.188 64 79 46
0.187959 0.164917 1.189 66 81 48
0.189805 0.164917 1.189 66 81 48
0.191652 0.164917 1.189 71 86 53
0.193498 0.164917 1.189 69 84 51
0.195345 0.164917 1.189 69 84 51
0.197191 0.164917 1.189 70 85 52
0.199038 0.164917 1.189 68 83 50
0.200885 0.164917 1.189 66 81 48
0.202731 0.164917 1.189 65 81 45
0.204578 0.164917 1.189 65 81 45
0.206424 0.164917 1.189 66 82 46
0.208271 0.164917 1.189 65 81 45
0.209941 0.164778 1.188 65 81 45
0.211964 0.164917 1.189 65 81 45
0.21381 0.164917 1.189 73 85 50
0.215657 0.164917 1.189 68 80 45
0.217687 0.165056 1.19 65 77 42
0.21935 0.164917 1.189 62 74 39
0.221383 0.165056 1.19 58 74 38
0.223231 0.165056 1.19 65 81 45
0.22489 0.164917 1.189 68 84 48
0.226546 0.164778 1.188 66 82 46
0.228391 0.164778 1.188 65 81 45
0.230042 0.164639 1.187 65 81 45
0.231885 0.164639 1.187 65 81 45
0.233729 0.164639 1.187 64 80 44
0.235572 0.164639 1.187 64 79 46
0.237416 0.164639 1.187 65 80 47
0.239259 0.164639 1.187 63 78 45
0.241103 0.164639 1.187 63 78 45
0.242946 0.164639 1.187 63 78 45
0.24479 0.164639 1.187 65 80 47
0.246841 0.164778 1.188 65 80 47
0.248686 0.164778 1.188 65 80 47
0.250742 0.164917 1.189 63 80 47
0.252588 0.164917 1.189 63 80 47
0.254649 0.165056 1.19 63 80 47
0.256497 0.165056 1.19 64 81 48
0.258345 0.165056 1.19 63 81 45
0.260412 0.165194 1.191 66 84 48
0.262261 0.165194 1.191 63 81 45
0.264333 0.165333 1.192 62 80 44
0.266184 0.165333 1.192 64 80 44
0.268035 0.165333 1.192 64 80 44
0.269886 0.165333 1.192 59 75 39
0.271738 0.165333 1.192 66 82 46
0.273589 0.165333 1.192 74 90 54
0.27544 0.165333 1.192 70 86 50
0.277291 0.165333 1.192 65 80 47
0.279377 0.165472 1.193 64 79 46
0.281229 0.165472 1.193 57 72 44
0.28332 0.16561 1.194 62 77 49
0.284935 0.165472 1.193 70 83 62
0.286788 0.165472 1.193 110 123 102
0.288641 0.165472 1.193 74 88 71
0.29025 0.165333 1.192 58 72 55
0.292101 0.165333 1.192 72 86 69
0.293952 0.165333 1.192 96 110 93
0.295555 0.165194 1.191 102 119 94
0.297155 0.165056 1.19 84 101 76
0.298752 0.164917 1.189 66 81 55
0.300346 0.164778 1.188 62 77 51
0.301937 0.164639 1.187 69 84 56
0.303524 0.164501 1.186 68 83 55
0.304851 0.164223 1.184 67 83 52
0.306431 0.164085 1.183 68 84 53
0.308007 0.163946 1.182 68 84 53
0.309319 0.163669 1.18 70 86 55
0.311151 0.163669 1.18 74 93 61
0.312719 0.16353 1.179 73 92 60
0.314283 0.163391 1.178 73 93 59
0.315844 0.163252 1.177 69 89 55
0.317402 0.163114 1.176 68 90 51
0.319228 0.163114 1.176 76 98 59
0.321055 0.163114 1.176 79 99 56
0.322881 0.163114 1.176 83 103 60
0.324708 0.163114 1.176 91 110 65
0.326534 0.163114 1.176 93 112 67
0.328919 0.163391 1.178 93 112 67
0.330748 0.163391 1.178 94 113 68
0.33286 0.16353 1.179 94 113 68
0.334975 0.163669 1.18 98 117 72
0.337093 0.163807 1.181 97 116 71
0.339214 0.163946 1.182 105 124 79
0.34105 0.163946 1.182 106 125 80
0.343176 0.164085 1.183 97 116 71
0.345304 0.164223 1.184 94 113 68
0.347436 0.164362 1.185 95 114 69
0.349571 0.164501 1.186 102 121 76
0.35171 0.164639 1.187 101 120 75
0.353553 0.164639 1.187 97 114 74
0.355397 0.164639 1.187 88 105 65
0.35724 0.164639 1.187 81 99 70
0.359084 0.164639 1.187 74 92 63
0.360623 0.164501 1.186 173 193 179
0.362159 0.164362 1.185 212 232 218
0.363078 0.163946 1.182 75 94 88
0.363988 0.16353 1.179 59 78 72
0.364267 0.162836 1.174 64 82 79
0.363596 0.161727 1.166 64 82 79
0.3629 0.160617 1.158 94 121 91
0.361549 0.15923 1.148 237 255 234
0.361749 0.158537 1.143 225 246 230
0.36257 0.15812 1.14 84 105 89
0.363701 0.157843 1.138 76 84 77
0.364826 0.157566 1.136 99 107 100
0.366591 0.157566 1.136 19 13 26
0.368355 0.157566 1.136 13 7 20
-0.170223 0.170412 1.215 60 80 53
-0.168059 0.170132 1.213 74 94 67
-0.165764 0.169711 1.21 77 97 68
-0.163614 0.16943 1.208 75 95 66
-0.161604 0.16929 1.207 62 82 53
-0.159597 0.16915 1.206 64 84 55
-0.157463 0.168869 1.204 65 85 56
-0.155464 0.168729 1.203 65 85 56
-0.153595 0.168729 1.203 65 85 58
-0.151601 0.168589 1.202 68 88 61
-0.14961 0.168449 1.201 70 90 63
-0.147621 0.168308 1.2 72 92 65
-0.145636 0.168168 1.199 70 90 63
-0.143534 0.167888 1.197 71 91 64
-0.141557 0.167747 1.196 73 93 64
-0.139583 0.167607 1.195 74 94 65
-0.137727 0.167607 1.195 73 94 62
-0.135757 0.167467 1.194 72 93 61
-0.133903 0.167467 1.194 72 94 60
-0.131938 0.167327 1.193 72 94 60
-0.130194 0.167467 1.194 71 93 59
-0.12834 0.167467 1.194 70 92 58
-0.126592 0.167607 1.195 71 93 59
-0.124736 0.167607 1.195 71 93 59
-0.122983 0.167747 1.196 73 96 59
-0.121125 0.167747 1.196 72 95 58
-0.119368 0.167888 1.197 72 95 58
-0.117509 0.167888 1.197 73 96 59
-0.11565 0.167888 1.197 73 96 59
-0.113791 0.167888 1.197 73 96 59
-0.111932 0.167888 1.197 72 95 58
-0.110073 0.167888 1.197 72 95 58
-0.108214 0.167888 1.197 73 96 59
-0.106355 0.167888 1.197 75 98 61
-0.104496 0.167888 1.197 73 96 59
-0.102637 0.167888 1.197 74 97 60
-0.100778 0.167888 1.197 74 97 60
-0.0990015 0.168028 1.198 75 98 61
-0.0970599 0.167888 1.197 72 95 58
-0.0952009 0.167888 1.197 72 95 58
-0.0932639 0.167747 1.196 73 96 59
-0.0913301 0.167607 1.195 75 98 61
-0.0894742 0.167607 1.195 74 97 60
-0.0874717 0.167327 1.193 75 98 61
-0.0856189 0.167327 1.193 74 97 60
-0.0836959 0.167186 1.192 75 98 61
-0.0818447 0.167186 1.192 77 97 63
-0.0799935 0.167186 1.192 75 95 61
-0.0781423 0.167186 1.192 75 94 62
-0.076291 0.167186 1.192 75 94 62
-0.0744398 0.167186 1.192 77 96 64
-0.0725886 0.167186 1.192 79 98 66
-0.0707967 0.167327 1.193 79 97 68
-0.068944 0.167327 1.193 76 94 65
-0.0671474 0.167467 1.194 72 90 61
-0.0653478 0.167607 1.195 72 90 61
-0.0633325 0.167186 1.192 73 91 62
-0.0614813 0.167186 1.192 72 90 61
-0.0596801 0.167327 1.193 71 91 62
-0.0579243 0.167607 1.195 70 90 61
-0.0560684 0.167607 1.195 72 91 66
-0.0215438 0.159332 1.136 171 199 227
-0.0195183 0.157228 1.121 169 197 225
-0.0175236 0.154984 1.105 166 195 228
-0.0157074 0.154002 1.098 165 194 227
-0.0139894 0.153862 1.097 166 196 224
-0.0122633 0.153581 1.095 166 196 224
-0.0105435 0.153301 1.093 162 192 220
-0.00883792 0.153161 1.092 162 192 220
-0.00714201 0.153161 1.092 168 202 234
-0.00545108 0.153301 1.093 170 204 236
-0.00375705 0.153441 1.094 160 194 226
-0.00205803 0.153441 1.094 164 198 230
0.00134124 0.153581 1.095 165 198 232
0.00304181 0.153581 1.095 158 190 227
0.00474671 0.153722 1.096 162 194 231
0.00645472 0.153862 1.097 159 188 227
0.00816584 0.154002 1.098 155 184 223
0.00988006 0.154142 1.099 167 194 232
0.0115974 0.154283 1.1 201 228 255
0.0133178 0.154423 1.101 198 225 255
0.0150141 0.154283 1.1 136 163 196
0.0167224 0.154283 1.1 150 174 208
0.0184475 0.154423 1.101 156 180 214
0.0201391 0.154283 1.1 162 182 216
0.0218474 0.154283 1.1 162 182 216
0.0235343 0.154142 1.099 165 182 217
0.0252181 0.154002 1.098 168 185 220
0.0269234 0.154002 1.098 172 190 220
0.0286286 0.154002 1.098 179 197 227
0.0303338 0.154002 1.098 186 204 234
0.0320391 0.154002 1.098 191 209 239
0.033775 0.154142 1.099 194 217 228
0.0355141 0.154283 1.1 199 222 233
0.0372901 0.154563 1.102 238 252 255
0.0392139 0.155405 1.108 230 244 254
0.0411194 0.156106 1.113 116 127 119
0.0432329 0.157509 1.123 75 86 78
0.0560402 0.164381 1.172 77 94 61
0.0582553 0.165503 1.18 77 94 61
0.0602916 0.166064 1.184 76 93 60
0.0622353 0.166345 1.186 72 89 56
0.0640232 0.166205 1.185 75 92 59
0.0658636 0.166205 1.185 67 84 51
0.0677039 0.166205 1.185 63 80 47
0.0694856 0.166064 1.184 76 92 61
0.0713244 0.166064 1.184 70 86 55
0.0731631 0.166064 1.184 68 84 53
0.0750019 0.166064 1.184 67 83 52
0.0767758 0.165924 1.183 66 82 51
0.0786795 0.166064 1.184 64 80 49
0.0804503 0.165924 1.183 62 78 47
0.0823571 0.166064 1.184 61 77 46
0.0841959 0.166064 1.184 61 77 46
0.0861074 0.166205 1.185 62 78 47
0.0879477 0.166205 1.185 61 77 46
0.0898638 0.166345 1.186 62 78 47
0.091783 0.166485 1.187 62 78 47
0.0936265 0.166485 1.187 61 77 46
0.0955504 0.166625 1.188 59 75 44
0.0974774 0.166766 1.189 60 76 45
0.0994075 0.166906 1.19 61 77 46
0.101256 0.166906 1.19 57 73 42
0.10319 0.167046 1.191 61 78 45
0.105128 0.167186 1.192 63 80 47
0.106979 0.167186 1.192 62 79 46
0.108831 0.167186 1.192 62 79 46
0.110682 0.167186 1.192 61 78 45
0.112533 0.167186 1.192 61 78 45
0.114384 0.167186 1.192 62 79 46
0.116138 0.167046 1.191 62 79 46
0.117988 0.167046 1.191 62 79 46
0.119737 0.166906 1.19 63 80 47
0.121585 0.166906 1.19 64 81 48
0.123433 0.166906 1.19 62 79 46
0.125281 0.166906 1.19 61 78 45
0.127129 0.166906 1.19 61 78 45
0.128977 0.166906 1.19 62 79 46
0.130825 0.166906 1.19 61 78 45
0.132673 0.166906 1.19 61 78 45
0.134522 0.166906 1.19 66 83 50
0.13637 0.166906 1.19 67 84 51
0.138334 0.167046 1.191 66 83 50
0.140184 0.167046 1.191 67 84 51
0.142033 0.167046 1.191 64 81 48
0.144004 0.167186 1.192 64 81 48
0.145855 0.167186 1.192 64 81 48
0.147706 0.167186 1.192 65 80 47
0.149557 0.167186 1.192 65 80 47
0.151409 0.167186 1.192 70 85 52
0.153131 0.167046 1.191 72 87 54
0.154851 0.166906 1.19 64 79 46
0.156699 0.166906 1.19 64 79 46
0.158547 0.166906 1.19 64 79 46
0.16026 0.166766 1.189 65 80 47
0.162107 0.166766 1.189 66 81 48
0.163678 0.166485 1.187 68 83 50
0.165521 0.166485 1.187 66 81 48
0.167365 0.166485 1.187 68 83 50
0.169208 0.166485 1.187 63 78 45
0.171051 0.166485 1.187 62 77 44
0.172895 0.166485 1.187 65 80 47
0.174738 0.166485 1.187 65 80 47
0.176582 0.166485 1.187 65 80 47
0.178275 0.166345 1.186 64 79 46
0.180269 0.166485 1.187 64 79 46
0.182112 0.166485 1.187 64 79 46
0.183956 0.166485 1.187 65 80 47
0.185799 0.166485 1.187 65 80 47
0.187643 0.166485 1.187 66 81 48
0.189486 0.166485 1.187 65 80 47
0.191491 0.166625 1.188 69 85 49
0.193336 0.166625 1.188 70 86 50
0.195181 0.166625 1.188 70 86 50
0.197026 0.166625 1.188 71 87 51
0.198871 0.166625 1.188 70 86 50
0.200716 0.166625 1.188 68 84 48
0.202561 0.166625 1.188 64 80 44
0.204578 0.166766 1.189 65 81 45
0.206424 0.166766 1.189 66 82 46
0.208271 0.166766 1.189 66 82 46
0.210117 0.166766 1.189 66 82 46
0.212142 0.166906 1.19 61 77 41
0.21399 0.166906 1.19 73 89 53
0.215838 0.166906 1.19 73 89 53
0.217687 0.166906 1.19 71 87 51
0.219535 0.166906 1.19 71 87 51
0.221383 0.166906 1.19 68 83 50
0.223231 0.166906 1.19 68 83 50
0.225079 0.166906 1.19 68 83 50
0.226927 0.166906 1.19 69 84 51
0.228775 0.166906 1.19 68 83 50
0.230623 0.166906 1.19 66 81 48
0.232471 0.166906 1.19 66 81 48
0.234123 0.166766 1.189 61 76 43
0.235969 0.166766 1.189 65 80 47
0.237816 0.166766 1.189 68 83 50
0.239864 0.166906 1.19 66 81 48
0.241509 0.166766 1.189 66 81 48
0.24356 0.166906 1.19 66 81 48
0.245408 0.166906 1.19 66 81 48
0.247256 0.166906 1.19 66 81 48
0.249104 0.166906 1.19 66 81 48
0.251163 0.167046 1.191 64 81 48
0.253013 0.167046 1.191 66 83 50
0.255077 0.167186 1.192 66 83 50
0.256928 0.167186 1.192 67 84 51
0.258779 0.167186 1.192 66 84 48
0.260849 0.167327 1.193 67 85 49
0.262702 0.167327 1.193 64 82 46
0.264555 0.167327 1.193 62 80 44
0.266407 0.167327 1.193 65 81 45
0.268485 0.167467 1.194 66 82 46
0.270339 0.167467 1.194 63 79 43
0.272194 0.167467 1.194 68 84 48
0.274277 0.167607 1.195 72 88 52
0.275902 0.167467 1.194 71 87 51
0.277989 0.167607 1.195 71 87 51
0.279845 0.167607 1.195 65 81 45
0.281701 0.167607 1.195 65 79 48
0.283557 0.167607 1.195 64 78 47
0.285413 0.167607 1.195 61 73 49
0.287269 0.167607 1.195 59 71 47
0.289124 0.167607 1.195 61 73 54
0.29098 0.167607 1.195 66 78 59
0.292591 0.167467 1.194 63 76 55
0.294199 0.167327 1.193 63 76 55
0.296052 0.167327 1.193 77 92 66
0.297655 0.167186 1.192 66 81 55
0.299255 0.167046 1.191 68 81 53
0.300852 0.166906 1.19 70 83 55
0.302445 0.166766 1.189 69 84 56
0.30378 0.166485 1.187 69 84 56
0.305623 0.166485 1.187 74 90 59
0.30669 0.166064 1.184 76 92 61
0.308007 0.165784 1.182 72 88 57
0.309843 0.165784 1.182 71 87 56
0.311151 0.165503 1.18 76 92 61
0.312719 0.165363 1.179 76 92 61
0.314283 0.165223 1.178 73 93 59
0.315844 0.165082 1.177 66 86 52
0.317402 0.164942 1.176 67 89 50
0.319228 0.164942 1.176 77 99 60
0.320782 0.164802 1.175 84 102 59
0.322607 0.164802 1.175 87 105 62
0.324431 0.164802 1.175 90 109 64
0.326534 0.164942 1.176 88 107 62
0.32836 0.164942 1.176 100 119 74
0.330748 0.165223 1.178 102 121 76
0.332578 0.165223 1.178 101 120 75
0.334975 0.165503 1.18 105 124 79
0.337093 0.165644 1.181 102 121 76
0.339214 0.165784 1.182 99 118 73
0.34105 0.165784 1.182 93 112 67
0.343176 0.165924 1.183 92 111 66
0.345304 0.166064 1.184 98 119 74
0.347436 0.166205 1.185 114 135 90
0.349571 0.166345 1.186 164 184 141
0.35171 0.166485 1.187 171 191 148
0.353553 0.166485 1.187 135 152 112
0.355397 0.166485 1.187 87 104 64
0.35724 0.166485 1.187 80 98 69
0.359084 0.166485 1.187 74 92 63
0.360623 0.166345 1.186 181 198 185
0.362159 0.166205 1.185 215 232 219
0.363385 0.165924 1.183 77 95 86
0.364296 0.165503 1.18 62 80 71
0.364577 0.164802 1.175 62 81 75
0.363596 0.16354 1.166 66 85 79
0.3629 0.162418 1.158 95 122 92
0.361549 0.161015 1.148 237 255 234
0.361749 0.160314 1.143 229 247 232
0.36257 0.159893 1.14 83 101 86
0.363701 0.159612 1.138 78 84 77
0.365147 0.159472 1.137 98 104 97
0.366591 0.159332 1.136 17 12 28
0.368355 0.159332 1.136 9 4 20
-0.170223 0.172301 1.215 55 75 48
-0.16792 0.171876 1.212 60 80 53
-0.165901 0.171734 1.211 63 83 54
-0.163614 0.171309 1.208 73 93 64
-0.161738 0.171309 1.208 63 85 56
-0.159597 0.171025 1.206 58 80 51
-0.157594 0.170883 1.205 62 84 55
-0.155593 0.170742 1.204 62 84 55
-0.153595 0.1706 1.203 63 85 56
-0.151727 0.1706 1.203 65 87 58
-0.149734 0.170458 1.202 66 88 59
-0.147744 0.170316 1.201 69 91 62
-0.145758 0.170174 1.2 66 88 59
-0.143654 0.169891 1.198 66 88 59
-0.141675 0.169749 1.197 73 95 66
-0.139816 0.169749 1.197 72 94 65
-0.137842 0.169607 1.196 72 95 63
-0.135871 0.169465 1.195 72 95 63
-0.134015 0.169465 1.195 74 95 63
-0.131938 0.169182 1.193 72 93 61
-0.130194 0.169323 1.194 71 93 59
-0.12834 0.169323 1.194 72 94 60
-0.126592 0.169465 1.195 75 97 63
-0.124631 0.169323 1.194 73 95 61
-0.12288 0.169465 1.195 72 94 60
-0.121024 0.169465 1.195 73 95 61
-0.119168 0.169465 1.195 73 96 59
-0.117312 0.169465 1.195 74 97 60
-0.115456 0.169465 1.195 73 96 59
-0.113601 0.169465 1.195 73 96 59
-0.111838 0.169607 1.196 73 96 59
-0.109981 0.169607 1.196 73 96 59
-0.108214 0.169749 1.197 72 95 58
-0.106355 0.169749 1.197 73 96 59
-0.104496 0.169749 1.197 72 95 58
-0.102637 0.169749 1.197 73 96 59
-0.100862 0.169891 1.198 75 98 61
-0.0990015 0.169891 1.198 73 96 59
-0.0970599 0.169749 1.197 72 96 57
-0.0952009 0.169749 1.197 72 96 57
-0.0932639 0.169607 1.196 71 95 56
-0.0914065 0.169607 1.196 74 98 59
-0.0894742 0.169465 1.195 75 99 60
-0.087545 0.169323 1.194 75 99 60
-0.0856907 0.169323 1.194 74 97 60
-0.0836959 0.16904 1.192 75 98 61
-0.0818447 0.16904 1.192 80 101 64
-0.0799935 0.16904 1.192 81 102 65
-0.0781423 0.16904 1.192 81 101 67
-0.076291 0.16904 1.192 79 99 65
-0.0745023 0.169182 1.193 80 100 66
-0.0726495 0.169182 1.193 80 100 66
-0.0708561 0.169323 1.194 79 98 66
-0.0690018 0.169323 1.194 77 96 64
-0.0671474 0.169323 1.194 79 98 66
-0.0653478 0.169465 1.195 79 98 66
-0.0633857 0.169182 1.193 77 96 64
-0.0614297 0.168898 1.191 77 96 64
-0.0596301 0.16904 1.192 77 96 64
-0.0578274 0.169182 1.193 77 96 64
-0.0560215 0.169323 1.194 80 100 71
-0.0541672 0.169323 1.194 80 100 71
-0.0520938 0.168614 1.189 75 94 69
-0.0501205 0.168189 1.186 73 92 67
-0.0438803 0.165494 1.167 70 86 83
-0.0419598 0.165069 1.164 68 84 81
-0.0401521 0.165069 1.164 65 83 81
-0.0382785 0.164785 1.162 64 82 80
-0.0364424 0.164644 1.161 66 83 84
-0.0346095 0.164502 1.16 65 82 83
-0.0327515 0.164218 1.158 63 82 84
-0.0308996 0.163935 1.156 66 85 87
-0.00883792 0.154859 1.092 177 207 230
-0.00714855 0.155 1.093 173 205 235
-0.00545607 0.155142 1.094 170 202 232
-0.00375705 0.155142 1.094 167 199 229
-0.000359337 0.155284 1.095 172 204 236
0.00134124 0.155284 1.095 165 197 229
0.00304181 0.155284 1.095 163 194 228
0.00474671 0.155426 1.096 164 195 229
0.00645472 0.155568 1.097 164 195 229
0.00816584 0.155709 1.098 157 188 222
0.00988905 0.155993 1.1 168 197 230
0.0115974 0.155993 1.1 195 224 255
0.0133178 0.156135 1.101 187 215 250
0.0150141 0.155993 1.1 139 167 202
0.0167376 0.156135 1.101 161 190 223
0.0184307 0.155993 1.1 172 201 234
0.0201391 0.155993 1.1 164 192 227
0.0218474 0.155993 1.1 158 186 221
0.0235557 0.155993 1.1 166 190 230
0.0252411 0.155851 1.099 163 187 227
0.0269234 0.155709 1.098 164 191 224
0.0286286 0.155709 1.098 181 208 241
0.0303615 0.155851 1.099 196 223 255
0.0320974 0.155993 1.1 182 209 242
0.0338058 0.155993 1.1 177 205 220
0.0355141 0.155993 1.1 196 224 239
0.037324 0.156419 1.103 231 251 255
0.0393201 0.157553 1.111 204 224 236
0.0411933 0.15812 1.115 88 101 93
0.0433484 0.15968 1.126 70 83 75
0.0497166 0.163367 1.152 83 99 68
0.0520422 0.165069 1.164 81 97 66
0.0562315 0.166771 1.176 78 95 62
0.0583541 0.167622 1.182 77 94 61
0.0603425 0.168047 1.185 75 92 59
0.0622353 0.168189 1.186 74 91 58
0.0640232 0.168047 1.185 75 92 59
0.0658636 0.168047 1.185 68 85 52
0.0677039 0.168047 1.185 69 86 53
0.0694856 0.167905 1.184 77 94 61
0.0713244 0.167905 1.184 76 93 60
0.0731014 0.167763 1.183 76 92 61
0.0749386 0.167763 1.183 68 84 53
0.0767758 0.167763 1.183 64 80 49
0.0786131 0.167763 1.183 67 83 52
0.0804503 0.167763 1.183 64 81 48
0.0822876 0.167763 1.183 62 79 46
0.0841959 0.167905 1.184 60 77 44
0.0860347 0.167905 1.184 61 78 45
0.0879477 0.168047 1.185 60 77 44
0.0897881 0.168047 1.185 61 78 45
0.0917057 0.168189 1.186 61 78 45
0.0936265 0.168331 1.187 62 79 46
0.0954699 0.168331 1.187 60 77 44
0.0973954 0.168473 1.188 60 77 44
0.0993239 0.168614 1.189 62 79 46
0.101256 0.168756 1.19 59 76 43
0.103104 0.168756 1.19 68 83 50
0.10504 0.168898 1.191 71 86 53
0.10689 0.168898 1.191 68 83 50
0.108739 0.168898 1.191 66 81 48
0.110589 0.168898 1.191 66 81 48
0.112439 0.168898 1.191 65 80 47
0.114288 0.168898 1.191 64 79 46
0.11604 0.168756 1.19 64 79 46
0.117889 0.168756 1.19 64 79 46
0.119737 0.168756 1.19 65 80 47
0.121483 0.168614 1.189 66 81 48
0.123329 0.168614 1.189 65 80 47
0.125176 0.168614 1.189 61 78 45
0.127022 0.168614 1.189 62 79 46
0.128869 0.168614 1.189 63 80 47
0.130715 0.168614 1.189 62 79 46
0.132562 0.168614 1.189 61 78 45
0.134522 0.168756 1.19 61 78 45
0.13637 0.168756 1.19 60 77 44
0.138218 0.168756 1.19 66 83 50
0.140066 0.168756 1.19 69 86 53
0.141914 0.168756 1.19 66 83 50
0.143883 0.168898 1.191 66 83 50
0.145733 0.168898 1.191 64 81 48
0.147582 0.168898 1.191 65 80 47
0.149557 0.16904 1.192 66 81 48
0.151282 0.168898 1.191 69 84 51
0.153003 0.168756 1.19 69 84 51
0.154851 0.168756 1.19 65 80 47
0.156699 0.168756 1.19 63 78 45
0.158414 0.168614 1.189 65 80 47
0.160126 0.168473 1.188 66 81 48
0.161834 0.168331 1.187 68 83 50
0.163678 0.168331 1.187 69 84 51
0.165521 0.168331 1.187 69 84 51
0.167224 0.168189 1.186 68 83 50
0.169065 0.168189 1.186 64 79 46
0.170907 0.168189 1.186 66 81 48
0.172749 0.168189 1.186 68 83 50
0.174444 0.168047 1.185 68 83 50
0.176284 0.168047 1.185 68 83 50
0.178125 0.168047 1.185 68 83 50
0.179965 0.168047 1.185 66 81 48
0.181959 0.168189 1.186 66 81 48
0.183801 0.168189 1.186 66 81 48
0.185643 0.168189 1.186 68 83 50
0.187643 0.168331 1.187 69 84 51
0.189486 0.168331 1.187 69 84 51
0.191329 0.168331 1.187 69 84 51
0.193173 0.168331 1.187 70 85 52
0.195016 0.168331 1.187 69 84 51
0.19686 0.168331 1.187 70 85 52
0.198871 0.168473 1.188 71 87 51
0.200716 0.168473 1.188 70 86 50
0.202561 0.168473 1.188 69 85 49
0.204578 0.168614 1.189 68 84 48
0.206424 0.168614 1.189 66 82 46
0.208271 0.168614 1.189 68 84 48
0.210294 0.168756 1.19 68 84 48
0.212142 0.168756 1.19 68 84 48
0.21399 0.168756 1.19 70 86 50
0.215838 0.168756 1.19 70 86 50
0.217869 0.168898 1.191 69 85 49
0.219719 0.168898 1.191 69 85 49
0.221569 0.168898 1.191 69 84 51
0.223418 0.168898 1.191 68 83 50
0.225268 0.168898 1.191 66 81 48
0.227118 0.168898 1.191 68 83 50
0.228967 0.168898 1.191 69 84 51
0.230817 0.168898 1.191 68 83 50
0.232667 0.168898 1.191 70 85 52
0.234516 0.168898 1.191 68 83 50
0.236366 0.168898 1.191 66 81 48
0.238216 0.168898 1.191 68 83 50
0.240065 0.168898 1.191 66 81 48
0.241915 0.168898 1.191 68 83 50
0.243969 0.16904 1.192 68 83 50
0.245821 0.16904 1.192 69 84 51
0.247672 0.16904 1.192 70 85 52
0.249523 0.16904 1.192 69 84 51
0.251585 0.169182 1.193 69 84 51
0.253438 0.169182 1.193 69 84 51
0.255505 0.169323 1.194 68 83 50
0.257359 0.169323 1.194 68 83 50
0.25943 0.169465 1.195 66 81 48
0.261286 0.169465 1.195 69 84 51
0.263142 0.169465 1.195 68 84 48
0.264998 0.169465 1.195 66 82 46
0.266854 0.169465 1.195 68 84 48
0.26871 0.169465 1.195 68 84 48
0.270566 0.169465 1.195 62 78 42
0.272422 0.169465 1.195 69 85 49
0.274507 0.169607 1.196 72 88 52
0.276364 0.169607 1.196 71 87 51
0.277989 0.169465 1.195 71 87 51
0.280079 0.169607 1.196 71 87 51
0.281937 0.169607 1.196 71 86 53
0.283794 0.169607 1.196 70 85 52
0.285652 0.169607 1.196 66 80 49
0.287509 0.169607 1.196 68 82 51
0.289366 0.169607 1.196 68 83 57
0.291224 0.169607 1.196 69 84 58
0.292836 0.169465 1.195 64 79 53
0.294692 0.169465 1.195 64 79 53
0.296548 0.169465 1.195 68 83 57
0.297904 0.169182 1.193 69 84 58
0.299506 0.16904 1.192 70 85 57
0.301357 0.16904 1.192 69 84 56
0.3027 0.168756 1.19 69 84 56
0.304548 0.168756 1.19 70 85 57
0.305881 0.168473 1.188 70 85 57
0.307467 0.168331 1.187 72 87 59
0.308268 0.167763 1.183 75 91 60
0.309843 0.167622 1.182 74 90 59
0.311415 0.16748 1.181 75 91 60
0.312984 0.167338 1.18 76 92 61
0.314283 0.167054 1.178 74 94 60
0.316112 0.167054 1.178 73 93 59
0.317402 0.166771 1.176 72 94 55
0.319228 0.166771 1.176 80 102 63
0.320782 0.166629 1.175 84 104 61
0.322881 0.166771 1.176 90 110 67
0.324708 0.166771 1.176 94 113 68
0.326812 0.166913 1.177 98 117 72
0.32864 0.166913 1.177 107 126 81
0.330748 0.167054 1.178 105 124 79
0.33286 0.167196 1.179 102 121 76
0.334975 0.167338 1.18 102 121 76
0.337093 0.16748 1.181 95 115 67
0.339214 0.167622 1.182 86 106 58
0.34105 0.167622 1.182 88 109 64
0.343176 0.167763 1.183 135 156 111
0.345304 0.167905 1.184 163 185 137
0.347436 0.168047 1.185 166 188 140
0.349571 0.168189 1.186 172 191 146
0.351413 0.168189 1.186 157 176 131
0.353553 0.168331 1.187 109 126 86
0.355397 0.168331 1.187 92 109 69
0.35724 0.168331 1.187 82 97 71
0.359084 0.168331 1.187 76 91 65
0.360623 0.168189 1.186 187 203 188
0.362159 0.168047 1.185 215 231 216
0.363385 0.167763 1.183 80 95 87
0.364296 0.167338 1.18 66 81 73
0.364577 0.166629 1.175 62 83 79
0.363908 0.165494 1.167 63 84 80
0.363213 0.16436 1.159 97 124 96
0.361549 0.1628 1.148 237 255 236
0.361749 0.162091 1.143 227 248 232
0.36257 0.161666 1.14 80 101 85
0.363701 0.161382 1.138 76 84 77
0.365147 0.16124 1.137 97 105 98
0.366591 0.161098 1.136 15 11 24
0.368355 0.161098 1.136 11 7 20
-0.170223 0.174191 1.215 55 75 48
-0.168059 0.173904 1.213 71 91 64
-0.165901 0.173617 1.211 65 86 54
-0.16375 0.17333 1.209 84 105 73
-0.161738 0.173187 1.208 78 99 67
-0.159597 0.1729 1.206 59 80 48
-0.157724 0.1729 1.206 62 85 53
-0.155722 0.172757 1.205 62 85 53
-0.153723 0.172614 1.204 63 85 56
-0.151727 0.17247 1.203 64 86 57
-0.149859 0.17247 1.203 65 87 58
-0.147744 0.172183 1.201 66 88 59
-0.145758 0.17204 1.2 65 87 58
-0.143894 0.17204 1.2 62 84 55
-0.141794 0.171753 1.198 71 93 64
-0.139816 0.17161 1.197 73 95 66
-0.137957 0.17161 1.197 72 95 63
-0.135985 0.171467 1.196 72 95 63
-0.134015 0.171323 1.195 74 95 63
-0.132159 0.171323 1.195 72 93 61
-0.130194 0.17118 1.194 72 94 60
-0.128233 0.171037 1.193 79 101 67
-0.12638 0.171037 1.193 84 106 72
-0.124631 0.17118 1.194 80 102 68
-0.122777 0.17118 1.194 73 96 59
-0.120923 0.17118 1.194 72 95 58
-0.119068 0.17118 1.194 74 97 60
-0.117214 0.17118 1.194 75 98 61
-0.11536 0.17118 1.194 73 96 59
-0.113506 0.17118 1.194 73 96 59
-0.111745 0.171323 1.195 74 97 60
-0.109981 0.171467 1.196 77 100 63
-0.108123 0.171467 1.196 73 96 59
-0.106355 0.17161 1.197 73 96 59
-0.104496 0.17161 1.197 72 95 58
-0.102723 0.171753 1.198 71 94 57
-0.100946 0.171897 1.199 72 95 58
-0.0990841 0.171897 1.199 71 94 57
-0.0971409 0.171753 1.198 73 97 58
-0.0952009 0.17161 1.197 74 98 59
-0.0933419 0.17161 1.197 73 97 58
-0.0914829 0.17161 1.197 73 97 58
-0.0894742 0.171323 1.195 75 99 60
-0.0876183 0.171323 1.195 77 101 62
-0.0856189 0.171037 1.193 75 99 60
-0.0838363 0.17118 1.194 74 98 59
-0.0819134 0.171037 1.193 80 101 64
-0.0801277 0.17118 1.194 79 100 63
-0.0782078 0.171037 1.193 79 100 63
-0.0763551 0.171037 1.193 77 98 61
-0.0745023 0.171037 1.193 80 100 66
-0.0727104 0.17118 1.194 79 99 65
-0.0709154 0.171323 1.195 79 99 65
-0.0690018 0.17118 1.194 77 97 63
-0.0672037 0.171323 1.195 79 99 65
-0.0653478 0.171323 1.195 80 100 66
-0.0634919 0.171323 1.195 80 100 66
-0.0616361 0.171323 1.195 80 100 66
-0.0597302 0.17118 1.194 79 99 65
-0.0579243 0.171323 1.195 79 99 65
-0.0560215 0.17118 1.194 81 101 67
-0.0541218 0.171037 1.193 81 101 67
-0.0521376 0.170606 1.19 81 100 68
-0.0502895 0.170606 1.19 80 99 67
-0.0482379 0.16989 1.185 75 93 64
-0.0462017 0.169173 1.18 77 95 66
-0.044294 0.168886 1.178 73 93 66
-0.0423563 0.168456 1.175 72 92 65
-0.0405315 0.168456 1.175 72 91 66
-0.0386408 0.168169 1.173 72 91 66
-0.0367877 0.168026 1.172 71 92 67
-0.0349676 0.168026 1.172 72 93 68
-0.0331474 0.168026 1.172 72 91 71
-0.0313005 0.167882 1.171 72 91 71
-0.0294567 0.167739 1.17 69 87 78
-0.0275924 0.167452 1.168 69 87 78
-0.0257785 0.167452 1.168 62 84 84
-0.0239235 0.167166 1.166 63 85 85
-0.0220937 0.167022 1.165 68 89 96
-0.0202496 0.166736 1.163 74 95 102
-0.018491 0.167166 1.166 97 122 133
-0.00375705 0.156843 1.094 176 208 238
-0.000359337 0.156987 1.095 167 201 233
0.00134124 0.156987 1.095 165 199 231
0.00304181 0.156987 1.095 167 199 231
0.00475104 0.157273 1.097 165 197 229
0.00645472 0.157273 1.097 163 195 227
0.00817327 0.15756 1.099 159 191 223
0.00988905 0.157703 1.1 174 202 237
0.0116079 0.157847 1.101 190 218 253
0.0133178 0.157847 1.101 181 212 246
0.0150277 0.157847 1.101 142 173 207
0.0167376 0.157847 1.101 169 200 234
0.0184475 0.157847 1.101 177 208 242
0.0201574 0.157847 1.101 167 197 234
0.0218474 0.157703 1.1 156 186 223
0.0235557 0.157703 1.1 165 194 233
0.0252181 0.157417 1.098 167 196 235
0.0269479 0.15756 1.099 170 197 230
0.0286547 0.15756 1.099 196 223 255
0.0303891 0.157703 1.1 202 231 255
0.0320974 0.157703 1.1 186 215 248
0.0338058 0.157703 1.1 177 204 221
0.0355464 0.157847 1.101 214 241 255
0.0373916 0.15842 1.105 232 251 255
0.0393555 0.159424 1.112 178 197 204
0.041415 0.160714 1.121 84 100 83
0.0499324 0.165875 1.157 84 100 69
0.0540813 0.167596 1.169 79 96 63
0.0564706 0.169316 1.181 79 96 63
0.0585515 0.170033 1.186 77 94 61
0.0604444 0.170176 1.187 72 89 56
0.0622878 0.170176 1.187 75 92 59
0.0640772 0.170033 1.186 75 92 59
0.0658636 0.16989 1.185 74 91 58
0.0677039 0.16989 1.185 74 91 58
0.0694856 0.169746 1.184 74 91 58
0.0712641 0.169603 1.183 72 89 56
0.0731014 0.169603 1.183 69 86 53
0.0749386 0.169603 1.183 62 79 46
0.0767758 0.169603 1.183 66 83 50
0.0786131 0.169603 1.183 66 83 50
0.0804503 0.169603 1.183 66 82 51
0.0822876 0.169603 1.183 67 83 52
0.0841248 0.169603 1.183 62 78 47
0.0860347 0.169746 1.184 62 78 47
0.0879477 0.16989 1.185 61 77 46
0.0897881 0.16989 1.185 62 78 47
0.0916284 0.16989 1.185 62 78 47
0.0935476 0.170033 1.186 62 78 47
0.0954699 0.170176 1.187 60 76 45
0.0973134 0.170176 1.187 60 76 45
0.0992404 0.17032 1.188 61 77 46
0.10117 0.170463 1.189 59 75 44
0.103104 0.170606 1.19 64 80 49
0.104952 0.170606 1.19 66 82 51
0.1068 0.170606 1.19 68 82 51
0.108648 0.170606 1.19 68 82 51
0.110496 0.170606 1.19 68 82 51
0.112344 0.170606 1.19 66 80 49
0.114192 0.170606 1.19 66 80 49
0.11604 0.170606 1.19 69 83 52
0.117789 0.170463 1.189 66 81 48
0.119636 0.170463 1.189 66 81 48
0.12138 0.17032 1.188 66 81 48
0.123225 0.17032 1.188 66 81 48
0.12507 0.17032 1.188 63 80 47
0.126915 0.17032 1.188 64 81 48
0.12876 0.17032 1.188 63 80 47
0.130605 0.17032 1.188 62 79 46
0.132562 0.170463 1.189 60 77 44
0.134409 0.170463 1.189 54 71 38
0.13637 0.170606 1.19 55 72 39
0.138218 0.170606 1.19 69 86 53
0.140066 0.170606 1.19 69 86 53
0.141914 0.170606 1.19 67 84 51
0.143762 0.170606 1.19 68 83 50
0.145733 0.17075 1.191 66 81 48
0.147582 0.17075 1.191 66 81 48
0.149432 0.17075 1.191 68 83 50
0.151155 0.170606 1.19 70 85 52
0.153003 0.170606 1.19 69 84 51
0.154851 0.170606 1.19 69 84 51
0.156567 0.170463 1.189 69 84 51
0.158281 0.17032 1.188 68 83 50
0.160126 0.17032 1.188 68 83 50
0.161834 0.170176 1.187 69 84 51
0.163678 0.170176 1.187 70 85 52
0.165242 0.16989 1.185 69 84 51
0.167083 0.16989 1.185 68 83 50
0.168923 0.16989 1.185 68 83 50
0.170763 0.16989 1.185 69 84 51
0.172604 0.16989 1.185 69 84 51
0.174444 0.16989 1.185 68 83 50
0.176284 0.16989 1.185 68 83 50
0.178125 0.16989 1.185 66 81 48
0.179965 0.16989 1.185 66 81 48
0.181805 0.16989 1.185 66 81 48
0.183646 0.16989 1.185 68 83 50
0.185486 0.16989 1.185 69 84 51
0.187484 0.170033 1.186 70 85 52
0.189486 0.170176 1.187 71 86 53
0.191329 0.170176 1.187 70 86 50
0.193173 0.170176 1.187 71 87 51
0.195016 0.170176 1.187 70 86 50
0.19686 0.170176 1.187 70 86 50
0.198703 0.170176 1.187 70 86 50
0.200547 0.170176 1.187 71 87 51
0.20239 0.170176 1.187 70 86 50
0.204406 0.17032 1.188 69 85 49
0.206424 0.170463 1.189 68 84 48
0.208271 0.170463 1.189 69 85 49
0.210294 0.170606 1.19 69 85 49
0.212142 0.170606 1.19 69 85 49
0.21399 0.170606 1.19 70 86 50
0.21602 0.17075 1.191 71 87 51
0.217869 0.17075 1.191 69 85 49
0.219904 0.170893 1.192 66 82 46
0.221755 0.170893 1.192 68 83 50
0.223606 0.170893 1.192 69 84 51
0.225457 0.170893 1.192 66 81 48
0.227308 0.170893 1.192 66 81 48
0.22916 0.170893 1.192 69 84 51
0.231011 0.170893 1.192 68 83 50
0.232862 0.170893 1.192 70 85 52
0.234713 0.170893 1.192 72 87 54
0.236565 0.170893 1.192 69 84 51
0.238416 0.170893 1.192 69 84 51
0.240469 0.171037 1.193 68 83 50
0.242321 0.171037 1.193 68 83 50
0.244379 0.17118 1.194 69 84 51
0.246233 0.17118 1.194 70 85 52
0.248295 0.171323 1.195 68 85 52
0.250151 0.171323 1.195 68 85 52
0.252007 0.171323 1.195 68 85 52
0.253863 0.171323 1.195 69 86 53
0.255933 0.171467 1.196 67 84 51
0.25779 0.171467 1.196 66 83 50
0.259865 0.17161 1.197 62 79 46
0.261724 0.17161 1.197 67 84 51
0.263583 0.17161 1.197 67 84 51
0.265442 0.17161 1.197 59 76 43
0.267301 0.17161 1.197 67 85 49
0.26916 0.17161 1.197 68 86 50
0.271019 0.17161 1.197 68 86 50
0.272878 0.17161 1.197 72 90 54
0.274736 0.17161 1.197 70 88 52
0.276595 0.17161 1.197 70 88 52
0.278454 0.17161 1.197 70 88 52
0.280313 0.17161 1.197 70 88 52
0.282172 0.17161 1.197 70 88 52
0.284031 0.17161 1.197 69 87 51
0.28589 0.17161 1.197 70 87 54
0.287749 0.17161 1.197 70 87 54
0.289608 0.17161 1.197 71 87 56
0.291467 0.17161 1.197 70 86 55
0.293326 0.17161 1.197 70 85 57
0.295185 0.17161 1.197 71 86 58
0.296796 0.171467 1.196 72 87 59
0.298404 0.171323 1.195 71 86 58
0.299757 0.171037 1.193 70 85 57
0.30161 0.171037 1.193 69 84 56
0.303208 0.170893 1.192 70 86 55
0.304804 0.17075 1.191 71 87 56
0.306396 0.170606 1.19 71 87 56
0.307467 0.170176 1.187 71 87 56
0.30905 0.170033 1.186 74 90 59
0.310105 0.169603 1.183 75 91 60
0.311679 0.16946 1.182 76 92 61
0.312984 0.169173 1.18 77 93 62
0.31455 0.169029 1.179 76 93 60
0.316112 0.168886 1.178 75 92 59
0.317672 0.168743 1.177 75 94 56
0.319228 0.168599 1.176 84 103 65
0.321055 0.168599 1.176 90 110 67
0.323156 0.168743 1.177 92 112 69
0.324984 0.168743 1.177 92 113 68
0.327089 0.168886 1.178 96 117 72
0.328919 0.168886 1.178 100 121 76
0.330748 0.168886 1.178 99 120 75
0.33286 0.169029 1.179 100 121 76
0.334975 0.169173 1.18 100 121 76
0.337378 0.16946 1.182 93 114 69
0.339214 0.16946 1.182 92 113 68
0.34105 0.16946 1.182 161 185 139
0.343176 0.169603 1.183 186 210 164
0.345596 0.16989 1.185 172 196 150
0.347436 0.16989 1.185 161 185 139
0.349277 0.16989 1.185 138 158 115
0.351413 0.170033 1.186 91 111 68
0.353553 0.170176 1.187 88 107 69
0.355397 0.170176 1.187 95 114 76
0.35724 0.170176 1.187 83 96 75
0.359084 0.170176 1.187 75 88 67
0.360623 0.170033 1.186 192 203 195
0.362159 0.16989 1.185 214 225 217
0.363385 0.169603 1.183 79 91 81
0.364296 0.169173 1.18 73 85 75
0.364577 0.168456 1.175 68 87 81
0.363908 0.167309 1.167 65 84 78
0.363213 0.166162 1.159 97 124 94
0.361549 0.164585 1.148 237 255 234
0.361749 0.163868 1.143 229 247 230
0.36257 0.163438 1.14 82 100 83
0.363701 0.163151 1.138 75 82 78
0.365147 0.163008 1.137 98 105 101
0.366591 0.162865 1.136 16 11 27
0.368679 0.163008 1.137 10 5 21
-0.170083 0.175935 1.214 53 73 44
-0.168059 0.17579 1.213 63 83 54
-0.165901 0.1755 1.211 65 86 54
-0.163885 0.175355 1.21 84 105 73
-0.161738 0.175065 1.208 79 102 70
-0.15973 0.17492 1.207 65 88 56
-0.157724 0.174776 1.206 58 81 49
-0.155851 0.174776 1.206 63 86 54
-0.153851 0.174631 1.205 64 87 55
-0.151853 0.174486 1.204 64 87 55
-0.149859 0.174341 1.203 66 88 59
-0.147867 0.174196 1.202 66 88 59
-0.145879 0.174051 1.201 65 87 58
-0.143894 0.173906 1.2 61 83 54
-0.141912 0.173761 1.199 68 90 61
-0.139933 0.173616 1.198 76 98 69
-0.137957 0.173471 1.197 72 94 65
-0.136098 0.173471 1.197 72 94 65
-0.134127 0.173326 1.196 75 96 64
-0.132159 0.173181 1.195 72 93 61
-0.130303 0.173181 1.195 75 96 64
-0.12834 0.173036 1.194 85 106 74
-0.126486 0.173036 1.194 86 108 74
-0.124631 0.173036 1.194 78 100 66
-0.122777 0.173036 1.194 74 97 60
-0.120923 0.173036 1.194 74 97 60
-0.119068 0.173036 1.194 75 98 61
-0.117116 0.172892 1.193 75 98 61
-0.115263 0.172892 1.193 73 96 59
-0.113601 0.173181 1.195 74 97 60
-0.111745 0.173181 1.195 75 98 61
-0.109889 0.173181 1.195 77 100 63
-0.108123 0.173326 1.196 72 95 58
-0.106355 0.173471 1.197 72 95 58
-0.104496 0.173471 1.197 73 96 59
-0.102723 0.173616 1.198 72 95 58
-0.100946 0.173761 1.199 72 96 57
-0.0991668 0.173906 1.2 71 95 56
-0.097222 0.173761 1.199 74 98 59
-0.0952804 0.173616 1.198 74 98 59
-0.0934199 0.173616 1.198 75 99 60
-0.0914829 0.173471 1.197 74 98 59
-0.0896239 0.173471 1.197 77 101 62
-0.0876916 0.173326 1.196 75 99 60
-0.0857624 0.173181 1.195 75 99 60
-0.0839066 0.173181 1.195 75 99 60
-0.0820507 0.173181 1.195 78 102 63
-0.0801277 0.173036 1.194 75 99 60
-0.0782734 0.173036 1.194 77 100 63
-0.0764831 0.173181 1.195 77 100 63
-0.0746272 0.173181 1.195 78 101 64
-0.0727713 0.173181 1.195 77 100 63
-0.0708561 0.173036 1.194 77 100 63
-0.0690596 0.173181 1.195 75 98 61
-0.0672037 0.173181 1.195 75 98 61
-0.0653478 0.173181 1.195 77 100 63
-0.0634919 0.173181 1.195 75 98 61
-0.0616361 0.173181 1.195 78 101 64
-0.0597802 0.173181 1.195 79 102 65
-0.0578758 0.173036 1.194 78 101 64
-0.0559746 0.172892 1.193 79 102 65
-0.0541218 0.172892 1.193 79 102 65
-0.052269 0.172892 1.193 81 103 69
-0.0503318 0.172602 1.191 80 102 68
-0.0484414 0.172457 1.19 80 102 68
-0.0465541 0.172312 1.189 80 102 68
-0.04467 0.172167 1.188 82 102 73
-0.0427889 0.172022 1.187 80 100 71
-0.0409455 0.172022 1.187 77 97 70
-0.0390361 0.171732 1.185 80 100 73
-0.037133 0.171442 1.183 86 105 80
-0.0353256 0.171587 1.184 84 103 78
-0.0334585 0.171442 1.183 85 103 81
-0.031648 0.171587 1.184 85 103 81
-0.029784 0.171442 1.183 76 97 79
-0.0279232 0.171297 1.182 76 97 79
-0.0260654 0.171152 1.181 77 95 86
-0.0242108 0.171008 1.18 76 94 85
-0.0223782 0.171008 1.18 70 91 87
-0.0205804 0.171297 1.182 70 91 87
-0.0187447 0.171297 1.182 69 87 84
-0.0169091 0.171297 1.182 68 86 83
-0.0150989 0.171587 1.184 65 86 88
-0.0132713 0.171732 1.185 76 97 99
-0.0114502 0.172022 1.187 82 106 114
-0.00963107 0.172457 1.19 110 134 142
-0.0077895 0.172602 1.191 136 164 179
-0.00593983 0.172602 1.191 159 187 202
0.00817327 0.159269 1.099 180 210 238
0.00988905 0.159414 1.1 182 211 242
0.0116079 0.159559 1.101 187 216 247
0.0133178 0.159559 1.101 181 210 243
0.015096 0.160283 1.106 152 181 214
0.0168136 0.160283 1.106 177 208 242
0.0184475 0.159559 1.101 177 208 242
0.0201391 0.159414 1.1 172 203 237
0.0218673 0.159559 1.101 158 189 223
0.0235557 0.159414 1.1 168 196 231
0.0252641 0.159414 1.1 172 200 235
0.0269724 0.159414 1.1 181 209 237
0.0286808 0.159414 1.1 202 230 255
0.0303891 0.159414 1.1 209 239 255
0.0320974 0.159414 1.1 175 205 233
0.0338058 0.159414 1.1 174 200 215
0.0355464 0.159559 1.101 226 252 255
0.0374932 0.160573 1.108 226 248 253
0.039497 0.161733 1.116 128 150 155
0.0415997 0.163182 1.126 75 93 76
0.0478027 0.166515 1.149 84 99 71
0.0501482 0.168399 1.162 78 95 62
