ply
format ascii 1.0
comment Created by Open3D
element vertex 1368
property double x
property double y
property double z
property uchar red
property uchar green
property uchar blue
end_header
0.22489 0.096513 1.189 57 78 41
0.226736 0.096513 1.189 57 78 41
0.228583 0.096513 1.189 57 78 41
0.23043 0.096513 1.189 57 78 41
0.232276 0.096513 1.189 55 76 39
0.234123 0.096513 1.189 54 75 38
0.235771 0.0964318 1.188 53 74 37
0.237616 0.0964318 1.188 52 73 36
0.239461 0.0964318 1.188 52 73 36
0.241306 0.0964318 1.188 50 71 34
0.243151 0.0964318 1.188 50 71 34
0.24479 0.0963507 1.187 48 69 32
0.246633 0.0963507 1.187 47 68 31
0.248476 0.0963507 1.187 50 71 34
0.25032 0.0963507 1.187 47 68 31
0.252163 0.0963507 1.187 46 67 30
0.254007 0.0963507 1.187 50 71 34
0.25585 0.0963507 1.187 50 71 34
0.257694 0.0963507 1.187 46 67 30
0.259537 0.0963507 1.187 45 66 29
0.261601 0.0964318 1.188 46 67 30
0.263668 0.096513 1.189 46 67 30
0.265737 0.0965942 1.19 46 66 32
0.267586 0.0965942 1.19 46 66 32
0.26966 0.0966753 1.191 46 66 32
0.271738 0.0967565 1.192 46 66 32
0.273589 0.0967565 1.192 47 67 33
0.275671 0.0968377 1.193 46 66 32
0.277757 0.0969189 1.194 46 66 32
0.279611 0.0969189 1.194 46 66 32
0.281465 0.0969189 1.194 45 65 31
0.283557 0.097 1.195 45 65 31
0.285413 0.097 1.195 46 66 32
0.287269 0.097 1.195 47 67 33
0.289124 0.097 1.195 48 68 34
0.29098 0.097 1.195 50 70 36
0.292836 0.097 1.195 47 67 33
0.294692 0.097 1.195 45 65 31
0.2963 0.0969189 1.194 45 65 31
0.297904 0.0968377 1.193 46 66 32
0.299757 0.0968377 1.193 48 68 34
0.30161 0.0968377 1.193 51 71 37
0.303208 0.0967565 1.192 51 71 37
0.30506 0.0967565 1.192 48 68 34
0.306911 0.0967565 1.192 48 68 34
0.308762 0.0967565 1.192 51 71 37
0.310874 0.0968377 1.193 50 70 36
0.312989 0.0969189 1.194 50 70 36
0.314843 0.0969189 1.194 51 71 37
0.316697 0.0969189 1.194 53 73 39
0.318818 0.097 1.195 53 73 39
0.320674 0.097 1.195 53 73 39
0.3228 0.0970812 1.196 54 74 40
0.324658 0.0970812 1.196 54 74 40
0.326788 0.0971624 1.197 66 87 50
0.328647 0.0971624 1.197 65 86 49
0.330782 0.0972435 1.198 60 82 43
0.332643 0.0972435 1.198 77 99 60
0.334782 0.0973247 1.199 77 99 60
0.336644 0.0973247 1.199 72 94 55
0.338507 0.0973247 1.199 70 92 53
0.340369 0.0973247 1.199 70 92 53
0.341945 0.0972435 1.198 70 92 53
0.343806 0.0972435 1.198 69 91 52
0.345378 0.0971624 1.197 70 92 53
0.347237 0.0971624 1.197 72 94 55
0.348804 0.0970812 1.196 70 92 53
0.350662 0.0970812 1.196 70 92 53
0.352519 0.0970812 1.196 72 93 56
0.35408 0.097 1.195 72 93 56
0.355936 0.097 1.195 76 96 62
0.357492 0.0969189 1.194 81 101 67
0.359046 0.0968377 1.193 66 83 58
0.360596 0.0967565 1.192 57 74 49
0.361535 0.096513 1.189 62 72 60
0.362465 0.0962695 1.186 133 143 131
0.363078 0.0959448 1.182 75 83 76
0.363679 0.0956201 1.178 48 56 49
0.363957 0.0952143 1.173 54 60 59
0.363596 0.0946461 1.166 52 58 57
0.361646 0.093672 1.154 79 88 86
0.361549 0.093185 1.148 201 210 208
0.362065 0.0928603 1.144 199 214 220
0.362252 0.0924544 1.139 186 201 207
0.363062 0.0922109 1.136 231 244 250
0.363863 0.0919674 1.133 233 246 252
0.365945 0.0920486 1.134 119 131 139
0.369003 0.0923733 1.138 98 110 118
-0.162517 0.0959627 1.16 7 16 7
-0.160854 0.0960454 1.161 8 17 8
-0.159188 0.0961281 1.162 7 16 7
-0.157248 0.0960454 1.161 10 19 10
-0.155177 0.09588 1.159 10 19 10
-0.153377 0.09588 1.159 11 20 11
-0.150531 0.0952182 1.151 1 12 10
-0.146805 0.0939773 1.136 0 10 8
-0.144147 0.0933982 1.129 29 49 54
-0.141385 0.0927364 1.121 52 72 77
-0.138274 0.0918264 1.11 0 11 26
-0.136058 0.0914955 1.106 0 12 27
-0.134219 0.0914127 1.105 0 11 35
-0.132383 0.09133 1.104 0 31 55
-0.13055 0.0912473 1.103 12 72 98
-0.128603 0.0910818 1.101 0 47 73
-0.126893 0.0910818 1.101 0 49 74
-0.125183 0.0910818 1.101 38 113 138
-0.123361 0.0909991 1.1 120 207 230
-0.121653 0.0909991 1.1 114 201 224
-0.119945 0.0909991 1.1 51 157 177
-0.118236 0.0909991 1.1 62 168 188
-0.116634 0.0910818 1.101 81 187 207
-0.114924 0.0910818 1.101 74 180 200
-0.113111 0.0909991 1.1 91 195 220
-0.111403 0.0909991 1.1 88 192 217
-0.109695 0.0909991 1.1 18 116 138
-0.107986 0.0909991 1.1 40 138 160
-0.106278 0.0909991 1.1 104 201 232
-0.104379 0.0908336 1.098 40 137 168
-0.102674 0.0908336 1.098 26 126 149
-0.101061 0.0909164 1.099 113 213 236
-0.0993541 0.0909164 1.099 93 207 235
-0.0976474 0.0909164 1.099 23 137 165
-0.0959406 0.0909164 1.099 63 180 200
-0.0943195 0.0909991 1.1 100 217 237
-0.0926112 0.0909991 1.1 109 226 251
-0.0909029 0.0909991 1.1 106 223 248
-0.0891134 0.0909164 1.099 110 227 252
-0.0874067 0.0909164 1.099 105 222 247
-0.0856999 0.0909164 1.099 104 221 246
-0.0840695 0.0909991 1.1 105 222 247
-0.0824361 0.0910818 1.101 111 222 251
-0.0807262 0.0910818 1.101 74 185 214
-0.0790163 0.0910818 1.101 36 139 160
-0.0773766 0.0911646 1.102 41 144 165
-0.0757338 0.0912473 1.103 35 147 168
-0.0740208 0.0912473 1.103 21 133 154
-0.0723078 0.0912473 1.103 17 120 141
-0.0705948 0.0912473 1.103 22 125 146
-0.0688194 0.0911646 1.102 24 129 151
-0.0671079 0.0911646 1.102 30 135 157
-0.0653371 0.0910818 1.101 37 141 166
-0.0635695 0.0909991 1.1 56 160 185
-0.0618049 0.0909164 1.099 79 185 215
-0.0600434 0.0908336 1.098 105 211 241
-0.0583382 0.0908336 1.098 108 219 248
-0.0565814 0.0907509 1.097 109 220 249
-0.0548777 0.0907509 1.097 120 227 249
-0.0531256 0.0906682 1.096 115 222 244
-0.0514234 0.0906682 1.096 112 214 237
-0.0497213 0.0906682 1.096 91 193 216
-0.0480192 0.0906682 1.096 79 169 194
-0.046317 0.0906682 1.096 126 216 241
-0.0446556 0.0907509 1.097 158 233 255
-0.042952 0.0907509 1.097 155 230 255
-0.0412483 0.0907509 1.097 160 229 255
-0.0395806 0.0908336 1.098 140 209 242
-0.0378754 0.0908336 1.098 113 177 211
-0.0361702 0.0908336 1.098 102 166 200
-0.0344649 0.0908336 1.098 94 167 197
-0.0327896 0.0909164 1.099 113 186 216
-0.0311111 0.0909991 1.1 94 170 190
-0.0294027 0.0909991 1.1 43 119 139
-0.0276944 0.0909991 1.1 10 80 104
-0.0259624 0.0909164 1.099 0 63 87
-0.0242556 0.0909164 1.099 0 47 72
-0.0225488 0.0909164 1.099 0 48 73
-0.0208421 0.0909164 1.099 1 67 96
-0.0191353 0.0909164 1.099 86 152 181
-0.0174126 0.0908336 1.098 150 216 245
-0.0157217 0.0909164 1.099 146 212 241
-0.0140149 0.0909164 1.099 164 217 251
-0.0122969 0.0908336 1.098 125 178 212
-0.0105917 0.0908336 1.098 60 105 142
-0.00888648 0.0908336 1.098 91 136 173
-0.00718125 0.0908336 1.098 133 173 220
-0.005481 0.0909164 1.099 139 179 226
-0.00377422 0.0909164 1.099 148 189 225
-0.00206932 0.0909991 1.1 145 186 222
-0.000360978 0.0909991 1.1 143 182 218
0.00134736 0.0909991 1.1 138 177 213
0.0030557 0.0909991 1.1 140 179 215
0.00476403 0.0909991 1.1 140 179 215
0.00647237 0.0909991 1.1 142 179 215
0.00818071 0.0909991 1.1 140 177 213
0.00988006 0.0909164 1.099 144 181 217
0.0115868 0.0909164 1.099 151 188 224
0.0132815 0.0908336 1.098 147 181 218
0.0149868 0.0908336 1.098 147 181 218
0.016692 0.0908336 1.098 149 184 218
0.0183972 0.0908336 1.098 152 187 221
0.0201025 0.0908336 1.098 150 184 216
0.0217878 0.0907509 1.097 143 177 209
0.0252181 0.0908336 1.098 165 184 212
0.0269234 0.0908336 1.098 242 251 255
0.0286547 0.0909164 1.099 243 252 255
0.0303891 0.0909991 1.1 249 255 254
0.0320974 0.0909991 1.1 249 255 254
0.0338365 0.0910818 1.101 249 255 254
0.0355141 0.0909991 1.1 249 255 254
0.0372563 0.0910818 1.101 251 255 254
0.0390016 0.0911646 1.102 251 255 254
0.0406761 0.0910818 1.101 251 255 254
0.0423475 0.0909991 1.1 251 255 254
0.0440558 0.0909991 1.1 251 255 254
0.0457225 0.0909164 1.099 251 255 254
0.0473862 0.0908336 1.098 251 255 254
0.0490914 0.0908336 1.098 251 255 254
0.0507504 0.0907509 1.097 249 255 254
0.052454 0.0907509 1.097 249 255 254
0.0541577 0.0907509 1.097 249 253 255
0.0559123 0.0908336 1.098 245 249 254
0.0576175 0.0908336 1.098 203 207 212
0.0594308 0.0909991 1.1 248 252 255
0.0611392 0.0909991 1.1 254 250 255
0.0628475 0.0909991 1.1 254 250 255
0.0663847 0.0911646 1.102 178 178 179
0.0682815 0.0914127 1.105 53 55 44
0.0708211 0.0924882 1.118 39 41 30
0.0798383 0.0971209 1.174 36 47 31
0.0827745 0.0984445 1.19 36 47 31
0.084907 0.0987754 1.194 40 53 32
0.0869793 0.0990236 1.197 41 54 33
0.0888383 0.0990236 1.197 40 58 31
0.0906973 0.0990236 1.197 39 57 30
0.0925563 0.0990236 1.197 38 56 27
0.0944153 0.0990236 1.197 44 62 33
0.0962742 0.0990236 1.197 44 63 31
0.0981332 0.0990236 1.197 43 62 30
0.0999087 0.0989408 1.196 43 63 29
0.101766 0.0989408 1.196 43 63 29
0.103537 0.0988581 1.195 41 61 27
0.105393 0.0988581 1.195 45 65 31
0.107249 0.0988581 1.195 43 63 29
0.109013 0.0987754 1.194 44 64 30
0.110868 0.0987754 1.194 44 64 30
0.112627 0.0986927 1.193 44 64 30
0.114384 0.0986099 1.192 43 63 29
0.116235 0.0986099 1.192 44 64 30
0.118087 0.0986099 1.192 45 65 31
0.119837 0.0985272 1.191 45 65 31
0.121585 0.0984445 1.19 45 65 31
0.123433 0.0984445 1.19 45 65 31
0.125176 0.0983618 1.189 45 65 31
0.126915 0.098279 1.188 45 65 31
0.128652 0.0981963 1.187 45 64 32
0.130496 0.0981963 1.187 45 64 32
0.132339 0.0981963 1.187 45 64 32
0.134182 0.0981963 1.187 44 63 31
0.136026 0.0981963 1.187 46 65 33
0.137869 0.0981963 1.187 47 66 34
0.139713 0.0981963 1.187 48 67 35
0.141556 0.0981963 1.187 47 66 34
0.1434 0.0981963 1.187 47 66 34
0.145243 0.0981963 1.187 46 65 33
0.147087 0.0981963 1.187 46 65 33
0.14893 0.0981963 1.187 46 65 33
0.150773 0.0981963 1.187 47 66 34
0.152617 0.0981963 1.187 46 65 33
0.15446 0.0981963 1.187 45 64 32
0.156304 0.0981963 1.187 46 65 33
0.158281 0.098279 1.188 48 67 35
0.160126 0.098279 1.188 45 64 32
0.161971 0.098279 1.188 44 64 30
0.163816 0.098279 1.188 45 65 31
0.165661 0.098279 1.188 44 64 30
0.167506 0.098279 1.188 45 65 31
0.169208 0.0981963 1.187 47 67 33
0.171196 0.098279 1.188 45 65 31
0.172895 0.0981963 1.187 45 65 31
0.174738 0.0981963 1.187 45 65 31
0.176582 0.0981963 1.187 45 65 31
0.178425 0.0981963 1.187 45 65 31
0.180269 0.0981963 1.187 47 67 33
0.182112 0.0981963 1.187 46 66 32
0.183956 0.0981963 1.187 47 67 33
0.185799 0.0981963 1.187 45 65 31
0.187643 0.0981963 1.187 46 67 30
0.189486 0.0981963 1.187 46 67 30
0.191329 0.0981963 1.187 47 68 31
0.193173 0.0981963 1.187 47 68 31
0.195016 0.0981963 1.187 54 75 38
0.19686 0.0981963 1.187 51 72 35
0.198871 0.098279 1.188 51 72 35
0.200716 0.098279 1.188 51 72 35
0.202561 0.098279 1.188 51 72 35
0.204578 0.0983618 1.189 51 72 35
0.206424 0.0983618 1.189 51 72 35
0.208446 0.0984445 1.19 52 73 36
0.210294 0.0984445 1.19 51 72 35
0.212142 0.0984445 1.19 53 74 37
0.21399 0.0984445 1.19 54 75 38
0.215838 0.0984445 1.19 54 75 38
0.217687 0.0984445 1.19 53 74 37
0.219535 0.0984445 1.19 54 75 38
0.221383 0.0984445 1.19 57 78 41
0.223231 0.0984445 1.19 55 76 39
0.225079 0.0984445 1.19 54 75 38
0.226927 0.0984445 1.19 54 75 38
0.228775 0.0984445 1.19 53 74 37
0.230623 0.0984445 1.19 53 74 37
0.232471 0.0984445 1.19 52 73 36
0.23432 0.0984445 1.19 52 73 36
0.236168 0.0984445 1.19 52 73 36
0.238016 0.0984445 1.19 51 72 35
0.239864 0.0984445 1.19 51 72 35
0.241509 0.0983618 1.189 46 67 30
0.243151 0.098279 1.188 47 68 31
0.244996 0.098279 1.188 48 69 32
0.246841 0.098279 1.188 48 69 32
0.248686 0.098279 1.188 48 69 32
0.25032 0.0981963 1.187 45 66 29
0.252163 0.0981963 1.187 40 61 24
0.254007 0.0981963 1.187 50 71 34
0.25585 0.0981963 1.187 48 69 32
0.257694 0.0981963 1.187 46 67 30
0.259756 0.098279 1.188 45 66 29
0.261601 0.098279 1.188 46 67 30
0.263668 0.0983618 1.189 46 67 30
0.265737 0.0984445 1.19 46 67 30
0.267586 0.0984445 1.19 46 67 30
0.26966 0.0985272 1.191 44 66 32
0.271738 0.0986099 1.192 44 66 32
0.273589 0.0986099 1.192 44 66 32
0.275671 0.0986927 1.193 44 66 32
0.277757 0.0987754 1.194 44 66 32
0.279611 0.0987754 1.194 44 66 32
0.281465 0.0987754 1.194 43 65 31
0.283557 0.0988581 1.195 44 66 32
0.285413 0.0988581 1.195 46 68 34
0.287028 0.0987754 1.194 46 68 34
0.288883 0.0987754 1.194 47 67 33
0.290737 0.0987754 1.194 50 70 36
0.292346 0.0986927 1.193 47 67 33
0.294199 0.0986927 1.193 46 66 32
0.295803 0.0986099 1.192 45 65 31
0.297655 0.0986099 1.192 45 65 31
0.299506 0.0986099 1.192 46 66 32
0.301357 0.0986099 1.192 48 68 34
0.302954 0.0985272 1.191 50 70 36
0.304804 0.0985272 1.191 48 68 34
0.306653 0.0985272 1.191 51 71 37
0.308762 0.0986099 1.192 51 71 37
0.310613 0.0986099 1.192 51 71 37
0.312464 0.0986099 1.192 51 71 37
0.314316 0.0986099 1.192 51 71 37
0.316432 0.0986927 1.193 53 73 39
0.318552 0.0987754 1.194 54 75 38
0.320674 0.0988581 1.195 54 75 38
0.32253 0.0988581 1.195 55 76 39
0.324386 0.0988581 1.195 57 78 41
0.326515 0.0989408 1.196 65 86 49
0.328647 0.0990236 1.197 64 85 48
0.330506 0.0990236 1.197 61 82 45
0.332643 0.0991063 1.198 77 98 61
0.334503 0.0991063 1.198 79 101 62
0.336364 0.0991063 1.198 75 97 58
0.337942 0.0990236 1.197 73 95 56
0.339801 0.0990236 1.197 73 95 56
0.34166 0.0990236 1.197 73 95 56
0.343519 0.0990236 1.197 73 95 56
0.345089 0.0989408 1.196 73 95 56
0.346657 0.0988581 1.195 72 94 55
0.348512 0.0988581 1.195 69 91 52
0.350368 0.0988581 1.195 70 92 53
0.352224 0.0988581 1.195 70 92 53
0.35408 0.0988581 1.195 73 95 56
0.355638 0.0987754 1.194 80 100 66
0.357193 0.0986927 1.193 81 101 67
0.358745 0.0986099 1.192 64 82 55
0.360596 0.0986099 1.192 58 76 49
0.361535 0.0983618 1.189 62 72 60
0.362465 0.0981136 1.186 135 145 133
0.363078 0.0977827 1.182 75 83 76
0.36337 0.097369 1.177 49 57 50
0.363957 0.0970381 1.173 48 57 56
0.363596 0.096459 1.166 51 60 59
0.361646 0.0954663 1.154 81 90 88
0.361549 0.09497 1.148 202 211 209
0.362065 0.0946391 1.144 195 210 216
0.36257 0.0943082 1.14 182 197 203
0.363062 0.0939773 1.136 231 246 252
0.364184 0.0938118 1.134 231 246 252
0.365622 0.0937291 1.133 122 134 142
0.368355 0.0939773 1.136 97 109 117
-0.162658 0.0978506 1.161 8 17 8
-0.160993 0.0979349 1.162 8 17 8
-0.159188 0.0979349 1.162 8 17 8
-0.157384 0.0979349 1.162 8 17 8
-0.155445 0.0978506 1.161 11 20 11
-0.15351 0.0977664 1.16 11 20 11
-0.150793 0.0971764 1.153 0 11 9
-0.147968 0.0965021 1.145 0 8 6
-0.141259 0.0943951 1.12 90 124 127
-0.138025 0.0933837 1.108 63 110 129
-0.135935 0.0931309 1.105 24 71 90
-0.134219 0.0931309 1.105 0 52 81
-0.132263 0.0929623 1.103 0 44 73
-0.13055 0.0929623 1.103 0 51 80
-0.128603 0.0927938 1.101 0 56 85
-0.126893 0.0927938 1.101 0 64 87
-0.125183 0.0927938 1.101 20 99 122
-0.123361 0.0927095 1.1 116 209 238
-0.121653 0.0927095 1.1 106 199 228
-0.119945 0.0927095 1.1 49 155 180
-0.118236 0.0927095 1.1 78 184 209
-0.116634 0.0927938 1.101 63 174 198
-0.114924 0.0927938 1.101 60 171 195
-0.113111 0.0927095 1.1 55 164 186
-0.111403 0.0927095 1.1 30 139 161
-0.109695 0.0927095 1.1 0 110 131
-0.107986 0.0927095 1.1 78 192 213
-0.106181 0.0926252 1.099 83 197 227
-0.104379 0.0925409 1.098 64 178 208
-0.102674 0.0925409 1.098 29 137 162
-0.101061 0.0926252 1.099 101 209 234
-0.0993541 0.0926252 1.099 41 156 181
-0.0976474 0.0926252 1.099 0 108 133
-0.0960279 0.0927095 1.1 41 157 180
-0.0943195 0.0927095 1.1 120 236 255
-0.0926112 0.0927095 1.1 115 231 254
-0.0909029 0.0927095 1.1 105 221 244
-0.0891134 0.0926252 1.099 102 213 237
-0.0874067 0.0926252 1.099 49 160 184
-0.0856999 0.0926252 1.099 85 194 216
-0.0840695 0.0927095 1.1 115 224 246
-0.0823612 0.0927095 1.1 127 224 248
-0.0807262 0.0927938 1.101 133 230 254
-0.0790163 0.0927938 1.101 117 220 239
-0.0773064 0.0927938 1.101 102 205 224
-0.0757338 0.0929623 1.103 95 198 217
-0.0740208 0.0929623 1.103 78 181 200
-0.0723078 0.0929623 1.103 46 144 166
-0.0705308 0.092878 1.102 30 128 150
-0.0687569 0.0927938 1.101 24 127 148
-0.067047 0.0927938 1.101 21 124 145
-0.0653371 0.0927938 1.101 16 121 148
-0.0636273 0.0927938 1.101 16 121 148
-0.0618611 0.0927095 1.1 31 145 175
-0.0600434 0.0925409 1.098 44 158 188
-0.0583382 0.0925409 1.098 59 172 204
-0.0565814 0.0924566 1.097 76 189 221
-0.0548777 0.0924566 1.097 93 205 231
-0.0531256 0.0923723 1.096 96 208 234
-0.0514234 0.0923723 1.096 103 206 233
-0.0497213 0.0923723 1.096 119 222 249
-0.0479754 0.0922881 1.095 135 220 248
-0.046317 0.0923723 1.096 138 223 251
-0.0446556 0.0924566 1.097 157 221 250
-0.042952 0.0924566 1.097 158 222 251
-0.0412483 0.0924566 1.097 142 192 223
-0.0395806 0.0925409 1.098 112 162 193
-0.0378754 0.0925409 1.098 108 156 184
-0.0361702 0.0925409 1.098 106 154 182
-0.0344649 0.0925409 1.098 97 157 183
-0.0327896 0.0926252 1.099 98 158 184
-0.0310828 0.0926252 1.099 98 165 192
-0.029376 0.0926252 1.099 121 188 215
-0.0276944 0.0927095 1.1 125 202 225
-0.025986 0.0927095 1.1 124 201 224
-0.0242556 0.0926252 1.099 95 173 200
-0.0225488 0.0926252 1.099 25 103 130
-0.0208421 0.0926252 1.099 85 171 196
-0.0191353 0.0926252 1.099 128 214 239
-0.0174285 0.0926252 1.099 146 214 245
-0.0157217 0.0926252 1.099 153 221 252
-0.0140149 0.0926252 1.099 124 191 224
-0.0123081 0.0926252 1.099 20 87 120
-0.0105917 0.0925409 1.098 9 63 103
-0.00888648 0.0925409 1.098 0 41 81
-0.00718779 0.0926252 1.099 13 62 103
-0.005481 0.0926252 1.099 33 82 123
-0.00377765 0.0927095 1.1 65 123 156
-0.00206932 0.0927095 1.1 120 178 211
-0.000360978 0.0927095 1.1 152 198 233
0.00134736 0.0927095 1.1 136 182 217
0.0030557 0.0927095 1.1 145 189 224
0.0047597 0.0926252 1.099 145 189 224
0.00646649 0.0926252 1.099 149 188 224
0.00817327 0.0926252 1.099 144 183 219
0.00987107 0.0925409 1.098 152 186 223
0.0115763 0.0925409 1.098 153 187 224
0.0132815 0.0925409 1.098 151 186 220
0.0149868 0.0925409 1.098 144 179 213
0.016692 0.0925409 1.098 155 190 224
0.0183805 0.0924566 1.097 158 193 227
0.0201025 0.0925409 1.098 151 184 218
0.0217878 0.0924566 1.097 142 175 209
0.0252181 0.0925409 1.098 180 202 229
0.0269479 0.0926252 1.099 240 252 255
0.0286547 0.0926252 1.099 241 253 255
0.0303891 0.0927095 1.1 249 255 254
0.0320974 0.0927095 1.1 249 255 254
0.0338058 0.0927095 1.1 249 255 254
0.0355464 0.0927938 1.101 249 255 254
0.0372563 0.0927938 1.101 251 255 254
0.0389662 0.0927938 1.101 251 255 254
0.0406761 0.0927938 1.101 251 255 254
0.042309 0.0926252 1.099 251 255 254
0.0440157 0.0926252 1.099 251 255 254
0.0456809 0.0925409 1.098 251 255 254
0.0473862 0.0925409 1.098 251 255 254
0.0490467 0.0924566 1.097 251 255 254
0.0507504 0.0924566 1.097 251 255 254
0.052454 0.0924566 1.097 251 255 254
0.0541577 0.0924566 1.097 249 252 255
0.0559123 0.0925409 1.098 221 224 227
0.05767 0.0926252 1.099 214 218 218
0.0594308 0.0927095 1.1 250 254 254
0.0611392 0.0927095 1.1 255 253 255
0.0646145 0.0927938 1.101 247 247 241
0.0665051 0.0930466 1.104 110 110 104
0.069023 0.0941423 1.117 46 49 34
0.0797703 0.098862 1.173 38 48 29
0.0827745 0.100295 1.19 38 48 29
0.0850492 0.1008 1.196 40 53 32
0.0869793 0.100885 1.197 41 54 33
0.0889125 0.100969 1.198 39 57 30
0.0906973 0.100885 1.197 40 58 31
0.0925563 0.100885 1.197 39 58 26
0.0944153 0.100885 1.197 43 62 30
0.0962742 0.100885 1.197 45 65 31
0.0981332 0.100885 1.197 45 65 31
0.0999922 0.100885 1.197 44 64 30
0.101851 0.100885 1.197 44 64 30
0.10371 0.100885 1.197 43 63 29
0.105481 0.1008 1.196 46 66 32
0.107338 0.1008 1.196 44 64 30
0.109196 0.1008 1.196 46 66 32
0.11096 0.100716 1.195 46 66 32
0.112816 0.100716 1.195 47 67 33
0.114672 0.100716 1.195 45 65 31
0.116431 0.100632 1.194 44 64 30
0.118186 0.100548 1.193 45 65 31
0.119938 0.100463 1.192 44 64 30
0.121789 0.100463 1.192 44 64 30
0.123537 0.100379 1.191 44 64 30
0.125281 0.100295 1.19 45 64 32
0.126915 0.100126 1.188 45 64 32
0.12876 0.100126 1.188 45 64 32
0.130496 0.100042 1.187 44 63 31
0.132339 0.100042 1.187 45 64 32
0.134069 0.0999577 1.186 44 63 31
0.135911 0.0999577 1.186 46 65 33
0.137753 0.0999577 1.186 48 67 35
0.139713 0.100042 1.187 48 67 35
0.141437 0.0999577 1.186 48 67 35
0.143279 0.0999577 1.186 48 67 35
0.145121 0.0999577 1.186 48 67 35
0.146839 0.0998734 1.185 46 65 33
0.148805 0.0999577 1.186 46 65 33
0.150646 0.0999577 1.186 46 65 33
0.152617 0.100042 1.187 45 64 32
0.15446 0.100042 1.187 45 64 32
0.156304 0.100042 1.187 45 64 32
0.158281 0.100126 1.188 48 67 35
0.160126 0.100126 1.188 46 65 33
0.162107 0.100211 1.189 46 66 32
0.164091 0.100295 1.19 46 66 32
0.165939 0.100295 1.19 44 64 30
0.167647 0.100211 1.189 44 64 30
0.169636 0.100295 1.19 45 65 31
0.171484 0.100295 1.19 44 64 30
0.173332 0.100295 1.19 45 65 31
0.175033 0.100211 1.189 46 66 32
0.176879 0.100211 1.189 45 65 31
0.178726 0.100211 1.189 44 64 30
0.180421 0.100126 1.188 45 65 31
0.182419 0.100211 1.189 44 64 30
0.183956 0.100042 1.187 45 65 31
0.185956 0.100126 1.188 44 64 30
0.187801 0.100126 1.188 45 66 29
0.189646 0.100126 1.188 44 65 28
0.191491 0.100126 1.188 46 67 30
0.193336 0.100126 1.188 47 68 31
0.195181 0.100126 1.188 48 69 32
0.197026 0.100126 1.188 50 71 34
0.199038 0.100211 1.189 50 71 34
0.200885 0.100211 1.189 50 71 34
0.202902 0.100295 1.19 50 71 34
0.20475 0.100295 1.19 48 69 32
0.206598 0.100295 1.19 50 70 36
0.208446 0.100295 1.19 50 70 36
0.210471 0.100379 1.191 51 71 37
0.21232 0.100379 1.191 54 74 40
0.21435 0.100463 1.192 53 73 39
0.216201 0.100463 1.192 53 73 39
0.218052 0.100463 1.192 52 72 38
0.219904 0.100463 1.192 52 72 38
0.221755 0.100463 1.192 52 72 38
0.223606 0.100463 1.192 52 72 38
0.225457 0.100463 1.192 53 73 39
0.227308 0.100463 1.192 53 73 39
0.22916 0.100463 1.192 53 73 39
0.231011 0.100463 1.192 52 72 38
0.232667 0.100379 1.191 52 72 38
0.234516 0.100379 1.191 51 71 37
0.236366 0.100379 1.191 50 71 34
0.238216 0.100379 1.191 47 68 31
0.240065 0.100379 1.191 48 69 32
0.241712 0.100295 1.19 46 67 30
0.24356 0.100295 1.19 47 68 31
0.245408 0.100295 1.19 50 71 34
0.247049 0.100211 1.189 48 69 32
0.248895 0.100211 1.189 45 66 29
0.250742 0.100211 1.189 40 61 24
0.252376 0.100126 1.188 40 61 24
0.254221 0.100126 1.188 48 69 32
0.25585 0.100042 1.187 48 69 32
0.257911 0.100126 1.188 47 68 31
0.259756 0.100126 1.188 45 66 29
0.261821 0.100211 1.189 46 67 30
0.263668 0.100211 1.189 46 67 30
0.265737 0.100295 1.19 46 66 32
0.267586 0.100295 1.19 48 68 34
0.26966 0.100379 1.191 45 65 31
0.271738 0.100463 1.192 45 65 31
0.273589 0.100463 1.192 46 66 32
0.275671 0.100548 1.193 47 67 33
0.277757 0.100632 1.194 47 67 33
0.279611 0.100632 1.194 46 66 32
0.281465 0.100632 1.194 46 66 32
0.28332 0.100632 1.194 48 68 34
0.285174 0.100632 1.194 50 70 36
0.287028 0.100632 1.194 50 70 36
0.288641 0.100548 1.193 48 68 34
0.29025 0.100463 1.192 50 70 36
0.292101 0.100463 1.192 47 67 33
0.293952 0.100463 1.192 47 67 33
0.295555 0.100379 1.191 47 67 33
0.297405 0.100379 1.191 48 68 34
0.299255 0.100379 1.191 47 67 33
0.300852 0.100295 1.19 48 68 34
0.3027 0.100295 1.19 48 68 34
0.304548 0.100295 1.19 48 68 34
0.306396 0.100295 1.19 51 71 37
0.308244 0.100295 1.19 52 72 38
0.310353 0.100379 1.191 52 72 38
0.312202 0.100379 1.191 51 71 37
0.314316 0.100463 1.192 52 72 38
0.316167 0.100463 1.192 53 73 39
0.318552 0.100632 1.194 53 73 39
0.320406 0.100632 1.194 54 74 40
0.32253 0.100716 1.195 55 76 39
0.324386 0.100716 1.195 54 75 38
0.326515 0.1008 1.196 62 83 46
0.328372 0.1008 1.196 65 86 49
0.330506 0.100885 1.197 69 91 52
0.332365 0.100885 1.197 80 102 63
0.334224 0.100885 1.197 80 102 63
0.336083 0.100885 1.197 76 98 59
0.33766 0.1008 1.196 75 97 58
0.339517 0.1008 1.196 74 96 57
0.341089 0.100716 1.195 73 95 56
0.342945 0.100716 1.195 72 94 55
0.344801 0.100716 1.195 72 94 55
0.346367 0.100632 1.194 72 94 55
0.347929 0.100548 1.193 70 92 53
0.349782 0.100548 1.193 72 94 55
0.351635 0.100548 1.193 73 94 57
0.353488 0.100548 1.193 73 94 57
0.35534 0.100548 1.193 77 94 61
0.356894 0.100463 1.192 81 98 65
0.358745 0.100463 1.192 65 83 56
0.360596 0.100463 1.192 59 77 50
0.361535 0.100211 1.189 64 73 64
0.362159 0.0998734 1.185 138 147 138
0.363078 0.0996205 1.182 71 78 74
0.36337 0.0991991 1.177 49 56 52
0.363647 0.0987777 1.172 50 59 58
0.363284 0.0981878 1.165 52 61 60
0.361333 0.0971764 1.153 81 90 88
0.361549 0.096755 1.148 203 212 210
0.362065 0.0964178 1.144 200 215 221
0.36257 0.0960807 1.14 180 195 201
0.363062 0.0957436 1.136 234 249 255
0.364184 0.095575 1.134 231 246 252
0.365622 0.0954908 1.133 122 131 140
0.367706 0.095575 1.134 98 107 116
-0.162658 0.0996558 1.161 10 19 10
-0.160993 0.0997417 1.162 10 19 10
-0.159188 0.0997417 1.162 10 19 10
-0.157384 0.0997417 1.162 10 19 10
-0.155579 0.0997417 1.162 9 21 11
-0.153642 0.0996558 1.161 9 21 11
-0.150924 0.099055 1.154 0 11 9
-0.140124 0.095364 1.111 89 125 129
-0.1379 0.0950207 1.107 90 135 154
-0.135935 0.094849 1.105 106 151 170
-0.134097 0.0947632 1.104 100 170 187
-0.132263 0.0946773 1.103 80 150 167
-0.130431 0.0945915 1.102 62 132 149
-0.128603 0.0945057 1.101 34 104 121
-0.126893 0.0945057 1.101 0 70 88
-0.12507 0.0944198 1.1 78 159 177
-0.123361 0.0944198 1.1 118 216 238
-0.121653 0.0944198 1.1 100 198 220
-0.119945 0.0944198 1.1 50 158 178
-0.118236 0.0944198 1.1 58 166 186
-0.116634 0.0945057 1.101 68 174 199
-0.114924 0.0945057 1.101 108 214 239
-0.113111 0.0944198 1.1 108 217 239
-0.111403 0.0944198 1.1 29 138 160
-0.109695 0.0944198 1.1 0 99 120
-0.107888 0.094334 1.099 44 145 166
-0.106181 0.094334 1.099 95 194 220
-0.104379 0.0942482 1.098 36 135 161
-0.102674 0.0942482 1.098 44 143 169
-0.101061 0.094334 1.099 50 149 175
-0.0993541 0.094334 1.099 7 115 140
-0.0976474 0.094334 1.099 18 126 151
-0.0959406 0.094334 1.099 22 143 172
-0.0943195 0.0944198 1.1 115 236 255
-0.0926112 0.0944198 1.1 114 238 255
-0.0908202 0.094334 1.099 104 228 252
-0.0891134 0.094334 1.099 71 188 213
-0.0874067 0.094334 1.099 25 142 167
-0.0856999 0.094334 1.099 0 114 132
-0.0840695 0.0944198 1.1 57 175 193
-0.0824361 0.0945057 1.101 119 220 246
-0.0807262 0.0945057 1.101 119 220 246
-0.0790163 0.0945057 1.101 120 221 242
-0.0773766 0.0945915 1.102 114 215 236
-0.0756652 0.0945915 1.102 115 209 229
-0.0740208 0.0946773 1.103 117 211 231
-0.0723078 0.0946773 1.103 127 221 241
-0.0705948 0.0946773 1.103 126 220 240
-0.0688194 0.0945915 1.102 121 215 235
-0.0671079 0.0945915 1.102 110 204 224
-0.0653371 0.0945057 1.101 78 175 199
-0.0636273 0.0945057 1.101 42 139 163
-0.0618049 0.094334 1.099 38 142 167
-0.0600981 0.094334 1.099 44 148 173
-0.0583382 0.0942482 1.098 36 150 178
-0.056633 0.0942482 1.098 66 180 208
-0.0548777 0.0941623 1.097 74 185 214
-0.053174 0.0941623 1.097 74 185 214
-0.0514703 0.0941623 1.097 116 215 246
-0.0497213 0.0940765 1.096 98 197 228
-0.0480192 0.0940765 1.096 114 185 220
-0.0463593 0.0941623 1.097 123 194 229
-0.0446556 0.0941623 1.097 157 199 239
-0.042952 0.0941623 1.097 151 193 233
-0.0412483 0.0941623 1.097 155 186 220
-0.0395806 0.0942482 1.098 142 173 207
-0.0378754 0.0942482 1.098 123 159 197
-0.0361702 0.0942482 1.098 116 152 190
-0.0344649 0.0942482 1.098 94 150 188
-0.0327896 0.094334 1.099 89 145 183
-0.0310828 0.094334 1.099 88 159 194
-0.029376 0.094334 1.099 141 212 247
-0.0276692 0.094334 1.099 149 228 255
-0.0259624 0.094334 1.099 147 226 255
-0.0242556 0.094334 1.099 149 228 253
-0.0225488 0.094334 1.099 129 208 233
-0.0208421 0.094334 1.099 121 196 219
-0.0191353 0.094334 1.099 129 204 227
-0.0174444 0.0944198 1.1 137 211 238
-0.0157217 0.094334 1.099 133 207 234
-0.0140149 0.094334 1.099 57 131 158
-0.0123081 0.094334 1.099 16 90 117
-0.0106014 0.094334 1.099 0 42 75
-0.00889457 0.094334 1.099 0 37 70
-0.00718779 0.094334 1.099 0 34 75
-0.005481 0.094334 1.099 0 55 96
-0.00377422 0.094334 1.099 24 88 117
-0.00206743 0.094334 1.099 138 202 231
-0.000360978 0.0944198 1.1 160 229 255
0.00134736 0.0944198 1.1 148 217 245
0.00305292 0.094334 1.099 158 209 243
0.00476403 0.0944198 1.1 126 177 211
0.00646649 0.094334 1.099 140 179 222
0.00816584 0.0942482 1.098 143 182 225
0.00987107 0.0942482 1.098 152 191 227
0.0115658 0.0941623 1.097 154 193 229
0.0132694 0.0941623 1.097 155 190 224
0.0149868 0.0942482 1.098 154 189 223
0.0166768 0.0941623 1.097 158 193 227
0.0183805 0.0941623 1.097 152 187 221
0.0201025 0.0942482 1.098 137 171 203
0.0218077 0.0942482 1.098 136 170 202
0.0235129 0.0942482 1.098 154 177 201
0.0252181 0.0942482 1.098 205 228 252
0.0269479 0.094334 1.099 241 253 255
0.0286547 0.094334 1.099 241 253 255
0.0303615 0.094334 1.099 247 255 254
0.0320974 0.0944198 1.1 247 255 254
0.0338058 0.0944198 1.1 249 255 254
0.0355141 0.0944198 1.1 249 255 254
0.0372224 0.0944198 1.1 249 255 254
0.0389662 0.0945057 1.101 249 255 254
0.0406391 0.0944198 1.1 251 255 254
0.0422705 0.0942482 1.098 251 255 254
0.0439757 0.0942482 1.098 251 255 254
0.0456809 0.0942482 1.098 251 255 254
0.047343 0.0941623 1.097 251 255 254
0.0490467 0.0941623 1.097 251 255 254
0.0507504 0.0941623 1.097 251 255 254
0.052454 0.0941623 1.097 251 255 254
0.0541577 0.0941623 1.097 251 251 251
0.0559123 0.0942482 1.098 211 211 211
0.05767 0.094334 1.099 225 225 225
0.0594308 0.0944198 1.1 254 254 254
0.0611392 0.0944198 1.1 254 254 254
0.0646145 0.0945057 1.101 251 244 239
0.0668666 0.0952782 1.11 89 82 77
0.0688376 0.0956215 1.114 49 40 27
0.0799743 0.100943 1.176 43 49 31
0.0831918 0.10266 1.196 44 50 32
0.0851204 0.102746 1.197 42 54 30
0.087052 0.102832 1.198 43 55 31
0.0889125 0.102832 1.198 41 56 30
0.0908488 0.102918 1.199 43 58 32
0.0926336 0.102832 1.198 46 65 33
0.094573 0.102918 1.199 44 63 31
0.0963547 0.102832 1.198 46 66 32
0.0982152 0.102832 1.198 45 65 31
0.100076 0.102832 1.198 43 63 29
0.101936 0.102832 1.198 43 63 29
0.103797 0.102832 1.198 43 63 29
0.105569 0.102746 1.197 45 65 31
0.107428 0.102746 1.197 44 64 30
0.109287 0.102746 1.197 45 65 31
0.111146 0.102746 1.197 45 65 31
0.113005 0.102746 1.197 46 66 32
0.114768 0.10266 1.196 45 65 31
0.116528 0.102574 1.195 46 66 32
0.118384 0.102574 1.195 47 67 33
0.12024 0.102574 1.195 45 65 31
0.121891 0.102403 1.193 45 65 31
0.12364 0.102317 1.192 45 65 31
0.125386 0.102231 1.191 45 64 32
0.127129 0.102145 1.19 45 64 32
0.128869 0.102059 1.189 47 63 32
0.130496 0.101888 1.187 47 63 32
0.132339 0.101888 1.187 47 63 32
0.134069 0.101802 1.186 47 63 32
0.135797 0.101716 1.185 47 63 32
0.137637 0.101716 1.185 49 65 34
0.139477 0.101716 1.185 48 67 35
0.141318 0.101716 1.185 48 67 35
0.143158 0.101716 1.185 48 67 35
0.144998 0.101716 1.185 48 67 35
0.146839 0.101716 1.185 47 66 34
0.148679 0.101716 1.185 47 66 34
0.150519 0.101716 1.185 46 65 33
0.152488 0.101802 1.186 46 65 33
0.15446 0.101888 1.187 46 65 33
0.156436 0.101973 1.188 46 65 33
0.158281 0.101973 1.188 47 67 33
0.160395 0.102145 1.19 47 67 33
0.162243 0.102145 1.19 47 67 33
0.164229 0.102231 1.191 46 66 32
0.166218 0.102317 1.192 44 64 30
0.16807 0.102317 1.192 44 64 30
0.169921 0.102317 1.192 43 63 29
0.171772 0.102317 1.192 44 64 30
0.173478 0.102231 1.191 44 64 30
0.175327 0.102231 1.191 46 66 32
0.177028 0.102145 1.19 46 66 32
0.178876 0.102145 1.19 45 65 31
0.180724 0.102145 1.19 45 65 31
0.182572 0.102145 1.19 44 64 30
0.184421 0.102145 1.19 46 66 32
0.186112 0.102059 1.189 47 67 33
0.187959 0.102059 1.189 47 68 31
0.189805 0.102059 1.189 46 67 30
0.191652 0.102059 1.189 47 68 31
0.193498 0.102059 1.189 47 68 31
0.195345 0.102059 1.189 46 67 30
0.197357 0.102145 1.19 47 68 31
0.199205 0.102145 1.19 46 67 30
0.201054 0.102145 1.19 47 68 31
0.203072 0.102231 1.191 48 69 32
0.204922 0.102231 1.191 48 69 32
0.206945 0.102317 1.192 48 68 34
0.208796 0.102317 1.192 50 70 36
0.210648 0.102317 1.192 50 70 36
0.212499 0.102317 1.192 52 72 38
0.21453 0.102403 1.193 51 71 37
0.216383 0.102403 1.193 52 72 38
0.218235 0.102403 1.193 52 72 38
0.220088 0.102403 1.193 51 71 37
0.221941 0.102403 1.193 51 71 37
0.223794 0.102403 1.193 52 72 38
0.225646 0.102403 1.193 53 73 39
0.227499 0.102403 1.193 53 73 39
0.229352 0.102403 1.193 53 73 39
0.231205 0.102403 1.193 53 73 39
0.233057 0.102403 1.193 53 73 39
0.23491 0.102403 1.193 51 71 37
0.236565 0.102317 1.192 50 70 36
0.238416 0.102317 1.192 48 68 34
0.240267 0.102317 1.192 48 69 32
0.242118 0.102317 1.192 48 69 32
0.243969 0.102317 1.192 48 69 32
0.245614 0.102231 1.191 50 71 34
0.247256 0.102145 1.19 50 71 34
0.249104 0.102145 1.19 50 71 34
0.250953 0.102145 1.19 51 72 35
0.252588 0.102059 1.189 51 72 35
0.254435 0.102059 1.189 51 72 35
0.256281 0.102059 1.189 50 71 34
0.258128 0.102059 1.189 50 71 34
0.259974 0.102059 1.189 45 66 29
0.262041 0.102145 1.19 46 67 30
0.263889 0.102145 1.19 46 67 30
0.265737 0.102145 1.19 46 66 32
0.267586 0.102145 1.19 47 67 33
0.26966 0.102231 1.191 45 65 31
0.271738 0.102317 1.192 45 65 31
0.273589 0.102317 1.192 46 66 32
0.27544 0.102317 1.192 47 67 33
0.277524 0.102403 1.193 48 68 34
0.279377 0.102403 1.193 46 66 32
0.281229 0.102403 1.193 46 66 32
0.283082 0.102403 1.193 48 68 34
0.284696 0.102317 1.192 47 67 33
0.286788 0.102403 1.193 48 68 34
0.288399 0.102317 1.192 48 68 34
0.29025 0.102317 1.192 48 68 34
0.291856 0.102231 1.191 48 68 34
0.293706 0.102231 1.191 47 67 33
0.295307 0.102145 1.19 47 67 33
0.297155 0.102145 1.19 50 70 36
0.299003 0.102145 1.19 47 67 33
0.300852 0.102145 1.19 48 68 34
0.302445 0.102059 1.189 52 72 38
0.304292 0.102059 1.189 51 71 37
0.306138 0.102059 1.189 52 72 38
0.308244 0.102145 1.19 52 72 38
0.310092 0.102145 1.19 53 73 39
0.312202 0.102231 1.191 53 73 39
0.314052 0.102231 1.191 53 73 39
0.316167 0.102317 1.192 53 73 39
0.318285 0.102403 1.193 53 74 37
0.320406 0.102488 1.194 54 75 38
0.32253 0.102574 1.195 55 76 39
0.324386 0.102574 1.195 52 73 36
0.326242 0.102574 1.195 59 80 43
0.328098 0.102574 1.195 65 86 49
0.33023 0.10266 1.196 69 91 52
0.332087 0.10266 1.196 81 103 64
0.333665 0.102574 1.195 82 104 65
0.335521 0.102574 1.195 75 97 58
0.337377 0.102574 1.195 75 97 58
0.338949 0.102488 1.194 74 96 57
0.340804 0.102488 1.194 72 94 55
0.342371 0.102403 1.193 72 94 55
0.343935 0.102317 1.192 72 94 55
0.345786 0.102317 1.192 72 94 55
0.347638 0.102317 1.192 72 94 55
0.349489 0.102317 1.192 73 95 56
0.35134 0.102317 1.192 73 95 56
0.353191 0.102317 1.192 74 96 57
0.355042 0.102317 1.192 76 93 60
0.356894 0.102317 1.192 76 93 60
0.358444 0.102231 1.191 66 84 55
0.360294 0.102231 1.191 61 79 50
0.361231 0.101973 1.188 71 80 71
0.362159 0.101716 1.185 141 150 141
0.362771 0.101373 1.181 62 72 67
0.36337 0.101029 1.177 48 58 53
0.363647 0.1006 1.172 52 60 62
0.363596 0.100085 1.166 52 60 62
0.361646 0.099055 1.154 81 90 88
0.361863 0.0986258 1.149 206 215 213
0.362065 0.0981966 1.144 205 218 224
0.36257 0.0978533 1.14 187 200 206
0.363701 0.0976816 1.138 238 251 255
0.364184 0.0973383 1.134 233 246 252
0.365622 0.0972524 1.133 121 130 139
0.367706 0.0973383 1.134 98 107 116
-0.162658 0.101461 1.161 10 19 10
-0.160993 0.101548 1.162 10 19 10
-0.159325 0.101636 1.163 10 19 10
-0.157384 0.101548 1.162 8 17 8
-0.155579 0.101548 1.162 9 21 11
-0.153642 0.101461 1.161 9 21 11
-0.150793 0.100762 1.153 0 13 10
-0.139998 0.0970041 1.11 85 136 143
-0.137775 0.0966546 1.106 81 139 158
-0.135689 0.0963924 1.103 87 145 164
-0.133976 0.0963924 1.103 99 170 191
-0.132143 0.096305 1.102 105 176 197
-0.130313 0.0962176 1.101 111 190 208
-0.128603 0.0962176 1.101 120 199 217
-0.126778 0.0961302 1.1 121 205 227
-0.12507 0.0961302 1.1 127 211 233
-0.123361 0.0961302 1.1 105 204 230
-0.121653 0.0961302 1.1 78 177 203
-0.119945 0.0961302 1.1 61 172 196
-0.118236 0.0961302 1.1 57 168 192
-0.116528 0.0961302 1.1 100 214 242
-0.11482 0.0961302 1.1 116 230 255
-0.113111 0.0961302 1.1 97 213 241
-0.111403 0.0961302 1.1 20 136 164
-0.109595 0.0960428 1.099 5 119 149
-0.107888 0.0960428 1.099 0 107 137
-0.106085 0.0959554 1.098 0 108 134
-0.104379 0.0959554 1.098 5 115 141
-0.102674 0.0959554 1.098 11 118 145
-0.100969 0.0959554 1.098 13 120 147
-0.0992637 0.0959554 1.098 26 136 162
-0.0975585 0.0959554 1.098 35 145 171
-0.0959406 0.0960428 1.099 28 143 168
-0.0942338 0.0960428 1.099 121 236 255
-0.092527 0.0960428 1.099 123 239 255
-0.0908202 0.0960428 1.099 115 231 254
-0.0891134 0.0960428 1.099 113 223 241
-0.0873271 0.0959554 1.098 96 206 224
-0.0856999 0.0960428 1.099 11 109 129
-0.0839931 0.0960428 1.099 52 150 170
-0.0823612 0.0961302 1.1 49 135 160
-0.0807262 0.0962176 1.101 45 131 156
-0.0790163 0.0962176 1.101 51 142 165
-0.0773766 0.096305 1.102 62 153 176
-0.0757338 0.0963924 1.103 90 172 194
-0.0740879 0.0964798 1.104 109 191 213
-0.0723734 0.0964798 1.104 154 232 252
-0.0705948 0.0963924 1.103 154 232 252
-0.0688818 0.0963924 1.103 150 234 251
-0.0671079 0.096305 1.102 153 237 254
-0.0653965 0.096305 1.102 138 227 250
-0.0636273 0.0962176 1.101 121 210 233
-0.0618611 0.0961302 1.1 72 173 199
-0.0601528 0.0961302 1.1 46 147 173
-0.0583913 0.0960428 1.099 72 178 208
-0.056633 0.0959554 1.098 121 227 255
-0.0549277 0.0959554 1.098 88 192 222
-0.053174 0.095868 1.097 58 162 192
-0.0514703 0.095868 1.097 126 218 252
-0.0497667 0.095868 1.097 82 174 208
-0.048063 0.095868 1.097 138 193 228
-0.0463593 0.095868 1.097 183 238 255
-0.0446556 0.095868 1.097 209 231 255
-0.042952 0.095868 1.097 210 232 255
-0.0412483 0.095868 1.097 222 237 255
-0.0395806 0.0959554 1.098 230 245 255
-0.0378754 0.0959554 1.098 223 244 255
-0.0361702 0.0959554 1.098 222 243 255
-0.0344649 0.0959554 1.098 185 230 255
-0.0327896 0.0960428 1.099 136 181 218
-0.0310828 0.0960428 1.099 103 169 205
-0.029376 0.0960428 1.099 156 222 255
-0.0276692 0.0960428 1.099 133 216 249
-0.0259624 0.0960428 1.099 128 211 244
-0.0242556 0.0960428 1.099 126 216 241
-0.0225488 0.0960428 1.099 62 152 177
-0.0208421 0.0960428 1.099 81 168 191
-0.0191353 0.0960428 1.099 71 158 181
-0.0174285 0.0960428 1.099 93 168 198
-0.0157217 0.0960428 1.099 111 186 216
-0.0140149 0.0960428 1.099 107 186 217
-0.0123081 0.0960428 1.099 78 157 188
-0.0106014 0.0960428 1.099 40 122 159
-0.00889457 0.0960428 1.099 8 90 127
-0.00718779 0.0960428 1.099 0 81 113
-0.005481 0.0960428 1.099 0 70 102
-0.00377422 0.0960428 1.099 79 168 196
-0.00206743 0.0960428 1.099 138 227 255
-0.00036065 0.0960428 1.099 157 231 255
0.00134736 0.0961302 1.1 153 227 254
0.00305292 0.0960428 1.099 106 170 204
0.00475537 0.0959554 1.098 9 73 107
0.0064606 0.0959554 1.098 33 80 119
0.00816584 0.0959554 1.098 43 90 129
0.00986208 0.095868 1.097 90 133 170
0.0115658 0.095868 1.097 117 160 197
0.0132694 0.095868 1.097 135 175 208
0.0149868 0.0959554 1.098 156 196 229
0.0166768 0.095868 1.097 154 192 225
0.0183972 0.0959554 1.098 139 177 210
0.0201025 0.0959554 1.098 139 170 204
0.0218077 0.0959554 1.098 129 160 194
0.0235129 0.0959554 1.098 163 182 210
0.0252181 0.0959554 1.098 228 247 255
0.0269479 0.0960428 1.099 239 253 255
0.0286547 0.0960428 1.099 239 253 255
0.0303338 0.0959554 1.098 245 255 254
0.0320683 0.0960428 1.099 245 255 254
0.033775 0.0960428 1.099 249 255 254
0.0354818 0.0960428 1.099 249 255 254
0.0371886 0.0960428 1.099 249 255 254
0.0389308 0.0961302 1.1 249 255 254
0.0405652 0.0959554 1.098 249 255 254
0.0422705 0.0959554 1.098 249 255 254
0.0439356 0.095868 1.097 251 255 254
0.0456393 0.095868 1.097 251 255 254
0.047343 0.095868 1.097 251 255 254
0.0490467 0.095868 1.097 251 255 254
0.0507504 0.095868 1.097 251 255 254
0.052454 0.095868 1.097 251 255 254
0.0541577 0.095868 1.097 246 244 244
0.0559123 0.0959554 1.098 206 204 204
0.05767 0.0960428 1.099 243 243 243
0.0594308 0.0961302 1.1 254 254 254
0.0629046 0.0962176 1.101 255 253 253
0.0646732 0.096305 1.102 229 224 219
0.0668666 0.0970041 1.11 58 53 48
0.0690848 0.0977032 1.118 51 33 21
0.0806543 0.103646 1.186 43 50 30
0.0831918 0.10452 1.196 45 52 32
0.0851204 0.104607 1.197 42 54 30
0.087052 0.104695 1.198 42 54 30
0.0889868 0.104782 1.199 42 57 29
0.0908488 0.104782 1.199 48 63 35
0.0927882 0.104869 1.2 45 64 32
0.094573 0.104782 1.199 44 63 31
0.0965155 0.104869 1.2 45 65 31
0.0983792 0.104869 1.2 45 65 31
0.100243 0.104869 1.2 45 65 31
0.102106 0.104869 1.2 45 65 31
0.10397 0.104869 1.2 44 64 30
0.105834 0.104869 1.2 44 64 30
0.107608 0.104782 1.199 45 65 31
0.109378 0.104695 1.198 46 66 32
0.111332 0.104782 1.199 44 64 30
0.113099 0.104695 1.198 47 67 33
0.114864 0.104607 1.197 47 67 33
0.116723 0.104607 1.197 47 67 33
0.118582 0.104607 1.197 47 67 33
0.12034 0.10452 1.196 47 67 33
0.122096 0.104432 1.195 47 66 34
0.123848 0.104345 1.194 48 67 35
0.125492 0.10417 1.192 47 66 34
0.127236 0.104083 1.191 45 64 32
0.128977 0.103995 1.19 45 64 32
0.130715 0.103908 1.189 44 63 31
0.132339 0.103733 1.187 44 63 31
0.134069 0.103646 1.186 44 63 31
0.135797 0.103558 1.185 46 65 33
0.137637 0.103558 1.185 46 65 33
0.139477 0.103558 1.185 47 66 34
0.141198 0.103471 1.184 48 67 35
0.143037 0.103471 1.184 48 67 35
0.144876 0.103471 1.184 47 66 34
0.146715 0.103471 1.184 47 66 34
0.148554 0.103471 1.184 47 66 34
0.150519 0.103558 1.185 46 65 33
0.152617 0.103733 1.187 45 64 32
0.15446 0.103733 1.187 46 65 33
0.156436 0.103821 1.188 48 67 35
0.158414 0.103908 1.189 48 68 34
0.160395 0.103995 1.19 48 68 34
0.16238 0.104083 1.191 46 66 32
0.164367 0.10417 1.192 46 66 32
0.166358 0.104258 1.193 45 65 31
0.168211 0.104258 1.193 45 65 31
0.170206 0.104345 1.194 45 65 31
0.171916 0.104258 1.193 46 66 32
0.173915 0.104345 1.194 46 66 32
0.175622 0.104258 1.193 47 67 33
0.177474 0.104258 1.193 47 67 33
0.179177 0.10417 1.192 47 67 33
0.181028 0.10417 1.192 45 65 31
0.182879 0.10417 1.192 44 64 30
0.184576 0.104083 1.191 47 67 33
0.186425 0.104083 1.191 47 67 33
0.188117 0.103995 1.19 46 67 30
0.189965 0.103995 1.19 46 67 30
0.191813 0.103995 1.19 46 67 30
0.193661 0.103995 1.19 46 67 30
0.195673 0.104083 1.191 47 68 31
0.197523 0.104083 1.191 47 68 31
0.19954 0.10417 1.192 46 67 30
0.201391 0.10417 1.192 46 67 30
0.203413 0.104258 1.193 47 68 31
0.205438 0.104345 1.194 50 71 34
0.207292 0.104345 1.194 50 70 36
0.209147 0.104345 1.194 50 70 36
0.211178 0.104432 1.195 50 70 36
0.213034 0.104432 1.195 50 70 36
0.214889 0.104432 1.195 51 70 38
0.216745 0.104432 1.195 51 70 38
0.218601 0.104432 1.195 51 70 38
0.220457 0.104432 1.195 52 71 39
0.222313 0.104432 1.195 53 72 40
0.224169 0.104432 1.195 54 73 41
0.226025 0.104432 1.195 54 74 40
0.227881 0.104432 1.195 54 74 40
0.229736 0.104432 1.195 54 74 40
0.231592 0.104432 1.195 53 73 39
0.233448 0.104432 1.195 52 72 38
0.235304 0.104432 1.195 51 71 37
0.23716 0.104432 1.195 51 71 37
0.239016 0.104432 1.195 50 70 36
0.240872 0.104432 1.195 48 69 32
0.242524 0.104345 1.194 50 71 34
0.244174 0.104258 1.193 48 69 32
0.245821 0.10417 1.192 50 71 34
0.247672 0.10417 1.192 48 69 32
0.249523 0.10417 1.192 48 69 32
0.251163 0.104083 1.191 50 71 34
0.252801 0.103995 1.19 50 71 34
0.254649 0.103995 1.19 50 71 34
0.256497 0.103995 1.19 50 71 34
0.258345 0.103995 1.19 47 68 31
0.260193 0.103995 1.19 45 66 29
0.262041 0.103995 1.19 46 66 32
0.263889 0.103995 1.19 45 65 31
0.265737 0.103995 1.19 47 67 33
0.26781 0.104083 1.191 48 68 34
0.26966 0.104083 1.191 46 66 32
0.271738 0.10417 1.192 46 66 32
0.273589 0.10417 1.192 47 67 33
0.27544 0.10417 1.192 48 68 34
0.277291 0.10417 1.192 48 68 34
0.279143 0.10417 1.192 46 66 32
0.280994 0.10417 1.192 47 67 33
0.283082 0.104258 1.193 51 71 37
0.284696 0.10417 1.192 50 70 36
0.286547 0.10417 1.192 50 70 36
0.288399 0.10417 1.192 50 70 36
0.290006 0.104083 1.191 50 70 36
0.291856 0.104083 1.191 48 68 34
0.293459 0.103995 1.19 48 68 34
0.295307 0.103995 1.19 48 68 34
0.296906 0.103908 1.189 50 70 36
0.298752 0.103908 1.189 48 68 34
0.300599 0.103908 1.189 48 68 34
0.302445 0.103908 1.189 51 71 37
0.304292 0.103908 1.189 51 71 37
0.306138 0.103908 1.189 51 71 37
0.307985 0.103908 1.189 52 72 38
0.310092 0.103995 1.19 53 73 39
0.31194 0.103995 1.19 54 74 40
0.314052 0.104083 1.191 54 74 40
0.316167 0.10417 1.192 54 74 40
0.318285 0.104258 1.193 54 74 40
0.320138 0.104258 1.193 53 73 39
0.32226 0.104345 1.194 56 74 38
0.324386 0.104432 1.195 55 73 37
0.326242 0.104432 1.195 60 82 43
0.328098 0.104432 1.195 61 83 44
0.329954 0.104432 1.195 70 92 53
0.33181 0.104432 1.195 82 104 65
0.333386 0.104345 1.194 80 102 61
0.33496 0.104258 1.193 72 94 53
0.33653 0.10417 1.192 74 96 55
0.338381 0.10417 1.192 73 95 54
0.339947 0.104083 1.191 73 95 54
0.341797 0.104083 1.191 74 96 55
0.343647 0.104083 1.191 73 95 54
0.345206 0.103995 1.19 72 94 53
0.347054 0.103995 1.19 73 95 56
0.348902 0.103995 1.19 73 95 56
0.35075 0.103995 1.19 75 93 57
0.352599 0.103995 1.19 77 95 59
0.354447 0.103995 1.19 77 94 61
0.356594 0.104083 1.191 76 93 60
0.358444 0.104083 1.191 69 84 58
0.359991 0.103995 1.19 66 81 55
0.361231 0.103821 1.188 73 85 75
0.362159 0.103558 1.185 142 154 144
0.362771 0.103209 1.181 59 68 66
0.363679 0.102947 1.178 50 59 57
0.363957 0.10251 1.173 57 65 67
0.363596 0.101898 1.166 53 61 63
0.361646 0.100849 1.154 82 88 87
0.361863 0.100412 1.149 210 216 215
0.362065 0.0999754 1.144 204 217 223
0.36257 0.0996258 1.14 189 202 208
0.363382 0.0993637 1.137 242 250 255
0.364505 0.0991889 1.135 237 245 252
0.365945 0.0991015 1.134 122 129 138
0.367382 0.0990141 1.133 100 107 116
-0.162798 0.103355 1.162 8 18 6
-0.160993 0.103355 1.162 8 18 6
-0.159188 0.103355 1.162 8 18 6
-0.157384 0.103355 1.162 11 21 9
-0.155445 0.103266 1.161 10 22 12
-0.15351 0.103177 1.16 10 22 12
-0.150531 0.102377 1.151 0 14 12
-0.146547 0.100865 1.134 0 12 10
-0.139871 0.0986411 1.109 65 101 112
-0.137775 0.0983742 1.106 91 147 161
-0.135689 0.0981074 1.103 112 168 182
-0.133854 0.0980185 1.102 110 185 196
-0.132023 0.0979295 1.101 114 189 200
-0.130195 0.0978406 1.1 123 197 211
-0.128486 0.0978406 1.1 124 198 212
-0.126778 0.0978406 1.1 112 200 218
-0.12507 0.0978406 1.1 110 198 216
-0.123361 0.0978406 1.1 92 195 216
-0.121653 0.0978406 1.1 97 200 221
-0.119945 0.0978406 1.1 116 227 251
-0.118236 0.0978406 1.1 120 231 255
-0.116528 0.0978406 1.1 121 232 255
-0.114924 0.0979295 1.101 116 227 251
-0.113111 0.0978406 1.1 92 200 225
-0.111403 0.0978406 1.1 62 170 195
-0.109595 0.0977516 1.099 64 177 201
-0.107888 0.0977516 1.099 15 128 152
-0.106085 0.0976627 1.098 25 127 150
-0.104379 0.0976627 1.098 75 177 200
-0.102674 0.0976627 1.098 89 202 226
-0.100969 0.0976627 1.098 96 209 233
-0.0992637 0.0976627 1.098 97 213 236
-0.0975585 0.0976627 1.098 44 160 183
-0.0959406 0.0977516 1.099 30 142 168
-0.094148 0.0976627 1.098 126 238 255
-0.092527 0.0977516 1.099 116 240 255
-0.0907376 0.0976627 1.098 76 200 224
-0.0890324 0.0976627 1.098 22 136 157
-0.0873271 0.0976627 1.098 78 192 213
-0.0856219 0.0976627 1.098 18 111 135
-0.0840695 0.0978406 1.1 66 159 183
-0.0823612 0.0978406 1.1 51 133 155
-0.0807262 0.0979295 1.101 113 195 217
-0.0790163 0.0979295 1.101 165 248 255
-0.0773766 0.0980185 1.102 161 244 255
-0.0758025 0.0981964 1.104 179 247 255
-0.0689443 0.0981964 1.104 143 210 230
-0.0671688 0.0981074 1.103 153 220 240
-0.0654558 0.0981074 1.103 149 224 247
-0.0636273 0.0979295 1.101 157 232 255
-0.0618611 0.0978406 1.1 151 235 255
-0.0601528 0.0978406 1.1 154 238 255
-0.0584445 0.0978406 1.1 141 234 255
-0.0566845 0.0977516 1.099 135 228 255
-0.0549277 0.0976627 1.098 126 217 246
-0.0532225 0.0976627 1.098 127 218 247
-0.0515173 0.0976627 1.098 147 220 255
-0.0497667 0.0975737 1.097 94 167 204
-0.048063 0.0975737 1.097 145 184 225
-0.0463593 0.0975737 1.097 188 227 255
-0.0446963 0.0976627 1.098 222 233 255
-0.0429911 0.0976627 1.098 219 230 255
-0.0412859 0.0976627 1.098 226 234 255
-0.0395806 0.0976627 1.098 228 236 255
-0.0378754 0.0976627 1.098 220 235 255
-0.0361702 0.0976627 1.098 212 227 255
-0.0344649 0.0976627 1.098 176 218 255
-0.0327896 0.0977516 1.099 144 186 228
-0.0310828 0.0977516 1.099 111 178 218
-0.0294027 0.0978406 1.1 145 212 252
-0.0276944 0.0978406 1.1 133 214 245
-0.025986 0.0978406 1.1 143 224 255
-0.0242777 0.0978406 1.1 114 201 224
-0.0225694 0.0978406 1.1 34 121 144
-0.020861 0.0978406 1.1 80 157 182
-0.0191527 0.0978406 1.1 69 146 171
-0.0174444 0.0978406 1.1 71 142 170
-0.0157217 0.0977516 1.099 90 161 189
-0.0140149 0.0977516 1.099 84 160 192
-0.0122969 0.0976627 1.098 127 203 235
-0.0105917 0.0976627 1.098 136 226 255
-0.00888648 0.0976627 1.098 128 218 252
-0.00718779 0.0977516 1.099 117 203 233
-0.005481 0.0977516 1.099 34 120 150
-0.00377078 0.0976627 1.098 126 215 243
-0.00206555 0.0976627 1.098 133 222 250
-0.00036065 0.0977516 1.099 142 232 255
0.00134491 0.0976627 1.098 122 212 237
0.00305014 0.0976627 1.098 29 104 134
0.00475537 0.0976627 1.098 0 72 102
0.00645472 0.0975737 1.097 0 32 72
0.0081584 0.0975737 1.097 0 33 73
0.00986208 0.0975737 1.097 0 40 75
0.0115658 0.0975737 1.097 29 86 121
0.0132694 0.0975737 1.097 68 127 157
0.0149868 0.0976627 1.098 154 213 243
0.016692 0.0976627 1.098 164 206 239
0.0183805 0.0975737 1.097 160 202 235
0.0201025 0.0976627 1.098 164 192 227
0.0218077 0.0976627 1.098 105 133 168
0.0235129 0.0976627 1.098 171 189 214
0.0252411 0.0977516 1.099 230 248 255
