ply
format ascii 1.0
comment Created by Open3D
element vertex 1404
property double x
property double y
property double z
property uchar red
property uchar green
property uchar blue
end_header
0.191813 -0.341929 1.19 17 36 11
0.193661 -0.341929 1.19 17 36 11
0.195345 -0.341641 1.189 17 36 11
0.197191 -0.341641 1.189 18 37 12
0.198871 -0.341354 1.188 18 37 12
0.200716 -0.341354 1.188 20 39 14
0.20239 -0.341067 1.187 22 41 16
0.204234 -0.341067 1.187 18 37 12
0.205903 -0.340779 1.186 20 39 14
0.20757 -0.340492 1.185 20 39 14
0.209411 -0.340492 1.185 18 37 12
0.211073 -0.340205 1.184 18 37 12
0.212732 -0.339917 1.183 18 37 12
0.214569 -0.339917 1.183 20 39 14
0.216223 -0.33963 1.182 21 40 15
0.218059 -0.33963 1.182 20 39 14
0.219894 -0.33963 1.182 22 41 16
0.221918 -0.339917 1.183 22 41 16
0.223755 -0.339917 1.183 20 39 14
0.225783 -0.340205 1.184 20 39 14
0.227814 -0.340492 1.185 20 39 14
0.229654 -0.340492 1.185 18 37 12
0.231495 -0.340492 1.185 18 37 12
0.233532 -0.340779 1.186 17 36 11
0.235572 -0.341067 1.187 17 36 11
0.237416 -0.341067 1.187 15 34 9
0.239461 -0.341354 1.188 14 32 10
0.24356 -0.341929 1.19 15 32 12
0.245408 -0.341929 1.19 13 30 10
0.247464 -0.342216 1.191 10 27 7
0.249523 -0.342503 1.192 14 31 11
0.251374 -0.342503 1.192 10 27 7
0.253013 -0.342216 1.191 10 27 7
0.254649 -0.341929 1.19 10 27 7
0.256066 -0.341354 1.188 9 26 6
0.257694 -0.341067 1.187 9 26 6
0.259318 -0.340779 1.186 10 27 7
0.26072 -0.340205 1.184 10 26 9
0.262115 -0.33963 1.182 10 26 9
0.263951 -0.33963 1.182 12 26 9
0.265787 -0.33963 1.182 12 26 9
0.267622 -0.33963 1.182 13 27 10
0.269458 -0.33963 1.182 12 26 9
0.271523 -0.339917 1.183 11 25 8
0.273592 -0.340205 1.184 11 25 8
0.275663 -0.340492 1.185 10 23 10
0.277503 -0.340492 1.185 11 24 11
0.279344 -0.340492 1.185 11 24 11
0.281659 -0.341067 1.187 11 24 11
0.283502 -0.341067 1.187 13 27 12
0.285826 -0.341641 1.189 12 26 11
0.287673 -0.341641 1.189 11 25 10
0.289763 -0.341929 1.19 11 25 10
0.291856 -0.342216 1.191 12 26 11
0.293706 -0.342216 1.191 11 25 10
0.295803 -0.342503 1.192 11 24 11
0.297655 -0.342503 1.192 11 24 11
0.299255 -0.342216 1.191 10 24 9
0.300852 -0.341929 1.19 12 26 11
0.3027 -0.341929 1.19 13 27 12
0.304292 -0.341641 1.189 13 27 12
0.306138 -0.341641 1.189 12 26 9
0.307726 -0.341354 1.188 12 26 9
0.309571 -0.341354 1.188 12 26 9
0.311154 -0.341067 1.187 11 25 8
0.312997 -0.341067 1.187 11 25 8
0.315106 -0.341354 1.188 11 25 8
0.316684 -0.341067 1.187 12 26 9
0.318796 -0.341354 1.188 12 26 9
0.320371 -0.341067 1.187 12 26 9
0.322486 -0.341354 1.188 13 27 10
0.324331 -0.341354 1.188 15 29 12
0.32645 -0.341641 1.189 15 29 12
0.328573 -0.341929 1.19 15 30 10
0.330421 -0.341929 1.19 16 31 11
0.332269 -0.341929 1.19 16 31 11
0.334117 -0.341929 1.19 17 32 12
0.335966 -0.341929 1.19 18 33 13
0.337814 -0.341929 1.19 18 33 13
0.339662 -0.341929 1.19 18 33 13
0.34151 -0.341929 1.19 17 32 12
0.343358 -0.341929 1.19 18 33 13
0.345206 -0.341929 1.19 19 34 14
0.347054 -0.341929 1.19 19 34 14
0.348902 -0.341929 1.19 17 32 12
0.350456 -0.341641 1.189 17 30 17
0.352302 -0.341641 1.189 15 28 15
0.353851 -0.341354 1.188 15 28 15
0.355397 -0.341067 1.187 17 30 17
0.35724 -0.341067 1.187 15 27 17
0.359084 -0.341067 1.187 15 27 17
0.360623 -0.340779 1.186 15 26 18
0.362465 -0.340779 1.186 16 27 19
0.364 -0.340492 1.185 10 20 15
0.36584 -0.340492 1.185 12 22 17
0.36768 -0.340492 1.185 46 53 49
0.369521 -0.340492 1.185 41 48 44
0.371361 -0.340492 1.185 34 43 41
0.373201 -0.340492 1.185 34 43 41
0.375042 -0.340492 1.185 34 42 44
0.376882 -0.340492 1.185 33 41 43
0.378722 -0.340492 1.185 33 40 44
0.380563 -0.340492 1.185 33 40 44
0.382726 -0.340779 1.186 31 39 46
0.384568 -0.340779 1.186 31 39 46
-0.16574 -0.338078 1.183 5 15 10
-0.164041 -0.338364 1.184 2 12 7
-0.162339 -0.338649 1.185 3 13 8
-0.160634 -0.338935 1.186 3 13 8
-0.158926 -0.339221 1.187 4 14 9
-0.157215 -0.339507 1.188 4 14 9
-0.155501 -0.339792 1.189 4 15 7
-0.153654 -0.339792 1.189 5 16 8
-0.151936 -0.340078 1.19 5 17 7
-0.150087 -0.340078 1.19 6 18 8
-0.148364 -0.340364 1.191 6 19 6
-0.146514 -0.340364 1.191 8 21 8
-0.144786 -0.34065 1.192 10 23 10
-0.142935 -0.34065 1.192 10 23 10
-0.141084 -0.34065 1.192 11 24 11
-0.139116 -0.340364 1.191 11 24 11
-0.137266 -0.340364 1.191 12 25 12
-0.135303 -0.340078 1.19 12 25 12
-0.133454 -0.340078 1.19 12 25 12
-0.131606 -0.340078 1.19 11 24 11
-0.129649 -0.339792 1.189 11 24 11
-0.127588 -0.339221 1.187 12 25 12
-0.125744 -0.339221 1.187 12 25 12
-0.123901 -0.339221 1.187 12 25 12
-0.121954 -0.338935 1.186 12 25 12
-0.120113 -0.338935 1.186 12 25 12
-0.118271 -0.338935 1.186 11 24 11
-0.116429 -0.338935 1.186 10 23 10
-0.114587 -0.338935 1.186 10 24 9
-0.112745 -0.338935 1.186 10 24 9
-0.110997 -0.339221 1.187 10 24 9
-0.109153 -0.339221 1.187 8 22 7
-0.10731 -0.339221 1.187 9 23 8
-0.105466 -0.339221 1.187 10 24 9
-0.103797 -0.339792 1.189 9 23 8
-0.101951 -0.339792 1.189 9 23 8
-0.100104 -0.339792 1.189 10 24 9
-0.0982577 -0.339792 1.189 9 23 8
-0.0964112 -0.339792 1.189 9 23 8
-0.0945646 -0.339792 1.189 8 22 7
-0.0926401 -0.339507 1.188 8 22 7
-0.0907951 -0.339507 1.188 8 22 7
-0.0888752 -0.339221 1.187 9 23 8
-0.0870317 -0.339221 1.187 9 23 8
-0.0851883 -0.339221 1.187 9 23 8
-0.0833448 -0.339221 1.187 8 22 7
-0.0815014 -0.339221 1.187 8 22 7
-0.0796579 -0.339221 1.187 9 23 8
-0.0778145 -0.339221 1.187 9 22 9
-0.075971 -0.339221 1.187 9 22 9
-0.0741276 -0.339221 1.187 9 22 9
-0.0722841 -0.339221 1.187 8 21 8
-0.0705 -0.339507 1.188 8 21 8
-0.068655 -0.339507 1.188 5 18 5
-0.06681 -0.339507 1.188 8 21 8
-0.064965 -0.339507 1.188 6 19 6
-0.06312 -0.339507 1.188 8 21 8
-0.061275 -0.339507 1.188 8 21 8
-0.05938 -0.339221 1.187 8 20 10
-0.0575365 -0.339221 1.187 8 20 10
-0.0556931 -0.339221 1.187 6 18 8
-0.0538043 -0.338935 1.186 6 18 8
-0.0519624 -0.338935 1.186 6 18 8
-0.0501627 -0.339221 1.187 6 18 8
-0.0377422 -0.299212 1.047 41 45 71
-0.0361162 -0.299212 1.047 77 91 120
-0.0345231 -0.299497 1.048 140 154 183
-0.0328955 -0.299497 1.048 129 151 183
-0.0312679 -0.299497 1.048 99 121 153
-0.0296403 -0.299497 1.048 94 118 152
-0.0280395 -0.299783 1.049 94 118 152
-0.0264104 -0.299783 1.049 100 124 158
-0.0247812 -0.299783 1.049 107 131 165
-0.0231521 -0.299783 1.049 97 121 153
-0.021523 -0.299783 1.049 101 125 157
-0.0198938 -0.299783 1.049 127 151 185
-0.0182647 -0.299783 1.049 87 111 145
-0.0166356 -0.299783 1.049 25 42 75
-0.0150064 -0.299783 1.049 34 51 84
-0.0133646 -0.299497 1.048 48 65 98
-0.0117482 -0.299783 1.049 36 53 86
-0.010119 -0.299783 1.049 37 54 87
-0.00848991 -0.299783 1.049 37 54 87
-0.00686077 -0.299783 1.049 39 57 87
-0.00523164 -0.299783 1.049 37 55 85
-0.00360251 -0.299783 1.049 41 57 87
-0.00197337 -0.299783 1.049 39 55 85
-0.000344242 -0.299783 1.049 42 58 88
0.00128489 -0.299783 1.049 44 60 90
0.00291125 -0.299497 1.048 42 59 87
0.00453883 -0.299497 1.048 42 59 87
0.00616052 -0.299212 1.047 43 60 88
0.00778655 -0.299212 1.047 44 61 89
0.00940358 -0.298926 1.046 44 61 89
0.011007 -0.298354 1.044 44 61 89
0.0126283 -0.298354 1.044 45 62 90
0.0142224 -0.297783 1.042 45 62 90
0.0158407 -0.297783 1.042 45 62 90
0.0174422 -0.297497 1.041 44 61 89
0.019004 -0.29664 1.038 45 62 90
0.0205763 -0.296068 1.036 50 67 95
0.0221638 -0.295782 1.035 46 64 89
0.0237482 -0.295497 1.034 48 66 91
0.0253296 -0.295211 1.033 49 67 92
0.0268817 -0.294639 1.031 50 68 93
0.0284276 -0.294068 1.029 51 67 91
0.0300257 -0.294068 1.029 52 68 92
0.031593 -0.293782 1.028 54 70 94
0.0331895 -0.293782 1.028 55 71 95
0.0347861 -0.293782 1.028 57 71 95
0.0363472 -0.293496 1.027 56 70 94
0.0379791 -0.293782 1.028 56 71 92
0.0396141 -0.294068 1.029 54 69 90
0.0412522 -0.294353 1.03 54 69 88
0.0428935 -0.294639 1.031 53 68 87
0.0445378 -0.294925 1.032 54 68 85
0.04623 -0.295497 1.034 54 68 85
0.0528061 -0.296354 1.037 44 58 68
0.0544166 -0.296354 1.037 42 55 61
0.0560271 -0.296354 1.037 34 47 53
0.0576376 -0.296354 1.037 27 42 43
0.0592481 -0.296354 1.037 17 32 33
0.0608586 -0.296354 1.037 10 26 23
0.0624691 -0.296354 1.037 9 25 22
0.0640795 -0.296354 1.037 10 26 23
0.0656267 -0.296068 1.036 7 23 20
0.0672356 -0.296068 1.036 9 25 15
0.0688446 -0.296068 1.036 7 23 13
0.0705215 -0.296354 1.037 8 26 11
0.072132 -0.296354 1.037 9 27 12
0.0737425 -0.296354 1.037 11 29 12
0.075353 -0.296354 1.037 9 27 10
0.102497 -0.338078 1.183 17 33 11
0.104246 -0.337792 1.182 17 33 11
0.106082 -0.337792 1.182 14 33 8
0.107826 -0.337506 1.181 16 35 10
0.109753 -0.337792 1.182 14 33 8
0.111495 -0.337506 1.181 15 34 9
0.113233 -0.33722 1.18 13 32 7
0.115065 -0.33722 1.18 13 32 7
0.116898 -0.33722 1.18 14 33 8
0.11863 -0.336935 1.179 14 33 8
0.120461 -0.336935 1.179 15 34 9
0.122396 -0.33722 1.18 16 35 10
0.124228 -0.33722 1.18 16 35 10
0.126061 -0.33722 1.18 15 34 9
0.127893 -0.33722 1.18 15 34 9
0.129836 -0.337506 1.181 15 34 9
0.13167 -0.337506 1.181 14 33 8
0.133504 -0.337506 1.181 13 32 7
0.135453 -0.337792 1.182 15 34 9
0.137289 -0.337792 1.182 16 35 10
0.139124 -0.337792 1.182 16 35 10
0.14096 -0.337792 1.182 16 35 10
0.142796 -0.337792 1.182 15 34 9
0.144631 -0.337792 1.182 14 33 8
0.146467 -0.337792 1.182 16 35 10
0.148303 -0.337792 1.182 16 35 10
0.150138 -0.337792 1.182 17 36 11
0.151974 -0.337792 1.182 17 36 11
0.15381 -0.337792 1.182 17 36 11
0.155382 -0.33722 1.18 17 36 11
0.157348 -0.337506 1.181 18 37 12
0.159182 -0.337506 1.181 17 36 11
0.162988 -0.337792 1.182 18 37 12
0.164824 -0.337792 1.182 16 35 10
0.16666 -0.337792 1.182 16 35 10
0.168638 -0.338078 1.183 17 36 11
0.170763 -0.338649 1.185 17 36 11
0.172604 -0.338649 1.185 17 36 11
0.174591 -0.338935 1.186 20 39 14
0.176582 -0.339221 1.187 20 39 14
0.178425 -0.339221 1.187 20 39 14
0.180421 -0.339507 1.188 21 40 15
0.182419 -0.339792 1.189 20 39 14
0.184421 -0.340078 1.19 20 39 14
0.186269 -0.340078 1.19 20 39 14
0.188117 -0.340078 1.19 18 37 12
0.189965 -0.340078 1.19 17 36 11
0.191813 -0.340078 1.19 17 36 11
0.193661 -0.340078 1.19 17 36 11
0.195509 -0.340078 1.19 17 36 11
0.197357 -0.340078 1.19 21 40 15
0.199038 -0.339792 1.189 21 40 15
0.200716 -0.339507 1.188 21 40 15
0.202561 -0.339507 1.188 21 40 15
0.204406 -0.339507 1.188 20 39 14
0.206077 -0.339221 1.187 20 39 14
0.207745 -0.338935 1.186 20 39 14
0.209411 -0.338649 1.185 18 37 12
0.211251 -0.338649 1.185 17 36 11
0.212911 -0.338364 1.184 18 37 12
0.214569 -0.338078 1.183 18 37 12
0.216406 -0.338078 1.183 21 40 15
0.218059 -0.337792 1.182 21 40 15
0.219894 -0.337792 1.182 22 41 16
0.221918 -0.338078 1.183 23 42 17
0.223755 -0.338078 1.183 22 41 16
0.225783 -0.338364 1.184 21 40 15
0.227814 -0.338649 1.185 20 39 14
0.229654 -0.338649 1.185 17 36 11
0.231495 -0.338649 1.185 17 36 11
0.233729 -0.339221 1.187 17 36 11
0.235572 -0.339221 1.187 17 36 11
0.237416 -0.339221 1.187 16 35 10
0.239662 -0.339792 1.189 15 33 11
0.24356 -0.340078 1.19 14 31 11
0.245408 -0.340078 1.19 13 30 10
0.247464 -0.340364 1.191 11 28 8
0.249523 -0.34065 1.192 14 31 11
0.251374 -0.34065 1.192 11 28 8
0.253226 -0.34065 1.192 10 27 7
0.254649 -0.340078 1.19 10 27 7
0.256066 -0.339507 1.188 10 27 7
0.257694 -0.339221 1.187 9 25 8
0.2591 -0.338649 1.185 9 25 8
0.2605 -0.338078 1.183 11 25 8
0.262115 -0.337792 1.182 11 25 8
0.263951 -0.337792 1.182 12 26 9
0.265562 -0.337506 1.181 11 25 8
0.267396 -0.337506 1.181 12 26 9
0.269458 -0.337792 1.182 11 25 8
0.271294 -0.337792 1.182 12 26 9
0.273129 -0.337792 1.182 13 27 10
0.275198 -0.338078 1.183 12 26 11
0.277269 -0.338364 1.184 13 27 12
0.279344 -0.338649 1.185 12 25 12
0.281184 -0.338649 1.185 12 25 12
0.283263 -0.338935 1.186 12 26 11
0.285345 -0.339221 1.187 12 26 11
0.287431 -0.339507 1.188 11 25 10
0.289276 -0.339507 1.188 12 26 11
0.291611 -0.340078 1.19 12 26 11
0.293459 -0.340078 1.19 11 25 10
0.295307 -0.340078 1.19 10 23 10
0.297155 -0.340078 1.19 10 23 10
0.299003 -0.340078 1.19 11 24 11
0.300852 -0.340078 1.19 13 26 13
0.302445 -0.339792 1.189 12 26 11
0.304036 -0.339507 1.188 12 26 11
0.305623 -0.339221 1.187 12 26 11
0.307467 -0.339221 1.187 12 26 11
0.30931 -0.339221 1.187 13 27 10
0.311154 -0.339221 1.187 11 25 8
0.312997 -0.339221 1.187 11 25 8
0.314841 -0.339221 1.187 11 25 8
0.316684 -0.339221 1.187 12 26 9
0.318528 -0.339221 1.187 12 26 9
0.320371 -0.339221 1.187 12 26 9
0.322214 -0.339221 1.187 15 29 12
0.324331 -0.339507 1.188 16 30 13
0.32645 -0.339792 1.189 16 30 13
0.328573 -0.340078 1.19 16 30 13
0.330421 -0.340078 1.19 18 32 15
0.332269 -0.340078 1.19 17 32 12
0.334117 -0.340078 1.19 18 33 13
0.336248 -0.340364 1.191 18 33 13
0.338098 -0.340364 1.191 18 33 13
0.339947 -0.340364 1.191 18 33 13
0.341797 -0.340364 1.191 17 32 12
0.343647 -0.340364 1.191 18 33 13
0.345496 -0.340364 1.191 17 32 12
0.347346 -0.340364 1.191 18 33 13
0.348902 -0.340078 1.19 18 33 13
0.35075 -0.340078 1.19 17 30 17
0.352599 -0.340078 1.19 15 28 15
0.354149 -0.339792 1.189 16 29 16
0.355696 -0.339507 1.188 17 30 17
0.35724 -0.339221 1.187 17 29 19
0.359084 -0.339221 1.187 17 29 19
0.360927 -0.339221 1.187 17 28 20
0.362465 -0.338935 1.186 17 28 20
0.364 -0.338649 1.185 10 20 15
0.36584 -0.338649 1.185 16 26 21
0.36768 -0.338649 1.185 45 55 50
0.369521 -0.338649 1.185 37 47 42
0.371361 -0.338649 1.185 36 45 43
0.373201 -0.338649 1.185 33 42 40
0.375042 -0.338649 1.185 34 42 44
0.376564 -0.338364 1.184 33 41 43
0.378722 -0.338649 1.185 31 40 44
0.380563 -0.338649 1.185 30 39 43
0.382403 -0.338649 1.185 30 38 45
0.384243 -0.338649 1.185 31 39 46
-0.1656 -0.335954 1.182 3 13 8
-0.163903 -0.336238 1.183 3 13 8
-0.162339 -0.336807 1.185 3 13 8
-0.160634 -0.337091 1.186 3 13 8
-0.158926 -0.337375 1.187 3 14 6
-0.157215 -0.33766 1.188 4 15 7
-0.155501 -0.337944 1.189 3 14 6
-0.153784 -0.338228 1.19 4 15 7
-0.151936 -0.338228 1.19 5 16 8
-0.150214 -0.338512 1.191 6 17 9
-0.148488 -0.338796 1.192 6 18 8
-0.146637 -0.338796 1.192 8 20 10
-0.144786 -0.338796 1.192 10 23 10
-0.142935 -0.338796 1.192 11 24 11
-0.141084 -0.338796 1.192 11 24 11
-0.139232 -0.338796 1.192 11 24 11
-0.137381 -0.338796 1.192 12 26 11
-0.135416 -0.338512 1.191 12 26 11
-0.133567 -0.338512 1.191 13 27 12
-0.131606 -0.338228 1.19 12 26 11
-0.129758 -0.338228 1.19 12 26 11
-0.127803 -0.337944 1.189 12 26 11
-0.12585 -0.33766 1.188 11 25 10
-0.123901 -0.337375 1.187 12 26 11
-0.122057 -0.337375 1.187 12 26 11
-0.120214 -0.337375 1.187 12 26 11
-0.11837 -0.337375 1.187 11 24 11
-0.116527 -0.337375 1.187 10 23 10
-0.11478 -0.33766 1.188 10 24 9
-0.11303 -0.337944 1.189 10 24 9
-0.111184 -0.337944 1.189 10 24 9
-0.109337 -0.337944 1.189 9 23 8
-0.107581 -0.338228 1.19 9 23 8
-0.105733 -0.338228 1.19 9 23 8
-0.103885 -0.338228 1.19 9 23 8
-0.102037 -0.338228 1.19 9 23 8
-0.100188 -0.338228 1.19 9 23 8
-0.0983404 -0.338228 1.19 9 23 8
-0.0964923 -0.338228 1.19 8 22 7
-0.0946442 -0.338228 1.19 8 22 7
-0.0927181 -0.337944 1.189 8 22 7
-0.0907951 -0.33766 1.188 9 23 8
-0.0888752 -0.337375 1.187 9 23 8
-0.0870317 -0.337375 1.187 9 23 8
-0.0851165 -0.337091 1.186 9 23 8
-0.0832746 -0.337091 1.186 8 22 7
-0.0814327 -0.337091 1.186 8 22 7
-0.0795908 -0.337091 1.186 8 22 7
-0.0776834 -0.336807 1.185 9 22 9
-0.075907 -0.337091 1.186 9 22 9
-0.0740651 -0.337091 1.186 9 22 9
-0.0722841 -0.337375 1.187 8 21 8
-0.0704407 -0.337375 1.187 8 21 8
-0.0685972 -0.337375 1.187 6 19 6
-0.0667538 -0.337375 1.187 8 21 8
-0.0649103 -0.337375 1.187 8 21 8
-0.0630669 -0.337375 1.187 6 18 8
-0.0612234 -0.337375 1.187 6 18 8
-0.0593299 -0.337091 1.186 8 21 8
-0.0575365 -0.337375 1.187 8 21 8
-0.0556462 -0.337091 1.186 6 19 6
-0.0537589 -0.336807 1.185 6 19 6
-0.0519185 -0.336807 1.185 6 19 6
-0.0377782 -0.297868 1.048 44 49 72
-0.0361507 -0.297868 1.048 104 118 147
-0.0345231 -0.297868 1.048 134 148 177
-0.0328641 -0.297584 1.047 117 137 169
-0.0312679 -0.297868 1.048 101 121 153
-0.0296403 -0.297868 1.048 94 118 150
-0.0280395 -0.298152 1.049 101 125 157
-0.0264104 -0.298152 1.049 119 143 177
-0.0247812 -0.298152 1.049 108 132 166
-0.0231521 -0.298152 1.049 98 122 154
-0.021523 -0.298152 1.049 115 139 171
-0.0198938 -0.298152 1.049 128 152 186
-0.0182647 -0.298152 1.049 53 77 111
-0.0166356 -0.298152 1.049 21 38 71
-0.0149921 -0.297868 1.048 37 54 87
-0.0133646 -0.297868 1.048 50 67 100
-0.011737 -0.297868 1.048 32 49 82
-0.0101094 -0.297868 1.048 37 54 87
-0.00848181 -0.297868 1.048 37 54 87
-0.00686077 -0.298152 1.049 39 57 87
-0.00523164 -0.298152 1.049 37 55 85
-0.00360594 -0.298436 1.05 44 60 90
-0.00197526 -0.298436 1.05 43 59 89
-0.00034457 -0.298436 1.05 43 60 88
0.00128489 -0.298152 1.049 43 60 88
0.00291402 -0.298152 1.049 42 59 87
0.00454316 -0.298152 1.049 43 60 88
0.00617229 -0.298152 1.049 49 66 94
0.00779398 -0.297868 1.048 51 68 96
0.00941257 -0.297584 1.047 49 66 94
0.0110281 -0.2973 1.046 49 66 94
0.0126283 -0.296731 1.044 49 66 94
0.0142361 -0.296447 1.043 48 65 93
0.0158407 -0.296163 1.042 46 63 91
0.0174087 -0.29531 1.039 46 63 91
0.019004 -0.295026 1.038 46 63 91
0.0205763 -0.294457 1.036 51 68 96
0.0221638 -0.294173 1.035 48 65 93
0.0237482 -0.293889 1.034 48 65 93
0.0253296 -0.293605 1.033 51 69 94
0.0268817 -0.293036 1.031 50 68 93
0.0284552 -0.292752 1.03 49 67 92
0.0300257 -0.292468 1.029 48 66 91
0.031593 -0.292183 1.028 48 67 90
0.0331895 -0.292183 1.028 48 67 90
0.0347861 -0.292183 1.028 50 66 90
0.0363826 -0.292183 1.028 48 64 88
0.0379791 -0.292183 1.028 50 66 90
0.0396141 -0.292468 1.029 50 66 90
0.0412522 -0.292752 1.03 53 68 89
0.0428935 -0.293036 1.031 49 64 85
0.0445378 -0.29332 1.032 47 62 83
0.04623 -0.293889 1.034 47 62 83
0.0478821 -0.294173 1.035 48 63 82
0.0494895 -0.294173 1.035 42 57 76
0.0511462 -0.294457 1.036 42 56 73
0.0528061 -0.294742 1.037 45 59 76
0.0544166 -0.294742 1.037 49 64 78
0.0560271 -0.294742 1.037 49 64 78
0.0576376 -0.294742 1.037 45 62 69
0.0592481 -0.294742 1.037 44 61 68
0.0608586 -0.294742 1.037 47 60 66
0.0624691 -0.294742 1.037 41 54 60
0.0640795 -0.294742 1.037 39 53 56
0.06569 -0.294742 1.037 20 34 37
0.0673005 -0.294742 1.037 11 24 23
0.0688446 -0.294457 1.036 9 22 21
0.0705215 -0.294742 1.037 8 22 17
0.0720625 -0.294457 1.036 7 21 16
0.0736714 -0.294457 1.036 6 22 12
0.075353 -0.294742 1.037 6 22 12
0.0768893 -0.294457 1.036 6 22 7
0.104246 -0.335954 1.182 18 34 12
0.106082 -0.335954 1.182 13 31 9
0.107918 -0.335954 1.182 16 34 12
0.10966 -0.33567 1.181 14 33 8
0.1114 -0.335386 1.18 15 34 9
0.113233 -0.335386 1.18 13 32 7
0.115065 -0.335386 1.18 13 32 7
0.116898 -0.335386 1.18 15 34 9
0.11873 -0.335386 1.18 15 34 9
0.120563 -0.335386 1.18 16 35 10
0.122396 -0.335386 1.18 17 36 11
0.124228 -0.335386 1.18 17 36 11
0.126168 -0.33567 1.181 16 35 10
0.127893 -0.335386 1.18 17 36 11
0.129836 -0.33567 1.181 16 35 10
0.13167 -0.33567 1.181 16 35 10
0.133391 -0.335386 1.18 15 34 9
0.135453 -0.335954 1.182 14 33 8
0.137289 -0.335954 1.182 16 35 10
0.139124 -0.335954 1.182 17 36 11
0.14096 -0.335954 1.182 17 36 11
0.142796 -0.335954 1.182 17 36 11
0.144631 -0.335954 1.182 16 35 10
0.146467 -0.335954 1.182 16 35 10
0.148303 -0.335954 1.182 16 35 10
0.150138 -0.335954 1.182 16 35 10
0.151974 -0.335954 1.182 17 36 11
0.15355 -0.335386 1.18 16 35 10
0.155382 -0.335386 1.18 17 36 11
0.157215 -0.335386 1.18 17 36 11
0.159047 -0.335386 1.18 17 36 11
0.161016 -0.33567 1.181 17 36 11
0.16285 -0.33567 1.181 17 36 11
0.164684 -0.33567 1.181 16 35 10
0.16666 -0.335954 1.182 16 35 10
0.170475 -0.336238 1.183 17 36 11
0.172458 -0.336523 1.184 17 36 11
0.174444 -0.336807 1.185 21 40 15
0.176433 -0.337091 1.186 21 40 15
0.178275 -0.337091 1.186 21 40 15
0.180269 -0.337375 1.187 21 40 15
0.182266 -0.33766 1.188 21 40 15
0.184266 -0.337944 1.189 20 39 14
0.186112 -0.337944 1.189 20 39 14
0.188117 -0.338228 1.19 18 37 12
0.189965 -0.338228 1.19 20 39 14
0.191813 -0.338228 1.19 20 39 14
0.193661 -0.338228 1.19 17 36 11
0.195509 -0.338228 1.19 18 37 12
0.197357 -0.338228 1.19 20 39 14
0.199205 -0.338228 1.19 21 40 15
0.200885 -0.337944 1.189 21 40 15
0.202731 -0.337944 1.189 21 40 15
0.204406 -0.33766 1.188 20 39 14
0.206077 -0.337375 1.187 20 39 14
0.20792 -0.337375 1.187 21 40 15
0.209411 -0.336807 1.185 18 37 12
0.211251 -0.336807 1.185 18 37 12
0.212911 -0.336523 1.184 22 41 16
0.214569 -0.336238 1.183 22 41 16
0.216406 -0.336238 1.183 22 41 16
0.218243 -0.336238 1.183 22 41 16
0.220081 -0.336238 1.183 21 40 15
0.221918 -0.336238 1.183 22 41 16
0.223755 -0.336238 1.183 21 40 15
0.225783 -0.336523 1.184 21 40 15
0.227814 -0.336807 1.185 18 37 12
0.229654 -0.336807 1.185 17 36 11
0.231495 -0.336807 1.185 17 36 11
0.233532 -0.337091 1.186 17 36 11
0.235572 -0.337375 1.187 18 37 12
0.237616 -0.33766 1.188 17 36 11
0.239662 -0.337944 1.189 16 34 12
0.24356 -0.338228 1.19 13 30 10
0.245408 -0.338228 1.19 13 30 10
0.247464 -0.338512 1.191 11 28 8
0.249523 -0.338796 1.192 15 32 12
0.251374 -0.338796 1.192 13 30 10
0.252801 -0.338228 1.19 10 27 7
0.254435 -0.337944 1.189 9 26 6
0.25585 -0.337375 1.187 10 27 7
0.257477 -0.337091 1.186 9 26 6
0.2591 -0.336807 1.185 9 26 6
0.26072 -0.336523 1.184 10 26 9
0.262115 -0.335954 1.182 10 26 9
0.263951 -0.335954 1.182 12 26 9
0.265787 -0.335954 1.182 12 26 9
0.267396 -0.33567 1.181 12 26 9
0.269458 -0.335954 1.182 12 26 9
0.271294 -0.335954 1.182 11 25 10
0.273129 -0.335954 1.182 13 27 12
0.274965 -0.335954 1.182 13 27 12
0.276801 -0.335954 1.182 13 27 12
0.278872 -0.336238 1.183 12 25 12
0.280947 -0.336523 1.184 12 25 12
0.283024 -0.336807 1.185 13 27 12
0.285105 -0.337091 1.186 12 26 11
0.286947 -0.337091 1.186 12 26 11
0.289032 -0.337375 1.187 12 26 11
0.290876 -0.337375 1.187 12 25 12
0.292719 -0.337375 1.187 12 25 12
0.294563 -0.337375 1.187 12 25 12
0.296656 -0.33766 1.188 12 25 12
0.298501 -0.33766 1.188 13 26 13
0.300093 -0.337375 1.187 12 25 12
0.301937 -0.337375 1.187 11 25 10
0.30378 -0.337375 1.187 12 26 11
0.305623 -0.337375 1.187 12 26 11
0.307467 -0.337375 1.187 13 27 12
0.30905 -0.337091 1.186 15 29 14
0.310892 -0.337091 1.186 13 27 12
0.312734 -0.337091 1.186 13 27 10
0.314575 -0.337091 1.186 12 26 9
0.316684 -0.337375 1.187 11 25 8
0.318528 -0.337375 1.187 11 25 8
0.320371 -0.337375 1.187 11 25 8
0.322214 -0.337375 1.187 11 25 8
0.324331 -0.33766 1.188 11 25 8
0.32645 -0.337944 1.189 13 27 10
0.328573 -0.338228 1.19 13 27 10
0.330421 -0.338228 1.19 15 29 12
0.332269 -0.338228 1.19 16 31 11
0.334398 -0.338512 1.191 17 32 12
0.33653 -0.338796 1.192 17 32 12
0.338381 -0.338796 1.192 18 33 13
0.340233 -0.338796 1.192 19 34 14
0.342084 -0.338796 1.192 18 33 13
0.343935 -0.338796 1.192 20 35 15
0.345786 -0.338796 1.192 17 32 12
0.347638 -0.338796 1.192 18 33 13
0.349196 -0.338512 1.191 18 33 13
0.351045 -0.338512 1.191 17 31 16
0.352599 -0.338228 1.19 17 31 16
0.354447 -0.338228 1.19 18 31 18
0.355995 -0.337944 1.189 17 30 17
0.357541 -0.33766 1.188 17 29 19
0.359084 -0.337375 1.187 17 29 19
0.360927 -0.337375 1.187 16 27 19
0.362465 -0.337091 1.186 17 28 20
0.364 -0.336807 1.185 11 21 16
0.36584 -0.336807 1.185 19 29 24
0.36768 -0.336807 1.185 46 56 51
0.369209 -0.336523 1.184 43 53 48
0.371048 -0.336523 1.184 37 46 44
0.372886 -0.336523 1.184 34 43 41
0.374409 -0.336238 1.183 34 42 44
0.375928 -0.335954 1.182 34 42 44
0.377763 -0.335954 1.182 36 43 47
0.379599 -0.335954 1.182 32 39 43
0.381435 -0.335954 1.182 29 38 42
0.383595 -0.336238 1.183 29 38 42
-0.1656 -0.334116 1.182 2 13 5
-0.163903 -0.334399 1.183 4 15 7
-0.162339 -0.334964 1.185 3 14 6
-0.160634 -0.335247 1.186 3 14 6
-0.158926 -0.33553 1.187 3 14 6
-0.157083 -0.33553 1.187 4 15 7
-0.155501 -0.336095 1.189 4 15 7
-0.153784 -0.336378 1.19 4 15 7
-0.152063 -0.33666 1.191 5 16 8
-0.150214 -0.33666 1.191 6 17 9
-0.148488 -0.336943 1.192 8 21 8
-0.146637 -0.336943 1.192 8 21 8
-0.144786 -0.336943 1.192 11 24 11
-0.142935 -0.336943 1.192 11 24 11
-0.141084 -0.336943 1.192 11 25 10
-0.139232 -0.336943 1.192 11 25 10
-0.137381 -0.336943 1.192 12 26 11
-0.13553 -0.336943 1.192 13 27 12
-0.133679 -0.336943 1.192 12 26 11
-0.131717 -0.33666 1.191 12 26 11
-0.129758 -0.336378 1.19 11 25 10
-0.12791 -0.336378 1.19 11 25 10
-0.126062 -0.336378 1.19 11 25 10
-0.12411 -0.336095 1.189 12 26 11
-0.122263 -0.336095 1.189 12 26 11
-0.120315 -0.335812 1.188 12 26 11
-0.11847 -0.335812 1.188 11 25 10
-0.116723 -0.336095 1.189 10 24 9
-0.114973 -0.336378 1.19 9 23 8
-0.113125 -0.336378 1.19 11 25 10
-0.111277 -0.336378 1.19 10 24 9
-0.109429 -0.336378 1.19 10 24 9
-0.107671 -0.33666 1.191 10 24 9
-0.105822 -0.33666 1.191 9 23 8
-0.104059 -0.336943 1.192 9 23 8
-0.102208 -0.336943 1.192 10 24 9
-0.100357 -0.336943 1.192 9 23 8
-0.0985056 -0.336943 1.192 9 23 8
-0.0965733 -0.33666 1.191 9 23 8
-0.0946442 -0.336378 1.19 9 23 8
-0.092796 -0.336378 1.19 9 23 8
-0.0907951 -0.335812 1.188 10 24 9
-0.0888752 -0.33553 1.187 9 23 8
-0.0869584 -0.335247 1.186 8 22 7
-0.0851165 -0.335247 1.186 9 23 8
-0.0832746 -0.335247 1.186 8 22 7
-0.0813641 -0.334964 1.185 8 21 8
-0.0795237 -0.334964 1.185 8 21 8
-0.0776834 -0.334964 1.185 9 22 9
-0.075843 -0.334964 1.185 8 21 8
-0.0740651 -0.335247 1.186 9 22 9
-0.0722232 -0.335247 1.186 6 19 6
-0.0703813 -0.335247 1.186 8 21 8
-0.0685394 -0.335247 1.186 6 19 6
-0.0666975 -0.335247 1.186 6 19 6
-0.0648556 -0.335247 1.186 8 21 8
-0.0630137 -0.335247 1.186 6 19 6
-0.0611203 -0.334964 1.185 6 19 6
-0.0592799 -0.334964 1.185 8 21 8
-0.0574396 -0.334964 1.185 8 21 8
-0.0556462 -0.335247 1.186 8 21 8
-0.0537589 -0.334964 1.185 8 21 8
-0.0519185 -0.334964 1.185 6 19 6
-0.0393682 -0.295956 1.047 14 19 42
-0.0377782 -0.296238 1.048 48 53 76
-0.0361162 -0.295956 1.047 110 127 155
-0.0345231 -0.296238 1.048 130 147 175
-0.0328955 -0.296238 1.048 117 139 171
-0.0312679 -0.296238 1.048 102 124 156
-0.0296403 -0.296238 1.048 100 124 156
-0.0280395 -0.296521 1.049 116 140 172
-0.0264104 -0.296521 1.049 119 143 175
-0.0247812 -0.296521 1.049 101 125 157
-0.0231521 -0.296521 1.049 101 125 157
-0.021523 -0.296521 1.049 122 146 178
-0.0198938 -0.296521 1.049 112 136 170
-0.0182473 -0.296238 1.048 22 46 80
-0.0166356 -0.296521 1.049 23 43 77
-0.0150064 -0.296521 1.049 41 61 95
-0.0133646 -0.296238 1.048 41 58 93
-0.011737 -0.296238 1.048 30 47 82
-0.0101094 -0.296238 1.048 37 54 87
-0.00848991 -0.296521 1.049 37 54 87
-0.00686077 -0.296521 1.049 42 58 88
-0.00523663 -0.296804 1.05 41 57 87
-0.00360594 -0.296804 1.05 43 59 89
-0.00197526 -0.296804 1.05 44 60 90
-0.000344898 -0.297086 1.051 44 60 90
0.00128612 -0.296804 1.05 43 59 89
0.0029168 -0.296804 1.05 43 59 89
0.00454749 -0.296804 1.05 43 59 89
0.00617229 -0.296521 1.049 46 62 92
0.00780142 -0.296521 1.049 46 62 92
0.00942156 -0.296238 1.048 46 62 92
0.0110386 -0.295956 1.047 46 62 92
0.0126525 -0.295673 1.046 48 64 94
0.0142497 -0.295108 1.044 49 65 95
0.0158559 -0.294825 1.043 48 64 94
0.0174589 -0.294542 1.042 45 61 91
0.019004 -0.293412 1.038 49 65 95
0.0205961 -0.293129 1.037 51 67 97
0.0221638 -0.292564 1.035 51 68 96
0.0237482 -0.292281 1.034 51 68 96
0.025305 -0.291716 1.032 51 69 94
0.0268817 -0.291433 1.031 52 70 95
0.0284829 -0.291433 1.031 51 69 94
0.0300549 -0.29115 1.03 50 68 93
0.0316238 -0.290868 1.029 48 66 91
0.0332218 -0.290868 1.029 49 67 92
0.0348199 -0.290868 1.029 50 68 93
0.036418 -0.290868 1.029 51 69 94
0.0380161 -0.290868 1.029 48 63 89
0.0396526 -0.29115 1.03 47 62 88
0.0412923 -0.291433 1.031 43 58 84
0.0428935 -0.291433 1.031 41 56 82
0.044581 -0.291998 1.033 39 55 79
0.04623 -0.292281 1.034 38 54 78
0.0478821 -0.292564 1.035 45 61 85
0.0495373 -0.292846 1.036 44 60 84
0.0511462 -0.292846 1.036 41 56 77
0.0528061 -0.293129 1.037 42 57 78
0.0544166 -0.293129 1.037 45 58 77
0.0560271 -0.293129 1.037 49 62 81
0.0576376 -0.293129 1.037 51 65 82
0.0592481 -0.293129 1.037 52 66 83
0.0608586 -0.293129 1.037 53 65 80
0.0624691 -0.293129 1.037 54 66 81
0.0640795 -0.293129 1.037 51 64 77
0.0656267 -0.292846 1.036 42 55 68
0.0672356 -0.292846 1.036 42 54 62
0.0688446 -0.292846 1.036 41 53 61
0.0705215 -0.293129 1.037 35 49 52
0.072132 -0.293129 1.037 28 42 45
0.0737425 -0.293129 1.037 15 28 27
0.0752804 -0.292846 1.036 8 21 20
0.0768893 -0.292846 1.036 10 22 17
0.0784982 -0.292846 1.036 10 22 17
0.106082 -0.334116 1.182 16 32 10
0.107918 -0.334116 1.182 18 34 12
0.109568 -0.333551 1.18 18 35 10
0.1114 -0.333551 1.18 17 34 9
0.113233 -0.333551 1.18 15 32 7
0.115065 -0.333551 1.18 15 32 7
0.116898 -0.333551 1.18 15 32 7
0.11863 -0.333268 1.179 15 32 7
0.120461 -0.333268 1.179 17 34 9
0.122396 -0.333551 1.18 16 33 8
0.124228 -0.333551 1.18 18 35 10
0.126061 -0.333551 1.18 18 35 10
0.127893 -0.333551 1.18 17 36 11
0.129836 -0.333834 1.181 17 36 11
0.131559 -0.333551 1.18 17 36 11
0.133504 -0.333834 1.181 17 36 11
0.135338 -0.333834 1.181 16 35 10
0.137172 -0.333834 1.181 16 35 10
0.139007 -0.333834 1.181 16 35 10
0.140841 -0.333834 1.181 16 35 10
0.142675 -0.333834 1.181 16 35 10
0.144509 -0.333834 1.181 16 35 10
0.146467 -0.334116 1.182 16 35 10
0.148303 -0.334116 1.182 15 34 9
0.150138 -0.334116 1.182 17 36 11
0.151974 -0.334116 1.182 17 36 11
0.15355 -0.333551 1.18 17 36 11
0.155382 -0.333551 1.18 18 37 12
0.157215 -0.333551 1.18 18 37 12
0.159047 -0.333551 1.18 20 39 14
0.16088 -0.333551 1.18 18 37 12
0.162712 -0.333551 1.18 17 36 11
0.164684 -0.333834 1.181 17 36 11
0.16666 -0.334116 1.182 17 36 11
0.168495 -0.334116 1.182 17 36 11
0.172312 -0.334399 1.183 18 37 12
0.174297 -0.334682 1.184 20 39 14
0.176284 -0.334964 1.185 21 41 14
0.178125 -0.334964 1.185 18 38 11
0.180269 -0.33553 1.187 20 40 13
0.182112 -0.33553 1.187 21 41 14
0.184111 -0.335812 1.188 20 40 13
0.186269 -0.336378 1.19 20 40 13
0.188117 -0.336378 1.19 21 41 14
0.189965 -0.336378 1.19 22 42 15
0.191813 -0.336378 1.19 21 41 14
0.193661 -0.336378 1.19 17 37 10
0.195509 -0.336378 1.19 20 40 13
0.197357 -0.336378 1.19 18 38 11
0.199205 -0.336378 1.19 20 40 13
0.201054 -0.336378 1.19 18 38 11
0.202902 -0.336378 1.19 20 40 13
0.204578 -0.336095 1.189 21 41 14
0.206077 -0.33553 1.187 21 41 14
0.20792 -0.33553 1.187 21 41 14
0.209587 -0.335247 1.186 20 40 13
0.211251 -0.334964 1.185 18 38 11
0.213091 -0.334964 1.185 22 42 15
0.21475 -0.334682 1.184 23 43 16
0.216589 -0.334682 1.184 23 43 16
0.218243 -0.334399 1.183 23 43 16
0.220081 -0.334399 1.183 21 41 14
0.221918 -0.334399 1.183 20 40 13
0.223944 -0.334682 1.184 21 41 14
0.225783 -0.334682 1.184 22 42 15
0.227814 -0.334964 1.185 20 39 14
0.229654 -0.334964 1.185 18 37 12
0.231495 -0.334964 1.185 17 36 11
0.233532 -0.335247 1.186 17 36 11
0.235572 -0.33553 1.187 18 37 12
0.237416 -0.33553 1.187 18 37 12
0.239662 -0.336095 1.189 16 34 12
0.24356 -0.336378 1.19 14 32 10
0.245408 -0.336378 1.19 14 32 10
0.247464 -0.33666 1.191 14 31 11
0.249314 -0.33666 1.191 15 32 12
0.250953 -0.336378 1.19 13 30 10
0.252801 -0.336378 1.19 11 28 8
0.254435 -0.336095 1.189 10 27 7
0.25585 -0.33553 1.187 10 27 7
0.257477 -0.335247 1.186 10 27 7
0.2591 -0.334964 1.185 9 26 6
0.26028 -0.334116 1.182 10 26 9
0.262115 -0.334116 1.182 9 25 8
0.263728 -0.333834 1.181 12 26 9
0.265337 -0.333551 1.18 11 25 8
0.267169 -0.333551 1.18 12 26 9
0.269002 -0.333551 1.18 12 26 9
0.271064 -0.333834 1.181 12 26 11
0.272898 -0.333834 1.181 13 27 12
0.274732 -0.333834 1.181 12 26 11
0.276801 -0.334116 1.182 12 26 11
0.278636 -0.334116 1.182 11 24 11
0.280472 -0.334116 1.182 11 24 11
0.282547 -0.334399 1.183 12 26 11
0.284624 -0.334682 1.184 12 26 11
0.286705 -0.334964 1.185 12 26 11
0.288545 -0.334964 1.185 12 26 11
0.290631 -0.335247 1.186 12 25 12
0.292226 -0.334964 1.185 11 24 11
0.294315 -0.335247 1.186 11 24 11
0.296156 -0.335247 1.186 11 24 11
0.297998 -0.335247 1.186 12 25 12
0.299587 -0.334964 1.185 11 24 11
0.301428 -0.334964 1.185 11 24 11
0.303268 -0.334964 1.185 11 24 11
0.305108 -0.334964 1.185 12 26 11
0.306949 -0.334964 1.185 13 27 12
0.308789 -0.334964 1.185 15 29 14
0.310629 -0.334964 1.185 13 27 12
0.31247 -0.334964 1.185 13 27 12
0.31431 -0.334964 1.185 13 27 12
0.316151 -0.334964 1.185 12 26 11
0.318259 -0.335247 1.186 11 25 10
0.320371 -0.33553 1.187 11 25 10
0.322214 -0.33553 1.187 11 25 10
0.324058 -0.33553 1.187 12 26 11
0.326176 -0.335812 1.188 12 26 11
0.328573 -0.336378 1.19 13 27 10
0.330421 -0.336378 1.19 15 29 12
0.332269 -0.336378 1.19 16 30 13
0.334398 -0.33666 1.191 16 30 13
0.336248 -0.33666 1.191 17 32 12
0.338381 -0.336943 1.192 17 32 12
0.340233 -0.336943 1.192 19 34 14
0.342084 -0.336943 1.192 18 33 13
0.343935 -0.336943 1.192 20 35 15
0.345786 -0.336943 1.192 17 32 12
0.347638 -0.336943 1.192 19 34 14
0.349489 -0.336943 1.192 18 33 13
0.351045 -0.33666 1.191 17 31 14
0.352599 -0.336378 1.19 18 32 15
0.354447 -0.336378 1.19 18 31 18
0.355995 -0.336095 1.189 17 30 17
0.357541 -0.335812 1.188 16 29 16
0.359084 -0.33553 1.187 15 28 15
0.360623 -0.335247 1.186 16 28 18
0.362159 -0.334964 1.185 17 29 19
0.364 -0.334964 1.185 11 21 16
0.36584 -0.334964 1.185 22 32 27
0.36737 -0.334682 1.184 46 56 51
0.368897 -0.334399 1.183 33 43 38
0.370734 -0.334399 1.183 37 46 44
0.372256 -0.334116 1.182 36 45 43
0.374092 -0.334116 1.182 34 42 44
0.375292 -0.333551 1.18 36 44 46
0.377124 -0.333551 1.18 32 41 45
0.378957 -0.333551 1.18 31 40 44
0.380789 -0.333551 1.18 29 38 42
0.382298 -0.333268 1.179 28 37 41
-0.1656 -0.332278 1.182 4 11 7
-0.163764 -0.332278 1.182 5 12 8
-0.162339 -0.333122 1.185 4 14 9
-0.160634 -0.333403 1.186 3 13 8
-0.158926 -0.333684 1.187 3 14 6
-0.157083 -0.333684 1.187 4 15 7
-0.155501 -0.334246 1.189 3 14 6
-0.153784 -0.334527 1.19 4 15 7
-0.152063 -0.334808 1.191 4 15 7
-0.15034 -0.33509 1.192 5 16 8
-0.148488 -0.33509 1.192 8 20 10
-0.146637 -0.33509 1.192 8 20 10
-0.144908 -0.335371 1.193 11 24 11
-0.143055 -0.335371 1.193 11 24 11
-0.141202 -0.335371 1.193 11 25 10
-0.139349 -0.335371 1.193 11 25 10
-0.137496 -0.335371 1.193 11 25 10
-0.13553 -0.33509 1.192 11 25 10
-0.133679 -0.33509 1.192 11 25 10
-0.131828 -0.33509 1.192 11 25 10
-0.129976 -0.33509 1.192 10 24 9
-0.128018 -0.334808 1.191 10 24 9
-0.126062 -0.334527 1.19 10 24 9
-0.124214 -0.334527 1.19 12 26 11
-0.122263 -0.334246 1.189 12 26 11
-0.120416 -0.334246 1.189 11 25 10
-0.11857 -0.334246 1.189 10 24 9
-0.116821 -0.334527 1.19 10 24 9
-0.114973 -0.334527 1.19 10 24 9
-0.11322 -0.334808 1.191 10 24 9
-0.111371 -0.334808 1.191 10 24 9
-0.109613 -0.33509 1.192 10 24 9
-0.107762 -0.33509 1.192 9 23 8
-0.105999 -0.335371 1.193 9 23 8
-0.104147 -0.335371 1.193 10 24 9
-0.10238 -0.335652 1.194 10 24 9
-0.100441 -0.335371 1.193 9 23 8
-0.0985056 -0.33509 1.192 9 23 8
-0.0966544 -0.33509 1.192 9 23 8
-0.0948032 -0.33509 1.192 9 23 8
-0.092874 -0.334808 1.191 11 25 10
-0.0909479 -0.334527 1.19 11 25 10
-0.0889501 -0.333965 1.188 9 23 8
-0.0870317 -0.333684 1.187 9 23 8
-0.0851165 -0.333403 1.186 9 23 8
-0.0832746 -0.333403 1.186 8 22 7
-0.0813641 -0.333122 1.185 8 21 8
-0.0795237 -0.333122 1.185 8 21 8
-0.0777489 -0.333403 1.186 9 22 9
-0.075907 -0.333403 1.186 8 21 8
-0.0740651 -0.333403 1.186 9 22 9
-0.0722232 -0.333403 1.186 8 21 8
-0.0703813 -0.333403 1.186 8 21 8
-0.0685394 -0.333403 1.186 6 19 6
-0.0666975 -0.333403 1.186 6 18 8
-0.0648556 -0.333403 1.186 6 18 8
-0.0630137 -0.333403 1.186 6 19 6
-0.0611718 -0.333403 1.186 6 19 6
-0.0592799 -0.333122 1.185 8 21 8
-0.0574881 -0.333403 1.186 8 21 8
-0.0556462 -0.333403 1.186 6 19 6
-0.0537589 -0.333122 1.185 8 21 8
-0.0393682 -0.294328 1.047 20 25 48
-0.0377782 -0.294609 1.048 65 70 93
-0.0361507 -0.294609 1.048 120 137 165
-0.0344901 -0.294328 1.047 131 148 176
-0.0328955 -0.294609 1.048 121 145 172
-0.0312679 -0.294609 1.048 111 135 162
-0.0296403 -0.294609 1.048 107 132 161
-0.0280395 -0.29489 1.049 115 140 169
-0.0264104 -0.29489 1.049 119 144 173
-0.0247812 -0.29489 1.049 101 126 155
-0.0231521 -0.29489 1.049 113 137 169
-0.021523 -0.29489 1.049 126 150 182
-0.0198749 -0.294609 1.048 81 105 139
-0.0182473 -0.294609 1.048 19 43 77
-0.0166356 -0.29489 1.049 26 46 78
-0.0150064 -0.29489 1.049 30 50 82
-0.0133646 -0.294609 1.048 33 50 83
-0.011737 -0.294609 1.048 35 52 85
-0.0101094 -0.294609 1.048 37 54 87
-0.00848991 -0.29489 1.049 37 54 87
-0.00686077 -0.29489 1.049 40 57 90
-0.00523164 -0.29489 1.049 39 56 89
-0.00360594 -0.295171 1.05 39 57 87
-0.00197714 -0.295452 1.051 42 60 90
-0.000344898 -0.295452 1.051 42 60 90
0.00128734 -0.295452 1.051 42 60 90
0.00291958 -0.295452 1.051 44 60 90
0.00455182 -0.295452 1.051 44 60 90
0.00617817 -0.295171 1.05 46 62 92
0.00780886 -0.295171 1.05 46 62 92
0.00943055 -0.29489 1.049 46 62 92
0.0110386 -0.294328 1.047 46 62 92
0.0126525 -0.294047 1.046 46 62 92
0.0142634 -0.293766 1.045 48 64 94
0.0158711 -0.293484 1.044 48 64 94
0.0174589 -0.292922 1.042 48 64 94
0.019004 -0.291798 1.038 50 66 96
0.0205961 -0.291517 1.037 50 66 96
0.0221638 -0.290954 1.035 51 67 97
0.0237482 -0.290673 1.034 51 67 97
0.0253541 -0.290673 1.034 51 68 96
0.0269078 -0.290111 1.032 52 69 97
0.0284829 -0.28983 1.031 52 69 97
0.0300549 -0.289549 1.03 51 68 96
0.0316545 -0.289549 1.03 49 66 94
0.0332218 -0.289268 1.029 51 68 96
0.0348537 -0.289549 1.03 51 68 96
0.036418 -0.289268 1.029 51 68 96
0.038053 -0.289549 1.03 49 67 92
0.0396526 -0.289549 1.03 50 68 93
0.0413323 -0.290111 1.032 53 71 96
0.0429351 -0.290111 1.032 54 72 97
0.0446241 -0.290673 1.034 57 75 100
0.04623 -0.290673 1.034 49 67 92
0.0478821 -0.290954 1.035 56 74 99
0.0495373 -0.291236 1.036 52 70 95
0.0511462 -0.291236 1.036 47 63 87
0.0528061 -0.291517 1.037 47 63 87
0.0544166 -0.291517 1.037 43 59 83
0.0560271 -0.291517 1.037 45 61 85
0.0576376 -0.291517 1.037 49 64 85
0.0592481 -0.291517 1.037 48 63 84
0.0608586 -0.291517 1.037 50 65 86
0.0624691 -0.291517 1.037 52 67 88
0.0640795 -0.291517 1.037 55 69 86
0.06569 -0.291517 1.037 52 66 83
0.0673005 -0.291517 1.037 50 62 77
0.0688446 -0.291236 1.036 52 64 79
0.0705215 -0.291517 1.037 52 65 78
0.0720625 -0.291236 1.036 50 63 76
0.0737425 -0.291517 1.037 51 65 73
0.0752804 -0.291236 1.036 39 53 61
0.0768893 -0.291236 1.036 36 47 51
0.0784982 -0.291236 1.036 27 38 42
0.0801072 -0.291236 1.036 12 25 24
0.0817161 -0.291236 1.036 8 21 20
0.0833251 -0.291236 1.036 5 18 16
0.113233 -0.331716 1.18 13 30 10
0.115065 -0.331716 1.18 14 31 11
0.116799 -0.331435 1.179 15 33 11
0.11863 -0.331435 1.179 15 33 11
0.120563 -0.331716 1.18 16 34 12
0.122292 -0.331435 1.179 14 32 10
0.124228 -0.331716 1.18 16 34 12
0.126061 -0.331716 1.18 15 33 11
0.128002 -0.331997 1.181 16 34 12
0.129836 -0.331997 1.181 16 34 12
0.131559 -0.331716 1.18 16 34 12
0.133504 -0.331997 1.181 16 34 12
0.135224 -0.331716 1.18 16 34 12
0.137172 -0.331997 1.181 16 34 12
0.139007 -0.331997 1.181 16 34 12
0.140841 -0.331997 1.181 16 34 12
0.142675 -0.331997 1.181 15 34 9
0.144509 -0.331997 1.181 16 35 10
0.146343 -0.331997 1.181 17 36 11
0.148303 -0.332278 1.182 17 36 11
0.150138 -0.332278 1.182 18 37 12
0.151974 -0.332278 1.182 17 36 11
0.15355 -0.331716 1.18 17 36 11
0.155382 -0.331716 1.18 18 37 12
0.157215 -0.331716 1.18 21 40 15
0.159047 -0.331716 1.18 20 39 14
0.161016 -0.331997 1.181 20 39 14
0.162712 -0.331716 1.18 18 37 12
0.164684 -0.331997 1.181 17 36 11
0.166519 -0.331997 1.181 18 37 12
0.168495 -0.332278 1.182 20 39 14
0.170331 -0.332278 1.182 20 39 14
0.174297 -0.332841 1.184 21 41 14
0.176284 -0.333122 1.185 21 41 14
0.178125 -0.333122 1.185 20 40 13
0.180117 -0.333403 1.186 18 38 11
0.182112 -0.333684 1.187 20 40 13
0.184111 -0.333965 1.188 20 40 13
0.186112 -0.334246 1.189 21 41 14
0.188117 -0.334527 1.19 23 43 16
0.189965 -0.334527 1.19 23 43 16
0.191813 -0.334527 1.19 22 42 15
0.193661 -0.334527 1.19 17 37 10
0.195509 -0.334527 1.19 20 40 13
0.197357 -0.334527 1.19 20 40 13
0.199205 -0.334527 1.19 21 41 14
0.201054 -0.334527 1.19 20 40 13
0.202902 -0.334527 1.19 20 40 13
0.20475 -0.334527 1.19 21 41 14
0.206424 -0.334246 1.189 22 42 15
0.208096 -0.333965 1.188 21 41 14
0.209764 -0.333684 1.187 21 41 14
0.211429 -0.333403 1.186 18 38 11
0.213091 -0.333122 1.185 21 41 14
0.214932 -0.333122 1.185 22 42 15
0.216589 -0.332841 1.184 22 42 15
0.218428 -0.332841 1.184 23 43 16
0.220267 -0.332841 1.184 20 40 13
0.222105 -0.332841 1.184 20 40 13
0.223944 -0.332841 1.184 22 42 15
0.225783 -0.332841 1.184 22 42 15
0.227622 -0.332841 1.184 22 42 15
0.229654 -0.333122 1.185 20 40 13
0.231495 -0.333122 1.185 20 40 13
0.233335 -0.333122 1.185 18 38 11
0.235374 -0.333403 1.186 18 38 11
0.237416 -0.333684 1.187 18 38 11
0.239259 -0.333684 1.187 15 34 9
0.241306 -0.333965 1.188 15 34 9
0.245408 -0.334527 1.19 15 33 11
0.247256 -0.334527 1.19 16 34 12
0.249314 -0.334808 1.191 14 32 10
0.250953 -0.334527 1.19 13 31 9
0.252801 -0.334527 1.19 11 29 7
0.254221 -0.333965 1.188 13 30 10
0.25585 -0.333684 1.187 11 28 8
0.257259 -0.333122 1.185 11 27 10
0.258881 -0.332841 1.184 10 26 9
0.26028 -0.332278 1.182 10 26 9
0.262115 -0.332278 1.182 10 26 9
0.263504 -0.331716 1.18 12 26 9
0.265337 -0.331716 1.18 11 25 8
0.267169 -0.331716 1.18 12 26 11
0.269002 -0.331716 1.18 12 26 11
0.270835 -0.331716 1.18 11 25 10
0.272667 -0.331716 1.18 12 26 11
0.2745 -0.331716 1.18 12 26 11
0.276332 -0.331716 1.18 12 26 11
0.278401 -0.331997 1.181 11 25 10
0.280472 -0.332278 1.182 12 26 11
0.282308 -0.332278 1.182 13 27 12
0.284384 -0.33256 1.183 12 26 11
0.286221 -0.33256 1.183 12 25 12
0.288302 -0.332841 1.184 12 25 12
0.290141 -0.332841 1.184 11 24 11
0.291979 -0.332841 1.184 11 24 11
0.293818 -0.332841 1.184 11 24 11
0.295657 -0.332841 1.184 11 24 11
0.297496 -0.332841 1.184 13 26 13
0.299082 -0.33256 1.183 12 25 12
0.300665 -0.332278 1.182 11 24 11
0.3025 -0.332278 1.182 12 25 12
0.304336 -0.332278 1.182 12 26 11
0.306172 -0.332278 1.182 13 27 12
0.308007 -0.332278 1.182 15 29 14
0.310105 -0.33256 1.183 13 27 12
0.312206 -0.332841 1.184 12 26 11
0.314045 -0.332841 1.184 13 27 12
0.316151 -0.333122 1.185 13 27 12
0.317991 -0.333122 1.185 12 26 11
0.320101 -0.333403 1.186 12 26 11
0.321943 -0.333403 1.186 12 26 11
0.324058 -0.333684 1.187 13 27 12
0.326176 -0.333965 1.188 13 27 12
0.328297 -0.334246 1.189 12 26 9
0.330421 -0.334527 1.19 13 27 10
0.332269 -0.334527 1.19 13 27 10
0.334398 -0.334808 1.191 16 30 13
0.336248 -0.334808 1.191 18 33 13
0.338381 -0.33509 1.192 18 33 13
0.340233 -0.33509 1.192 20 35 15
0.342084 -0.33509 1.192 20 35 15
0.343935 -0.33509 1.192 20 35 15
0.345786 -0.33509 1.192 17 32 12
0.347638 -0.33509 1.192 20 35 15
0.349196 -0.334808 1.191 18 33 13
0.351045 -0.334808 1.191 16 30 13
0.352599 -0.334527 1.19 16 30 13
0.354447 -0.334527 1.19 15 29 14
0.355696 -0.333965 1.188 15 29 14
0.35724 -0.333684 1.187 15 28 15
0.359084 -0.333684 1.187 13 26 13
0.360623 -0.333403 1.186 17 29 19
0.362159 -0.333122 1.185 17 29 19
0.363692 -0.332841 1.184 11 21 16
0.365531 -0.332841 1.184 24 34 29
0.36706 -0.33256 1.183 46 56 51
0.368585 -0.332278 1.182 43 53 48
0.370421 -0.332278 1.182 37 46 44
0.371941 -0.331997 1.181 36 45 43
0.373459 -0.331716 1.18 33 40 44
0.374656 -0.331154 1.178 34 41 45
0.376485 -0.331154 1.178 33 40 44
0.377672 -0.330592 1.176 32 39 43
0.379499 -0.330592 1.176 29 37 44
0.381001 -0.330311 1.175 27 35 42
-0.16546 -0.330161 1.181 4 12 5
-0.163764 -0.330441 1.182 5 13 6
-0.162202 -0.331 1.184 3 14 6
-0.160634 -0.331559 1.186 3 14 6
-0.158926 -0.331838 1.187 3 14 6
-0.157083 -0.331838 1.187 3 14 6
-0.155501 -0.332397 1.189 3 14 6
-0.153784 -0.332677 1.19 5 16 8
-0.152063 -0.332957 1.191 4 16 6
-0.15034 -0.333236 1.192 4 16 6
-0.148488 -0.333236 1.192 8 21 8
-0.146637 -0.333236 1.192 8 21 8
-0.144908 -0.333516 1.193 10 24 9
-0.143055 -0.333516 1.193 11 25 10
-0.141202 -0.333516 1.193 11 25 10
-0.139349 -0.333516 1.193 11 25 10
-0.137496 -0.333516 1.193 11 25 10
-0.13553 -0.333236 1.192 11 25 10
-0.133791 -0.333516 1.193 11 25 10
-0.131828 -0.333236 1.192 11 25 10
-0.129976 -0.333236 1.192 11 25 10
-0.128125 -0.333236 1.192 11 25 10
-0.126062 -0.332677 1.19 11 25 10
-0.124214 -0.332677 1.19 11 25 10
-0.122366 -0.332677 1.19 10 24 9
-0.120518 -0.332677 1.19 9 23 8
-0.11867 -0.332677 1.19 10 24 9
-0.116821 -0.332677 1.19 9 23 8
-0.11507 -0.332957 1.191 9 23 8
-0.113315 -0.333236 1.192 11 25 10
-0.111558 -0.333516 1.193 10 24 9
-0.109705 -0.333516 1.193 10 24 9
-0.107943 -0.333795 1.194 10 24 9
-0.106177 -0.334075 1.195 10 24 9
-0.104321 -0.334075 1.195 10 24 9
-0.102465 -0.334075 1.195 11 25 10
-0.100609 -0.334075 1.195 8 22 7
-0.0986709 -0.333795 1.194 8 22 7
-0.0968166 -0.333795 1.194 9 23 8
-0.0948032 -0.333236 1.192 9 23 8
-0.092952 -0.333236 1.192 10 24 9
-0.0910244 -0.332957 1.191 11 25 10
-0.0890998 -0.332677 1.19 8 22 7
-0.0871784 -0.332397 1.189 8 22 7
-0.0851883 -0.331838 1.187 9 23 8
-0.0833448 -0.331838 1.187 8 22 7
-0.0815014 -0.331838 1.187 8 21 8
-0.0795908 -0.331559 1.186 8 21 8
-0.0777489 -0.331559 1.186 9 22 9
-0.075907 -0.331559 1.186 8 21 8
-0.0741276 -0.331838 1.187 8 21 8
-0.0722841 -0.331838 1.187 6 19 6
-0.0704407 -0.331838 1.187 6 19 6
-0.0685972 -0.331838 1.187 6 19 6
-0.0667538 -0.331838 1.187 6 19 6
-0.0649103 -0.331838 1.187 8 21 8
-0.0630669 -0.331838 1.187 6 19 6
-0.0611718 -0.331559 1.186 6 19 6
-0.0593299 -0.331559 1.186 6 19 6
-0.0574881 -0.331559 1.186 6 19 6
-0.0556462 -0.331559 1.186 6 19 6
-0.0538043 -0.331559 1.186 6 19 6
-0.0394058 -0.292979 1.048 32 40 62
-0.0377422 -0.2927 1.047 80 88 110
-0.0361507 -0.292979 1.048 124 142 172
-0.0345231 -0.292979 1.048 129 147 177
-0.0328641 -0.2927 1.047 119 144 173
-0.0312679 -0.292979 1.048 115 140 169
-0.0296403 -0.292979 1.048 109 134 163
-0.0280395 -0.293259 1.049 112 137 166
-0.0264104 -0.293259 1.049 116 144 172
-0.0247812 -0.293259 1.049 100 128 156
-0.0231521 -0.293259 1.049 119 143 175
-0.021523 -0.293259 1.049 128 152 184
-0.0198749 -0.292979 1.048 52 74 106
-0.0182647 -0.293259 1.049 23 45 77
-0.0166356 -0.293259 1.049 32 52 86
-0.0150064 -0.293259 1.049 40 60 94
-0.0133773 -0.293259 1.049 37 54 89
-0.011737 -0.292979 1.048 35 52 87
-0.0101094 -0.292979 1.048 36 53 86
-0.00848991 -0.293259 1.049 36 53 86
-0.00686077 -0.293259 1.049 41 56 89
-0.00523663 -0.293539 1.05 42 57 90
-0.00360938 -0.293818 1.051 42 58 88
-0.00197714 -0.293818 1.051 44 60 90
-0.000344898 -0.293818 1.051 44 60 90
0.00128734 -0.293818 1.051 46 62 92
0.00291958 -0.293818 1.051 44 60 90
0.00455182 -0.293818 1.051 43 59 89
0.00618406 -0.293818 1.051 45 61 91
0.00780886 -0.293539 1.05 46 62 92
0.00943055 -0.293259 1.049 46 62 92
0.0110491 -0.292979 1.048 46 62 92
0.0126646 -0.2927 1.047 46 62 92
0.014277 -0.29242 1.046 48 64 94
0.0158711 -0.291861 1.044 49 65 95
0.0174589 -0.291302 1.042 49 65 95
0.019004 -0.290184 1.038 49 65 95
0.0205961 -0.289904 1.037 49 65 95
0.0221638 -0.289345 1.035 51 67 97
0.0237712 -0.289345 1.035 52 68 98
0.0253541 -0.289066 1.034 53 70 98
0.0269078 -0.288506 1.032 53 70 98
0.0285105 -0.288506 1.032 52 69 97
0.030084 -0.288227 1.031 51 68 96
0.0316852 -0.288227 1.031 50 67 95
0.0332541 -0.287947 1.03 52 69 97
0.0348876 -0.288227 1.031 51 68 96
0.0364888 -0.288227 1.031 52 69 97
0.0380899 -0.288227 1.031 52 69 97
0.0396911 -0.288227 1.031 51 68 96
0.0413323 -0.288506 1.032 52 69 97
0.0429351 -0.288506 1.032 51 68 96
0.0446241 -0.289066 1.034 51 68 96
0.0462747 -0.289345 1.035 48 65 93
0.0478821 -0.289345 1.035 52 70 95
0.0495373 -0.289625 1.036 57 75 100
0.0511462 -0.289625 1.036 57 75 100
0.0528061 -0.289904 1.037 57 75 100
0.0544166 -0.289904 1.037 58 73 99
0.0560271 -0.289904 1.037 51 66 92
0.0576376 -0.289904 1.037 51 67 91
0.0592481 -0.289904 1.037 51 67 91
0.0608586 -0.289904 1.037 50 66 90
0.0624691 -0.289904 1.037 52 68 92
0.0640795 -0.289904 1.037 53 67 91
0.06569 -0.289904 1.037 52 66 90
0.0672356 -0.289625 1.036 55 68 89
0.0688446 -0.289625 1.036 56 69 90
0.0704535 -0.289625 1.036 48 61 80
0.072132 -0.289904 1.037 45 58 77
0.0736714 -0.289625 1.036 52 67 81
0.0752804 -0.289625 1.036 56 71 85
0.0768893 -0.289625 1.036 57 70 83
0.0784982 -0.289625 1.036 52 65 78
0.0801072 -0.289625 1.036 52 64 72
0.0817161 -0.289625 1.036 48 60 68
0.0833251 -0.289625 1.036 42 55 61
0.084934 -0.289625 1.036 32 45 51
0.086543 -0.289625 1.036 23 35 37
0.088237 -0.289904 1.037 12 24 26
0.0898475 -0.289904 1.037 8 21 19
0.124228 -0.329881 1.18 15 32 12
0.126061 -0.329881 1.18 14 31 11
0.127893 -0.329881 1.18 15 33 11
0.129726 -0.329881 1.18 16 34 12
0.131559 -0.329881 1.18 16 34 12
0.133391 -0.329881 1.18 17 35 13
0.135224 -0.329881 1.18 13 33 11
0.137172 -0.330161 1.181 12 32 10
0.138889 -0.329881 1.18 13 33 11
0.140721 -0.329881 1.18 12 32 10
0.142675 -0.330161 1.181 14 35 10
0.144509 -0.330161 1.181 14 35 10
0.146343 -0.330161 1.181 14 35 10
0.148303 -0.330441 1.182 14 35 10
