ply
format ascii 1.0
comment Created by Open3D
element vertex 1393
property double x
property double y
property double z
property uchar red
property uchar green
property uchar blue
end_header
-0.158391 -0.343596 1.183 5 15 10
-0.156554 -0.343596 1.183 4 14 9
-0.154847 -0.343887 1.184 5 16 8
-0.153138 -0.344177 1.185 4 15 7
-0.151297 -0.344177 1.185 5 17 7
-0.149457 -0.344177 1.185 6 18 8
-0.147617 -0.344177 1.185 10 20 8
-0.145899 -0.344467 1.186 11 21 9
-0.144057 -0.344467 1.186 12 23 9
-0.142335 -0.344758 1.187 12 23 9
-0.140492 -0.344758 1.187 13 24 10
-0.138765 -0.345048 1.188 14 25 11
-0.13692 -0.345048 1.188 14 25 11
-0.135303 -0.345629 1.19 14 25 11
-0.133454 -0.345629 1.19 14 25 11
-0.131606 -0.345629 1.19 13 24 10
-0.129758 -0.345629 1.19 13 24 10
-0.128018 -0.34592 1.191 13 24 10
-0.126274 -0.34621 1.192 13 24 10
-0.124423 -0.34621 1.192 13 24 10
-0.122571 -0.34621 1.192 14 25 11
-0.12072 -0.34621 1.192 14 25 11
-0.118869 -0.34621 1.192 12 26 11
-0.117018 -0.34621 1.192 11 25 10
-0.11507 -0.34592 1.191 12 25 12
-0.113125 -0.345629 1.19 10 23 10
-0.111184 -0.345339 1.189 10 21 13
-0.109245 -0.345048 1.188 6 17 9
-0.1074 -0.345048 1.188 4 13 12
-0.105466 -0.344758 1.187 6 15 14
-0.103623 -0.344758 1.187 6 14 16
-0.101608 -0.344177 1.185 5 13 15
-0.0997675 -0.344177 1.185 5 12 16
-0.0979272 -0.344177 1.185 5 12 16
-0.0960868 -0.344177 1.185 5 11 18
-0.0942465 -0.344177 1.185 6 12 19
-0.0924061 -0.344177 1.185 9 14 25
-0.0905658 -0.344177 1.185 5 10 21
-0.0887254 -0.344177 1.185 3 6 22
-0.0868851 -0.344177 1.185 2 5 21
-0.0851165 -0.344467 1.186 1 5 19
-0.0832746 -0.344467 1.186 0 3 17
-0.0815014 -0.344758 1.187 0 2 14
-0.0796579 -0.344758 1.187 1 3 15
-0.0777489 -0.344467 1.186 0 4 13
-0.075907 -0.344467 1.186 0 3 12
-0.0740027 -0.344177 1.185 0 3 12
-0.049475 -0.28725 0.989 0 0 38
-0.0478906 -0.286959 0.988 0 0 38
-0.0463562 -0.286959 0.988 0 0 41
-0.0448218 -0.286959 0.988 0 0 41
-0.0432874 -0.286959 0.988 2 0 43
-0.0417107 -0.286669 0.987 0 0 41
-0.0401779 -0.286669 0.987 0 0 42
-0.0386059 -0.286378 0.986 0 0 42
-0.0371122 -0.286669 0.987 0 0 46
-0.0355433 -0.286378 0.986 0 0 44
-0.034012 -0.286378 0.986 0 0 47
-0.0324807 -0.286378 0.986 3 2 51
-0.0309494 -0.286378 0.986 0 0 49
-0.0294181 -0.286378 0.986 2 2 53
-0.0278868 -0.286378 0.986 3 3 54
-0.0263555 -0.286378 0.986 3 3 54
-0.0248242 -0.286378 0.986 5 4 58
-0.0232929 -0.286378 0.986 3 2 56
-0.0217616 -0.286378 0.986 0 0 53
-0.0202304 -0.286378 0.986 0 0 50
-0.018718 -0.286669 0.987 5 1 51
-0.0171852 -0.286669 0.987 23 19 69
-0.0156523 -0.286669 0.987 33 29 79
-0.0141195 -0.286669 0.987 32 28 78
-0.0125867 -0.286669 0.987 32 28 78
-0.0110538 -0.286669 0.987 27 23 73
-0.00952096 -0.286669 0.987 19 14 66
-0.00798812 -0.286669 0.987 19 14 66
-0.00645527 -0.286669 0.987 22 15 72
-0.00492243 -0.286669 0.987 29 22 79
0.00580748 -0.286669 0.987 44 44 104
0.00734033 -0.286669 0.987 44 44 104
0.00886418 -0.286378 0.986 45 45 105
0.0103955 -0.286378 0.986 49 49 109
0.0119268 -0.286378 0.986 54 54 114
0.0134581 -0.286378 0.986 62 62 122
0.0150046 -0.286669 0.987 66 66 126
0.0165374 -0.286669 0.987 67 67 127
0.03949 -0.286378 0.986 11 8 87
0.0410213 -0.286378 0.986 10 7 86
0.0425526 -0.286378 0.986 6 3 82
0.0440839 -0.286378 0.986 6 3 82
0.0456152 -0.286378 0.986 4 1 80
0.0471943 -0.286669 0.987 3 0 79
0.0487271 -0.286669 0.987 8 0 84
0.0502091 -0.286378 0.986 33 24 109
0.0517928 -0.286669 0.987 41 32 118
0.0533257 -0.286669 0.987 19 10 96
0.0548029 -0.286378 0.986 23 13 102
0.0563342 -0.286378 0.986 35 25 114
0.0578655 -0.286378 0.986 34 24 118
0.059457 -0.286669 0.987 25 15 109
0.0609281 -0.286378 0.986 12 3 100
0.0624594 -0.286378 0.986 10 1 98
0.0639907 -0.286378 0.986 9 0 97
0.065522 -0.286378 0.986 9 0 97
0.0671213 -0.286669 0.987 12 1 98
0.0685846 -0.286378 0.986 35 24 121
0.0701158 -0.286378 0.986 55 44 142
0.0716471 -0.286378 0.986 60 49 147
0.0731042 -0.286088 0.985 65 55 156
0.0746339 -0.286088 0.985 50 40 141
0.0760864 -0.285798 0.984 17 9 111
0.0776146 -0.285798 0.984 18 10 112
0.0790623 -0.285507 0.983 16 8 116
0.0805889 -0.285507 0.983 18 10 118
0.082032 -0.285217 0.982 18 10 118
0.0835571 -0.285217 0.982 16 8 116
0.0851688 -0.285507 0.983 14 6 114
0.0866955 -0.285507 0.983 13 5 113
0.0882221 -0.285507 0.983 16 6 107
0.0897487 -0.285507 0.983 39 29 130
0.0913682 -0.285798 0.984 55 46 144
0.0929908 -0.286088 0.985 34 25 123
0.0945206 -0.286088 0.985 25 16 113
0.0961478 -0.286378 0.986 25 16 113
0.0977782 -0.286669 0.987 28 14 115
0.099311 -0.286669 0.987 20 6 107
0.100844 -0.286669 0.987 16 0 101
0.10248 -0.286959 0.988 17 0 102
0.10412 -0.28725 0.989 15 0 97
0.105656 -0.28725 0.989 22 6 104
0.107192 -0.28725 0.989 37 19 117
0.108838 -0.28754 0.99 56 38 136
0.110375 -0.28754 0.99 59 44 134
0.111913 -0.28754 0.99 51 36 126
0.11345 -0.28754 0.99 46 32 119
0.114988 -0.28754 0.99 37 23 110
0.116525 -0.28754 0.99 29 18 101
0.118182 -0.287831 0.991 40 29 112
0.119721 -0.287831 0.991 57 46 129
0.12126 -0.287831 0.991 52 41 124
0.122923 -0.288121 0.992 48 43 116
0.124464 -0.288121 0.992 29 24 97
0.126004 -0.288121 0.992 39 41 85
0.127674 -0.288412 0.993 21 23 67
0.16878 -0.343887 1.184 16 34 12
0.170763 -0.344177 1.185 15 33 11
0.172604 -0.344177 1.185 15 33 11
0.174444 -0.344177 1.185 15 33 11
0.176433 -0.344467 1.186 16 34 12
0.178425 -0.344758 1.187 16 34 12
0.180269 -0.344758 1.187 16 34 12
0.182112 -0.344758 1.187 16 34 12
0.183801 -0.344467 1.186 19 35 13
0.185486 -0.344177 1.185 19 35 13
0.187326 -0.344177 1.185 18 34 12
0.189167 -0.344177 1.185 17 33 11
0.191007 -0.344177 1.185 16 31 11
0.192685 -0.343887 1.184 17 32 12
0.194523 -0.343887 1.184 18 33 13
0.196196 -0.343596 1.183 19 34 14
0.198034 -0.343596 1.183 19 34 14
0.199871 -0.343596 1.183 19 34 14
0.201538 -0.343306 1.182 20 35 15
0.203373 -0.343306 1.182 19 34 14
0.205209 -0.343306 1.182 17 34 14
0.207045 -0.343306 1.182 17 34 14
0.20888 -0.343306 1.182 16 33 13
0.210716 -0.343306 1.182 17 34 14
0.212552 -0.343306 1.182 16 33 13
0.214387 -0.343306 1.182 17 34 14
0.216406 -0.343596 1.183 16 33 13
0.218428 -0.343887 1.184 17 34 14
0.220453 -0.344177 1.185 17 34 14
0.222293 -0.344177 1.185 17 34 14
0.224512 -0.344758 1.187 17 34 14
0.226355 -0.344758 1.187 17 34 14
0.228391 -0.345048 1.188 16 33 13
0.232471 -0.345629 1.19 16 33 13
0.23432 -0.345629 1.19 15 32 12
0.236168 -0.345629 1.19 14 31 11
0.238016 -0.345629 1.19 13 30 10
0.239864 -0.345629 1.19 15 30 10
0.241712 -0.345629 1.19 15 30 10
0.24356 -0.345629 1.19 13 28 8
0.245408 -0.345629 1.19 13 28 8
0.247256 -0.345629 1.19 11 26 6
0.248895 -0.345339 1.189 11 26 6
0.250742 -0.345339 1.189 9 23 6
0.252588 -0.345339 1.189 10 24 7
0.254649 -0.345629 1.19 10 24 9
0.256281 -0.345339 1.189 10 24 9
0.258128 -0.345339 1.189 10 23 10
0.259974 -0.345339 1.189 9 22 9
0.261821 -0.345339 1.189 8 21 8
0.263889 -0.345629 1.19 10 23 10
0.265737 -0.345629 1.19 11 24 11
0.267586 -0.345629 1.19 11 24 11
0.269434 -0.345629 1.19 10 23 10
0.271282 -0.345629 1.19 11 24 11
0.27313 -0.345629 1.19 11 24 11
0.275209 -0.34592 1.191 11 24 11
0.277291 -0.34621 1.192 11 24 11
0.279143 -0.34621 1.192 11 24 11
0.283082 -0.346501 1.193 11 24 11
0.285174 -0.346791 1.194 11 24 11
0.287269 -0.347081 1.195 11 24 11
0.289366 -0.347372 1.196 12 26 11
0.291467 -0.347662 1.197 13 27 12
0.293326 -0.347662 1.197 13 27 12
0.295185 -0.347662 1.197 12 26 11
0.297044 -0.347662 1.197 13 27 12
0.298903 -0.347662 1.197 13 27 12
0.300762 -0.347662 1.197 13 27 12
0.302621 -0.347662 1.197 13 27 12
0.30448 -0.347662 1.197 13 27 12
0.306339 -0.347662 1.197 12 26 11
0.307683 -0.347081 1.195 12 26 9
0.309539 -0.347081 1.195 13 27 10
0.311134 -0.346791 1.194 15 29 12
0.313251 -0.347081 1.195 15 29 12
0.314843 -0.346791 1.194 13 27 10
0.316697 -0.346791 1.194 13 27 10
0.318285 -0.346501 1.193 13 27 10
0.320138 -0.346501 1.193 16 30 13
0.32199 -0.346501 1.193 18 32 15
0.323572 -0.34621 1.192 17 31 14
0.325423 -0.34621 1.192 16 30 13
0.327274 -0.34621 1.192 16 30 13
0.329125 -0.34621 1.192 14 30 13
0.330977 -0.34621 1.192 16 32 15
0.332828 -0.34621 1.192 16 32 15
0.334398 -0.34592 1.191 17 33 16
0.336248 -0.34592 1.191 16 32 15
0.337814 -0.345629 1.19 17 33 16
0.339662 -0.345629 1.19 17 33 16
0.340936 -0.345048 1.188 16 32 15
0.342492 -0.344758 1.187 15 31 14
0.344336 -0.344758 1.187 16 32 15
0.345888 -0.344467 1.186 17 33 16
0.347436 -0.344177 1.185 15 31 14
0.349277 -0.344177 1.185 13 29 14
0.350821 -0.343887 1.184 13 29 14
0.352362 -0.343596 1.183 14 30 15
0.354199 -0.343596 1.183 14 30 15
0.356036 -0.343596 1.183 14 29 16
0.357873 -0.343596 1.183 14 29 16
0.359711 -0.343596 1.183 13 27 17
0.361548 -0.343596 1.183 14 28 18
0.363078 -0.343306 1.182 11 20 18
0.365222 -0.343596 1.183 23 32 30
0.36706 -0.343596 1.183 45 54 53
0.368897 -0.343596 1.183 33 42 41
0.370734 -0.343596 1.183 33 42 41
0.372571 -0.343596 1.183 33 42 41
0.374725 -0.343887 1.184 33 40 44
0.376882 -0.344177 1.185 34 41 45
0.378722 -0.344177 1.185 37 44 48
0.380563 -0.344177 1.185 36 43 47
0.382403 -0.344177 1.185 37 44 48
0.384568 -0.344467 1.186 34 41 45
-0.1656 -0.341468 1.182 19 26 22
-0.163764 -0.341468 1.182 11 18 14
-0.161928 -0.341468 1.182 3 10 6
-0.160093 -0.341468 1.182 5 12 8
-0.158257 -0.341468 1.182 5 12 8
-0.156554 -0.341757 1.183 5 12 8
-0.154847 -0.342046 1.184 6 14 7
-0.153008 -0.342046 1.184 6 14 7
-0.15117 -0.342046 1.184 8 17 8
-0.149457 -0.342334 1.185 10 19 10
-0.147617 -0.342334 1.185 10 20 8
-0.145899 -0.342623 1.186 11 21 9
-0.144057 -0.342623 1.186 11 22 8
-0.142335 -0.342912 1.187 11 22 8
-0.140492 -0.342912 1.187 12 23 9
-0.138765 -0.343201 1.188 12 23 9
-0.13692 -0.343201 1.188 13 24 10
-0.135189 -0.34349 1.189 14 25 11
-0.133454 -0.343779 1.19 14 25 11
-0.131606 -0.343779 1.19 13 24 10
-0.129758 -0.343779 1.19 12 23 9
-0.12791 -0.343779 1.19 13 24 10
-0.126168 -0.344068 1.191 13 24 10
-0.124423 -0.344357 1.192 12 23 9
-0.122571 -0.344357 1.192 13 24 10
-0.12072 -0.344357 1.192 13 24 10
-0.118869 -0.344357 1.192 10 23 10
-0.11692 -0.344068 1.191 10 23 10
-0.11507 -0.344068 1.191 8 17 15
-0.113125 -0.343779 1.19 9 18 16
-0.111277 -0.343779 1.19 9 15 22
-0.109337 -0.34349 1.189 9 15 22
-0.1074 -0.343201 1.188 9 13 27
-0.105466 -0.342912 1.187 8 12 26
-0.0997675 -0.342334 1.185 6 8 27
-0.0978445 -0.342046 1.184 6 8 27
-0.0800318 -0.285134 0.987 3 6 29
-0.078499 -0.285134 0.987 3 6 29
-0.0694423 -0.285712 0.989 2 1 34
-0.0679064 -0.285712 0.989 10 7 40
-0.0663704 -0.285712 0.989 15 12 45
-0.0647689 -0.285423 0.988 20 20 46
-0.0632345 -0.285423 0.988 29 29 55
-0.0617626 -0.285712 0.989 40 36 65
-0.0602266 -0.285712 0.989 47 43 72
-0.0586313 -0.285423 0.988 30 26 62
-0.0571547 -0.285712 0.989 5 1 37
-0.0556188 -0.285712 0.989 7 3 46
-0.0540281 -0.285423 0.988 9 5 48
-0.0524937 -0.285423 0.988 11 5 60
-0.0510109 -0.285712 0.989 14 8 63
-0.0494249 -0.285423 0.988 15 7 69
-0.0478906 -0.285423 0.988 18 10 72
-0.0463562 -0.285423 0.988 14 8 76
-0.0448218 -0.285423 0.988 14 8 76
-0.0432874 -0.285423 0.988 13 10 77
-0.0417107 -0.285134 0.987 14 11 78
-0.0401779 -0.285134 0.987 10 6 76
-0.038645 -0.285134 0.987 10 6 76
-0.0371122 -0.285134 0.987 12 7 80
-0.0355433 -0.284845 0.986 12 7 80
-0.034012 -0.284845 0.986 11 8 81
-0.0324807 -0.284845 0.986 18 15 88
-0.0309494 -0.284845 0.986 20 17 91
-0.0294181 -0.284845 0.986 24 21 95
-0.0278868 -0.284845 0.986 25 22 96
-0.0263555 -0.284845 0.986 25 22 96
-0.0248242 -0.284845 0.986 25 22 96
-0.0232929 -0.284845 0.986 26 23 97
-0.0217616 -0.284845 0.986 21 18 92
-0.0202304 -0.284845 0.986 17 14 88
-0.0186991 -0.284845 0.986 56 49 120
-0.0171852 -0.285134 0.987 72 65 136
-0.0156523 -0.285134 0.987 69 62 133
-0.0141195 -0.285134 0.987 69 62 133
-0.0125867 -0.285134 0.987 70 62 130
-0.0110538 -0.285134 0.987 69 61 129
-0.00952096 -0.285134 0.987 67 57 131
-0.00798812 -0.285134 0.987 61 51 125
-0.00645527 -0.285134 0.987 54 46 121
-0.00492243 -0.285134 0.987 51 43 118
-0.00338959 -0.285134 0.987 49 43 120
-0.00185862 -0.285423 0.988 49 43 120
-0.000324224 -0.285423 0.988 46 41 120
0.00121017 -0.285423 0.988 45 40 119
0.00274179 -0.285134 0.987 41 36 115
0.00427464 -0.285134 0.987 38 33 112
0.00580748 -0.285134 0.987 39 33 115
0.00734033 -0.285134 0.987 41 35 117
0.00887317 -0.285134 0.987 41 36 115
0.010406 -0.285134 0.987 43 38 117
0.0119389 -0.285134 0.987 47 40 119
0.0134717 -0.285134 0.987 48 41 120
0.0150046 -0.285134 0.987 57 48 133
0.0165374 -0.285134 0.987 57 48 133
0.0180702 -0.285134 0.987 36 29 114
0.0196031 -0.285134 0.987 10 3 88
0.0303023 -0.284845 0.986 7 1 98
0.0318336 -0.284845 0.986 7 1 98
0.0333648 -0.284845 0.986 6 0 99
0.0348607 -0.284556 0.985 6 0 99
0.0364274 -0.284845 0.986 4 0 97
0.0379587 -0.284845 0.986 3 0 96
0.03945 -0.284556 0.985 3 0 96
0.0410213 -0.284845 0.986 3 0 96
0.0425526 -0.284845 0.986 3 0 96
0.0440839 -0.284845 0.986 4 0 97
0.0456152 -0.284845 0.986 4 0 98
0.0471465 -0.284845 0.986 6 0 100
0.0487271 -0.285134 0.987 9 0 105
0.05026 -0.285134 0.987 11 0 107
0.0517928 -0.285134 0.987 14 3 115
0.0533257 -0.285134 0.987 14 3 115
0.0548585 -0.285134 0.987 15 3 117
0.0563914 -0.285134 0.987 22 10 124
0.0579242 -0.285134 0.987 17 3 123
0.059457 -0.285134 0.987 15 1 121
0.0609899 -0.285134 0.987 13 1 121
0.0625227 -0.285134 0.987 12 0 120
0.0640556 -0.285134 0.987 12 0 120
0.0655884 -0.285134 0.987 12 0 120
0.0671213 -0.285134 0.987 23 10 127
0.0685846 -0.284845 0.986 42 29 146
0.0701158 -0.284845 0.986 49 36 153
0.0715745 -0.284556 0.985 56 43 160
0.0731042 -0.284556 0.985 55 43 163
0.0746339 -0.284556 0.985 30 18 138
0.0760864 -0.284268 0.984 22 9 131
0.0775357 -0.283979 0.983 26 13 135
0.0790623 -0.283979 0.983 24 13 138
0.080507 -0.28369 0.982 24 13 138
0.082032 -0.28369 0.982 26 15 140
0.0835571 -0.28369 0.982 27 16 141
0.0850822 -0.28369 0.982 24 13 138
0.0866073 -0.28369 0.982 18 7 132
0.0881324 -0.28369 0.982 17 7 128
0.0897487 -0.283979 0.983 18 8 129
0.0913682 -0.284268 0.984 18 9 128
0.0928964 -0.284268 0.984 18 9 128
0.0945206 -0.284556 0.985 23 11 131
0.0961478 -0.284845 0.986 33 21 141
0.0977782 -0.285134 0.987 34 22 136
0.099311 -0.285134 0.987 34 22 136
0.100946 -0.285423 0.988 33 17 128
0.102584 -0.285712 0.989 27 11 122
0.10412 -0.285712 0.989 26 10 116
0.105656 -0.285712 0.989 26 10 116
0.107192 -0.285712 0.989 49 31 135
0.108838 -0.286001 0.99 61 43 147
0.110375 -0.286001 0.99 58 41 143
0.111913 -0.286001 0.99 54 37 139
0.11345 -0.286001 0.99 44 28 127
0.114988 -0.286001 0.99 26 10 109
0.116643 -0.28629 0.991 27 14 112
0.118182 -0.28629 0.991 28 15 113
0.119721 -0.28629 0.991 24 11 108
0.121383 -0.286579 0.992 22 9 106
0.122799 -0.28629 0.991 20 13 99
0.124464 -0.286579 0.992 22 15 101
0.126004 -0.286579 0.992 36 37 92
0.127674 -0.286868 0.993 38 39 94
0.169065 -0.342623 1.186 15 33 11
0.170763 -0.342334 1.185 15 33 11
0.172895 -0.342912 1.187 15 33 11
0.174738 -0.342912 1.187 15 33 11
0.176582 -0.342912 1.187 17 35 13
0.178425 -0.342912 1.187 18 36 14
0.180269 -0.342912 1.187 17 35 13
0.182266 -0.343201 1.188 18 36 14
0.184111 -0.343201 1.188 19 35 13
0.185799 -0.342912 1.187 19 35 13
0.187643 -0.342912 1.187 18 34 12
0.189486 -0.342912 1.187 17 33 11
0.191329 -0.342912 1.187 16 32 10
0.19301 -0.342623 1.186 16 32 10
0.194852 -0.342623 1.186 17 33 11
0.196528 -0.342334 1.185 18 34 12
0.198368 -0.342334 1.185 19 35 13
0.20004 -0.342046 1.184 19 35 13
0.201879 -0.342046 1.184 20 36 14
0.203545 -0.341757 1.183 20 36 14
0.205383 -0.341757 1.183 17 35 13
0.207395 -0.342046 1.184 16 34 12
0.209057 -0.341757 1.183 16 34 12
0.210716 -0.341468 1.182 17 35 13
0.212732 -0.341757 1.183 17 35 13
0.21475 -0.342046 1.184 17 35 13
0.216772 -0.342334 1.185 18 36 14
0.218612 -0.342334 1.185 18 36 14
0.220453 -0.342334 1.185 17 35 13
0.222668 -0.342912 1.187 17 35 13
0.226546 -0.343201 1.188 16 34 12
0.230623 -0.343779 1.19 13 31 9
0.232667 -0.344068 1.191 13 31 9
0.234516 -0.344068 1.191 13 31 9
0.236366 -0.344068 1.191 14 32 10
0.238216 -0.344068 1.191 14 32 10
0.240065 -0.344068 1.191 13 31 9
0.241915 -0.344068 1.191 10 28 6
0.243765 -0.344068 1.191 10 27 7
0.245614 -0.344068 1.191 9 26 6
0.247256 -0.343779 1.19 9 26 6
0.249104 -0.343779 1.19 8 25 5
0.250742 -0.34349 1.189 7 23 6
0.252801 -0.343779 1.19 7 23 6
0.254649 -0.343779 1.19 9 23 8
0.256281 -0.34349 1.189 8 22 7
0.258128 -0.34349 1.189 8 21 8
0.259974 -0.34349 1.189 8 21 8
0.261821 -0.34349 1.189 9 21 11
0.263668 -0.34349 1.189 11 23 13
0.265514 -0.34349 1.189 11 24 11
0.267361 -0.34349 1.189 11 24 11
0.269207 -0.34349 1.189 11 24 11
0.271282 -0.343779 1.19 11 24 11
0.27313 -0.343779 1.19 11 24 11
0.274978 -0.343779 1.19 11 24 11
0.277059 -0.344068 1.191 12 25 12
0.279143 -0.344357 1.192 11 24 11
0.280994 -0.344357 1.192 11 24 11
0.283082 -0.344646 1.193 11 24 11
0.287028 -0.344934 1.194 11 24 11
0.289124 -0.345223 1.195 11 25 10
0.291224 -0.345512 1.196 11 25 10
0.293081 -0.345512 1.196 11 25 10
0.295185 -0.345801 1.197 12 26 11
0.296796 -0.345512 1.196 12 26 11
0.298903 -0.345801 1.197 11 25 10
0.300762 -0.345801 1.197 12 26 11
0.302621 -0.345801 1.197 12 26 11
0.30448 -0.345801 1.197 12 26 11
0.305827 -0.345223 1.195 13 27 12
0.307683 -0.345223 1.195 12 26 11
0.309539 -0.345223 1.195 13 27 12
0.311134 -0.344934 1.194 13 27 10
0.312989 -0.344934 1.194 13 27 10
0.314579 -0.344646 1.193 13 27 10
0.316167 -0.344357 1.192 15 29 12
0.318285 -0.344646 1.193 15 29 12
0.319869 -0.344357 1.192 16 30 13
0.321721 -0.344357 1.192 17 31 14
0.323572 -0.344357 1.192 18 32 15
0.325423 -0.344357 1.192 16 30 13
0.327274 -0.344357 1.192 17 31 14
0.329125 -0.344357 1.192 14 30 13
0.330977 -0.344357 1.192 14 30 13
0.332828 -0.344357 1.192 16 32 15
0.334398 -0.344068 1.191 16 32 15
0.335966 -0.343779 1.19 17 33 16
0.337814 -0.343779 1.19 18 34 17
0.339376 -0.34349 1.189 18 34 17
0.340936 -0.343201 1.188 17 33 16
0.342492 -0.342912 1.187 17 33 16
0.344336 -0.342912 1.187 18 34 17
0.345888 -0.342623 1.186 18 34 17
0.347436 -0.342334 1.185 22 38 21
0.348982 -0.342046 1.184 11 27 12
0.350524 -0.341757 1.183 13 29 14
0.352362 -0.341757 1.183 14 30 15
0.354199 -0.341757 1.183 15 31 16
0.356036 -0.341757 1.183 15 30 17
0.357873 -0.341757 1.183 15 30 17
0.359711 -0.341757 1.183 14 28 18
0.361242 -0.341468 1.182 15 29 19
0.363078 -0.341468 1.182 10 19 17
0.364914 -0.341468 1.182 27 36 34
0.36706 -0.341757 1.183 46 55 54
0.368897 -0.341757 1.183 37 46 45
0.370734 -0.341757 1.183 33 42 41
0.372571 -0.341757 1.183 33 42 41
0.374725 -0.342046 1.184 33 40 44
0.376564 -0.342046 1.184 33 40 44
0.378722 -0.342334 1.185 34 41 45
0.380563 -0.342334 1.185 34 41 45
0.382403 -0.342334 1.185 34 41 45
0.384243 -0.342334 1.185 32 39 43
-0.16546 -0.339343 1.181 16 26 21
-0.163764 -0.33963 1.182 6 16 11
-0.161928 -0.33963 1.182 3 13 8
-0.160093 -0.33963 1.182 3 13 8
-0.158257 -0.33963 1.182 3 13 8
-0.156554 -0.339917 1.183 3 13 8
-0.154716 -0.339917 1.183 5 16 8
-0.153008 -0.340205 1.184 4 15 7
-0.15117 -0.340205 1.184 5 17 7
-0.149457 -0.340492 1.185 6 18 8
-0.147617 -0.340492 1.185 6 19 6
-0.145776 -0.340492 1.185 9 22 9
-0.144057 -0.340779 1.186 10 24 9
-0.142215 -0.340779 1.186 10 24 9
-0.140492 -0.341067 1.187 11 25 10
-0.138648 -0.341067 1.187 11 25 10
-0.136805 -0.341067 1.187 14 25 11
-0.134961 -0.341067 1.187 13 24 10
-0.133342 -0.341641 1.189 14 25 11
-0.131496 -0.341641 1.189 12 23 9
-0.129649 -0.341641 1.189 12 23 9
-0.12791 -0.341929 1.19 12 23 9
-0.126062 -0.341929 1.19 11 22 8
-0.124318 -0.342216 1.191 12 23 9
-0.12072 -0.342503 1.192 4 17 4
-0.11692 -0.342216 1.191 6 15 14
-0.0830975 -0.2836 0.987 16 14 52
-0.0815647 -0.2836 0.987 15 13 51
-0.0800318 -0.2836 0.987 16 11 56
-0.078499 -0.2836 0.987 13 8 53
-0.0769661 -0.2836 0.987 9 1 56
-0.0754333 -0.2836 0.987 9 1 56
-0.0739004 -0.2836 0.987 10 0 60
-0.0723676 -0.2836 0.987 7 0 57
-0.0708347 -0.2836 0.987 13 7 50
-0.0693019 -0.2836 0.987 65 59 102
-0.0678377 -0.283887 0.988 94 88 131
-0.0663033 -0.283887 0.988 90 84 127
-0.0647689 -0.283887 0.988 89 85 123
-0.0632345 -0.283887 0.988 88 84 122
-0.0617626 -0.284174 0.989 91 87 125
-0.0602266 -0.284174 0.989 91 87 125
-0.0586313 -0.283887 0.988 84 78 126
-0.0570969 -0.283887 0.988 41 35 83
-0.0555625 -0.283887 0.988 11 6 58
-0.0540281 -0.283887 0.988 13 8 60
-0.0524937 -0.283887 0.988 14 8 71
-0.0510109 -0.284174 0.989 20 14 77
-0.0494249 -0.283887 0.988 25 15 90
-0.0478906 -0.283887 0.988 34 24 99
-0.0463562 -0.283887 0.988 31 19 106
-0.0447764 -0.2836 0.987 30 18 105
-0.0432874 -0.283887 0.988 26 18 107
-0.0417107 -0.2836 0.987 25 17 106
-0.0401779 -0.2836 0.987 23 17 106
-0.038645 -0.2836 0.987 22 16 105
-0.0370746 -0.283312 0.986 20 16 106
-0.0355433 -0.283312 0.986 23 19 109
-0.034012 -0.283312 0.986 24 20 110
-0.0324807 -0.283312 0.986 27 23 113
-0.030918 -0.283025 0.985 29 25 115
-0.0293883 -0.283025 0.985 29 25 115
-0.0278585 -0.283025 0.985 28 23 116
-0.0263288 -0.283025 0.985 27 22 115
-0.0247991 -0.283025 0.985 27 22 115
-0.0232693 -0.283025 0.985 27 22 115
-0.0217396 -0.283025 0.985 27 22 115
-0.0202098 -0.283025 0.985 24 19 112
-0.0186801 -0.283025 0.985 34 25 116
-0.0171678 -0.283312 0.986 57 48 139
-0.0156365 -0.283312 0.986 69 59 148
-0.0141052 -0.283312 0.986 64 54 143
-0.0125739 -0.283312 0.986 60 51 137
-0.0110426 -0.283312 0.986 59 50 136
-0.00952096 -0.2836 0.987 60 46 138
-0.00798812 -0.2836 0.987 51 37 129
-0.00645527 -0.2836 0.987 29 17 111
-0.00492243 -0.2836 0.987 41 29 123
-0.00338959 -0.2836 0.987 43 32 130
-0.00185674 -0.2836 0.987 40 29 127
-0.000323896 -0.2836 0.987 29 18 116
0.00120895 -0.2836 0.987 38 27 125
0.00274457 -0.283887 0.988 38 28 129
0.00427897 -0.283887 0.988 29 19 120
0.00580748 -0.2836 0.987 23 13 114
0.00734033 -0.2836 0.987 19 9 110
0.00887317 -0.2836 0.987 18 7 110
0.010406 -0.2836 0.987 17 6 109
0.0119389 -0.2836 0.987 18 6 107
0.0134717 -0.2836 0.987 27 15 116
0.0150046 -0.2836 0.987 45 33 139
0.0165374 -0.2836 0.987 24 12 118
0.0180702 -0.2836 0.987 9 0 101
0.0196031 -0.2836 0.987 10 0 102
0.0211359 -0.2836 0.987 8 0 107
0.0226688 -0.2836 0.987 9 0 108
0.0242016 -0.2836 0.987 7 0 110
0.0257345 -0.2836 0.987 8 0 111
0.0272673 -0.2836 0.987 7 0 113
0.0288002 -0.2836 0.987 11 4 117
0.0303023 -0.283312 0.986 11 3 119
0.0318336 -0.283312 0.986 10 2 118
0.0333648 -0.283312 0.986 9 1 117
0.0348961 -0.283312 0.986 7 0 115
0.0364274 -0.283312 0.986 7 0 117
0.0379587 -0.283312 0.986 7 0 117
0.03949 -0.283312 0.986 7 0 117
0.0410213 -0.283312 0.986 7 0 117
0.0425958 -0.2836 0.987 7 0 115
0.0440839 -0.283312 0.986 12 0 120
0.0456614 -0.2836 0.987 16 3 125
0.0471943 -0.2836 0.987 15 2 124
0.0487271 -0.2836 0.987 20 3 132
0.05026 -0.2836 0.987 27 10 139
0.0517928 -0.2836 0.987 36 18 150
0.0533257 -0.2836 0.987 37 19 151
0.0548585 -0.2836 0.987 35 18 152
0.0563914 -0.2836 0.987 27 10 144
0.0579242 -0.2836 0.987 20 5 142
0.059457 -0.2836 0.987 27 12 149
0.0609899 -0.2836 0.987 33 20 157
0.0625227 -0.2836 0.987 36 23 160
0.0640556 -0.2836 0.987 38 26 161
0.0655884 -0.2836 0.987 40 28 163
0.0671213 -0.2836 0.987 41 28 159
0.0685846 -0.283312 0.986 41 28 159
0.0701158 -0.283312 0.986 44 31 162
0.0715745 -0.283025 0.985 42 29 160
0.07303 -0.282738 0.984 41 25 157
0.0745582 -0.282738 0.984 23 7 139
0.076009 -0.28245 0.983 28 15 146
0.0774568 -0.282163 0.982 34 21 152
0.0789014 -0.281876 0.981 35 21 154
0.080343 -0.281588 0.98 38 24 157
0.081865 -0.281588 0.98 38 25 156
0.0833869 -0.281588 0.98 38 25 156
0.0849089 -0.281588 0.98 38 25 156
0.0864309 -0.281588 0.98 33 20 151
0.0880426 -0.281876 0.981 26 15 140
0.0895661 -0.281876 0.981 27 16 141
0.0912754 -0.28245 0.983 33 22 147
0.092802 -0.28245 0.983 37 26 151
0.0945206 -0.283025 0.985 43 30 154
0.0961478 -0.283312 0.986 43 30 154
0.0977782 -0.2836 0.987 44 31 153
0.099311 -0.2836 0.987 40 27 149
0.100946 -0.283887 0.988 36 22 142
0.102584 -0.284174 0.989 31 17 137
0.10412 -0.284174 0.989 34 17 138
0.105656 -0.284174 0.989 36 19 140
0.1073 -0.284462 0.99 38 20 138
0.108838 -0.284462 0.99 24 6 124
0.110375 -0.284462 0.99 19 2 117
0.112026 -0.284749 0.991 21 4 119
0.11345 -0.284462 0.99 26 9 124
0.115104 -0.284749 0.991 21 4 119
0.116643 -0.284749 0.991 20 4 117
0.118182 -0.284749 0.991 19 3 116
0.119842 -0.285036 0.992 17 3 114
0.121383 -0.285036 0.992 20 6 117
0.122923 -0.285036 0.992 32 23 120
0.124464 -0.285036 0.992 27 18 115
0.126004 -0.285036 0.992 29 32 94
0.127674 -0.285324 0.993 34 37 99
0.169208 -0.341067 1.187 15 33 11
0.171051 -0.341067 1.187 15 33 11
0.173041 -0.341354 1.188 16 34 12
0.174886 -0.341354 1.188 17 35 13
0.176582 -0.341067 1.187 18 36 14
0.178576 -0.341354 1.188 18 36 14
0.180572 -0.341641 1.189 18 34 12
0.182419 -0.341641 1.189 20 36 14
0.184266 -0.341641 1.189 19 35 13
0.186112 -0.341641 1.189 19 35 13
0.187801 -0.341354 1.188 18 34 12
0.189646 -0.341354 1.188 17 33 11
0.191491 -0.341354 1.188 16 32 10
0.193336 -0.341354 1.188 16 32 10
0.195016 -0.341067 1.187 17 33 11
0.19686 -0.341067 1.187 18 34 12
0.198703 -0.341067 1.187 18 34 12
0.200378 -0.340779 1.186 19 35 13
0.202049 -0.340492 1.185 17 35 13
0.203889 -0.340492 1.185 17 35 13
0.20573 -0.340492 1.185 18 36 14
0.20757 -0.340492 1.185 17 35 13
0.209411 -0.340492 1.185 16 34 12
0.211073 -0.340205 1.184 17 35 13
0.212911 -0.340205 1.184 18 36 14
0.21475 -0.340205 1.184 18 36 14
0.216772 -0.340492 1.185 18 36 14
0.218612 -0.340492 1.185 18 36 14
0.220825 -0.341067 1.187 18 36 14
0.224701 -0.341354 1.188 17 35 13
0.226736 -0.341641 1.189 16 34 12
0.228775 -0.341929 1.19 14 32 10
0.230623 -0.341929 1.19 14 32 10
0.232862 -0.342503 1.192 15 33 11
0.234713 -0.342503 1.192 14 32 10
0.236565 -0.342503 1.192 15 33 11
0.238416 -0.342503 1.192 14 32 10
0.240267 -0.342503 1.192 15 30 10
0.242118 -0.342503 1.192 12 27 7
0.243969 -0.342503 1.192 12 27 7
0.245821 -0.342503 1.192 11 26 6
0.247464 -0.342216 1.191 12 27 7
0.249104 -0.341929 1.19 10 25 5
0.250953 -0.341929 1.19 9 23 8
0.252801 -0.341929 1.19 9 23 8
0.254649 -0.341929 1.19 8 21 8
0.256281 -0.341641 1.189 8 21 8
0.258128 -0.341641 1.189 8 20 10
0.259974 -0.341641 1.189 9 21 11
0.261821 -0.341641 1.189 9 21 11
0.263668 -0.341641 1.189 10 22 12
0.265514 -0.341641 1.189 11 24 11
0.267361 -0.341641 1.189 11 24 11
0.269207 -0.341641 1.189 11 24 11
0.271054 -0.341641 1.189 11 24 11
0.27313 -0.341929 1.19 11 24 11
0.274978 -0.341929 1.19 11 24 11
0.277059 -0.342216 1.191 12 24 14
0.279143 -0.342503 1.192 11 23 13
0.280994 -0.342503 1.192 11 24 11
0.283082 -0.342791 1.193 11 24 11
0.287028 -0.343078 1.194 11 24 11
0.289124 -0.343365 1.195 12 25 12
0.29098 -0.343365 1.195 12 25 12
0.292836 -0.343365 1.195 12 26 11
0.294692 -0.343365 1.195 12 26 11
0.296548 -0.343365 1.195 11 25 10
0.298404 -0.343365 1.195 12 26 11
0.30026 -0.343365 1.195 12 26 11
0.302116 -0.343365 1.195 12 26 11
0.303971 -0.343365 1.195 12 26 11
0.305571 -0.343078 1.194 13 27 12
0.307426 -0.343078 1.194 12 26 11
0.30928 -0.343078 1.194 12 26 11
0.310874 -0.342791 1.193 12 26 9
0.312727 -0.342791 1.193 13 27 10
0.314316 -0.342503 1.192 12 26 9
0.316432 -0.342791 1.193 15 29 12
0.318018 -0.342503 1.192 15 29 12
0.319869 -0.342503 1.192 15 29 12
0.321721 -0.342503 1.192 16 30 13
0.323572 -0.342503 1.192 16 30 13
0.325423 -0.342503 1.192 14 30 13
0.327274 -0.342503 1.192 15 31 14
0.328849 -0.342216 1.191 17 33 16
0.330699 -0.342216 1.191 16 32 15
0.332269 -0.341929 1.19 17 33 16
0.334117 -0.341929 1.19 15 31 14
0.335966 -0.341929 1.19 14 30 13
0.337814 -0.341929 1.19 14 30 13
0.339376 -0.341641 1.189 15 31 14
0.340649 -0.341067 1.187 18 34 17
0.342492 -0.341067 1.187 18 34 17
0.344046 -0.340779 1.186 18 34 17
0.345596 -0.340492 1.185 20 36 19
0.347436 -0.340492 1.185 18 34 17
0.348982 -0.340205 1.184 16 32 15
0.350524 -0.339917 1.183 14 30 13
0.352362 -0.339917 1.183 14 29 16
0.354199 -0.339917 1.183 15 30 17
0.356036 -0.339917 1.183 15 29 19
0.357873 -0.339917 1.183 15 29 19
0.359407 -0.33963 1.182 15 28 20
0.361242 -0.33963 1.182 14 27 19
0.363078 -0.33963 1.182 10 19 17
0.364914 -0.33963 1.182 27 36 34
0.366749 -0.33963 1.182 50 59 57
0.368897 -0.339917 1.183 33 42 40
0.370734 -0.339917 1.183 34 43 42
0.372571 -0.339917 1.183 34 43 42
0.374409 -0.339917 1.183 36 43 47
0.376246 -0.339917 1.183 34 41 45
0.378403 -0.340205 1.184 34 41 45
0.380241 -0.340205 1.184 34 41 45
0.382403 -0.340492 1.185 34 41 45
0.384243 -0.340492 1.185 33 40 44
-0.16546 -0.337506 1.181 10 17 13
-0.163764 -0.337792 1.182 5 12 8
-0.161928 -0.337792 1.182 5 12 8
-0.160093 -0.337792 1.182 6 13 9
-0.158257 -0.337792 1.182 5 12 8
-0.156554 -0.338078 1.183 5 12 8
-0.154716 -0.338078 1.183 6 14 7
-0.153008 -0.338364 1.184 5 13 6
-0.15117 -0.338364 1.184 6 15 6
-0.149457 -0.338649 1.185 6 15 6
-0.147617 -0.338649 1.185 8 18 6
-0.145776 -0.338649 1.185 11 21 9
-0.144057 -0.338935 1.186 12 23 9
-0.142335 -0.339221 1.187 14 25 11
-0.140492 -0.339221 1.187 14 25 11
-0.138648 -0.339221 1.187 14 25 11
-0.136805 -0.339221 1.187 14 25 11
-0.135075 -0.339507 1.188 13 24 10
-0.13323 -0.339507 1.188 13 24 10
-0.131385 -0.339507 1.188 11 22 8
-0.129649 -0.339792 1.189 12 23 9
-0.127803 -0.339792 1.189 12 23 9
-0.126062 -0.340078 1.19 12 23 9
-0.124214 -0.340078 1.19 13 24 10
-0.0940175 -0.282636 0.989 43 46 69
-0.0924816 -0.282636 0.989 38 37 70
-0.0908537 -0.282351 0.988 35 34 67
-0.0893193 -0.282351 0.988 37 33 76
-0.0877849 -0.282351 0.988 45 41 84
-0.0862505 -0.282351 0.988 57 51 101
-0.0846304 -0.282065 0.987 66 60 110
-0.0830975 -0.282065 0.987 60 54 109
-0.081482 -0.281779 0.986 56 50 105
-0.0799507 -0.281779 0.986 50 42 104
-0.0784194 -0.281779 0.986 42 34 96
-0.0768881 -0.281779 0.986 26 15 84
-0.0753569 -0.281779 0.986 19 8 77
-0.0738256 -0.281779 0.986 25 17 77
-0.0722943 -0.281779 0.986 27 19 79
-0.0708347 -0.282065 0.987 78 71 123
-0.0693019 -0.282065 0.987 103 96 148
-0.0677691 -0.282065 0.987 101 91 146
-0.0663033 -0.282351 0.988 103 93 148
-0.0647689 -0.282351 0.988 86 75 126
-0.0632345 -0.282351 0.988 50 39 90
-0.0617001 -0.282351 0.988 81 70 121
-0.0601657 -0.282351 0.988 89 78 129
-0.0586313 -0.282351 0.988 75 65 120
-0.0570969 -0.282351 0.988 44 34 89
-0.0555625 -0.282351 0.988 50 42 102
-0.0540281 -0.282351 0.988 55 47 107
-0.0524937 -0.282351 0.988 40 32 100
-0.0509593 -0.282351 0.988 16 8 76
-0.0494249 -0.282351 0.988 26 12 99
-0.0478421 -0.282065 0.987 44 30 117
-0.0463092 -0.282065 0.987 29 16 119
-0.0447764 -0.282065 0.987 29 16 119
-0.0431997 -0.281779 0.986 24 14 122
-0.0417107 -0.282065 0.987 24 14 122
-0.0401779 -0.282065 0.987 23 13 121
-0.0386059 -0.281779 0.986 21 11 119
-0.037037 -0.281493 0.985 23 15 123
-0.0355072 -0.281493 0.985 25 17 125
-0.0339775 -0.281493 0.985 21 16 123
-0.0324807 -0.281779 0.986 21 16 123
-0.0309494 -0.281779 0.986 21 15 124
-0.0294181 -0.281779 0.986 20 14 123
-0.0278585 -0.281493 0.985 17 11 120
-0.0263288 -0.281493 0.985 12 6 115
-0.0247991 -0.281493 0.985 13 7 116
-0.0232457 -0.281208 0.984 13 7 116
-0.0217396 -0.281493 0.985 18 9 119
-0.0202098 -0.281493 0.985 12 3 113
-0.0186801 -0.281493 0.985 16 2 113
-0.0171504 -0.281493 0.985 47 33 144
-0.0156206 -0.281493 0.985 47 33 144
-0.0140909 -0.281493 0.985 12 0 109
-0.0125611 -0.281493 0.985 17 1 112
-0.0110426 -0.281779 0.986 17 1 112
-0.00951132 -0.281779 0.986 19 3 116
-0.00798003 -0.281779 0.986 20 4 117
-0.00644873 -0.281779 0.986 19 4 119
-0.00492243 -0.282065 0.987 20 5 120
-0.00338959 -0.282065 0.987 24 8 126
-0.00185674 -0.282065 0.987 22 6 124
-0.000324224 -0.282351 0.988 22 6 124
0.00121017 -0.282351 0.988 26 10 128
0.00274179 -0.282065 0.987 23 7 125
0.00427897 -0.282351 0.988 18 2 120
0.00581337 -0.282351 0.988 17 1 119
0.00734033 -0.282065 0.987 17 1 119
0.00887317 -0.282065 0.987 22 6 124
0.010406 -0.282065 0.987 17 1 119
0.0119389 -0.282065 0.987 17 1 119
0.0134717 -0.282065 0.987 20 4 122
0.0150046 -0.282065 0.987 25 8 129
0.0165374 -0.282065 0.987 19 2 123
0.0180702 -0.282065 0.987 13 0 120
0.0196031 -0.282065 0.987 13 0 120
0.0211359 -0.282065 0.987 12 0 124
0.0226688 -0.282065 0.987 15 1 127
0.0242016 -0.282065 0.987 14 3 128
0.0257345 -0.282065 0.987 17 6 131
0.0272673 -0.282065 0.987 17 4 135
0.0288002 -0.282065 0.987 18 5 136
0.0303023 -0.281779 0.986 20 7 138
0.0318336 -0.281779 0.986 19 6 137
0.0333648 -0.281779 0.986 19 5 138
0.0348961 -0.281779 0.986 18 4 137
0.0364274 -0.281779 0.986 19 5 140
0.0379587 -0.281779 0.986 21 7 142
0.03949 -0.281779 0.986 23 9 144
0.0410213 -0.281779 0.986 23 9 144
0.0425526 -0.281779 0.986 34 20 155
0.0440839 -0.281779 0.986 39 25 160
0.0456152 -0.281779 0.986 37 22 159
0.0471465 -0.281779 0.986 33 18 155
0.0487271 -0.282065 0.987 40 24 164
0.05026 -0.282065 0.987 44 28 168
0.0517928 -0.282065 0.987 44 26 171
0.0533257 -0.282065 0.987 41 23 168
0.0548585 -0.282065 0.987 33 15 160
0.0563914 -0.282065 0.987 35 17 162
0.0579242 -0.282065 0.987 35 19 164
0.059457 -0.282065 0.987 43 27 172
0.0609899 -0.282065 0.987 42 29 172
0.0625861 -0.282351 0.988 42 29 172
0.0640556 -0.282065 0.987 42 29 172
0.0655884 -0.282065 0.987 43 30 173
0.0671213 -0.282065 0.987 33 21 161
0.0686541 -0.282065 0.987 23 11 151
0.0701158 -0.281779 0.986 24 11 148
0.0715745 -0.281493 0.985 22 9 146
0.07303 -0.281208 0.984 18 5 142
0.0744824 -0.280922 0.983 15 2 139
0.0759317 -0.280636 0.982 17 4 141
0.077299 -0.280064 0.98 18 5 142
0.0787406 -0.279779 0.979 18 4 144
0.080179 -0.279493 0.978 21 7 147
0.0816979 -0.279493 0.978 21 7 147
0.0832168 -0.279493 0.978 21 7 147
0.0847356 -0.279493 0.978 18 4 144
0.0862545 -0.279493 0.978 18 4 144
0.0878631 -0.279779 0.979 16 3 140
0.0894748 -0.280064 0.98 12 0 136
0.0910897 -0.28035 0.981 11 0 134
0.092802 -0.280922 0.983 11 0 134
0.0944246 -0.281208 0.984 11 0 134
0.0960503 -0.281493 0.985 11 0 134
0.0977782 -0.282065 0.987 11 0 132
0.0994116 -0.282351 0.988 10 0 131
0.100946 -0.282351 0.988 16 3 134
0.102584 -0.282636 0.989 20 7 138
0.10412 -0.282636 0.989 26 11 140
0.105763 -0.282922 0.99 26 11 140
0.1073 -0.282922 0.99 23 7 133
0.108838 -0.282922 0.99 15 0 125
0.110375 -0.282922 0.99 14 0 123
0.112026 -0.283208 0.991 14 0 123
0.113565 -0.283208 0.991 15 0 124
0.115104 -0.283208 0.991 15 0 124
0.116643 -0.283208 0.991 15 0 122
0.118182 -0.283208 0.991 14 0 121
0.119721 -0.283208 0.991 15 3 117
0.121383 -0.283494 0.992 17 5 119
0.122923 -0.283494 0.992 35 27 129
0.124464 -0.283494 0.992 31 23 125
0.125877 -0.283208 0.991 17 20 89
0.127545 -0.283494 0.992 35 38 107
0.169208 -0.339221 1.187 14 35 10
0.171196 -0.339507 1.188 14 35 10
0.173186 -0.339792 1.189 17 36 11
0.17518 -0.340078 1.19 18 37 12
0.177028 -0.340078 1.19 18 37 12
0.178876 -0.340078 1.19 17 36 11
0.180724 -0.340078 1.19 17 36 11
0.182572 -0.340078 1.19 18 37 12
0.184421 -0.340078 1.19 16 35 10
0.186269 -0.340078 1.19 17 36 11
0.188117 -0.340078 1.19 18 35 10
0.189965 -0.340078 1.19 19 36 11
0.191813 -0.340078 1.19 18 35 10
0.193498 -0.339792 1.189 18 35 10
0.195345 -0.339792 1.189 17 34 9
0.197191 -0.339792 1.189 17 34 9
0.198871 -0.339507 1.188 18 35 10
0.200547 -0.339221 1.187 19 36 11
0.20239 -0.339221 1.187 18 35 10
0.204234 -0.339221 1.187 19 36 11
0.20573 -0.338649 1.185 18 37 12
0.20757 -0.338649 1.185 18 37 12
0.209411 -0.338649 1.185 18 37 12
0.211251 -0.338649 1.185 20 39 14
0.213091 -0.338649 1.185 18 37 12
0.214932 -0.338649 1.185 20 39 14
0.216955 -0.338935 1.186 20 39 14
0.218981 -0.339221 1.187 20 39 14
0.220825 -0.339221 1.187 18 37 12
0.22489 -0.339792 1.189 18 37 12
0.226927 -0.340078 1.19 17 36 11
0.228775 -0.340078 1.19 16 34 12
0.231011 -0.34065 1.192 15 33 11
0.232862 -0.34065 1.192 15 33 11
0.234713 -0.34065 1.192 14 32 10
0.236565 -0.34065 1.192 15 33 11
0.238416 -0.34065 1.192 14 32 10
0.240267 -0.34065 1.192 15 30 10
0.242321 -0.340936 1.193 13 28 8
0.244174 -0.340936 1.193 10 27 7
0.245821 -0.34065 1.192 10 27 7
0.247672 -0.34065 1.192 10 27 7
0.249104 -0.340078 1.19 10 27 7
0.250953 -0.340078 1.19 8 24 7
0.252801 -0.340078 1.19 7 23 6
0.254649 -0.340078 1.19 9 23 8
0.256281 -0.339792 1.189 9 23 8
0.257911 -0.339507 1.188 10 22 12
0.259756 -0.339507 1.188 11 23 13
0.261601 -0.339507 1.188 10 22 12
0.263446 -0.339507 1.188 9 21 11
0.265514 -0.339792 1.189 11 24 11
0.267361 -0.339792 1.189 11 24 11
0.269207 -0.339792 1.189 10 23 10
0.271054 -0.339792 1.189 9 22 9
0.27313 -0.340078 1.19 10 23 10
0.274978 -0.340078 1.19 11 24 11
0.276826 -0.340078 1.19 11 24 11
0.279143 -0.34065 1.192 11 24 11
0.280994 -0.34065 1.192 12 25 12
0.282845 -0.34065 1.192 12 25 12
0.284935 -0.340936 1.193 11 24 11
0.288883 -0.341221 1.194 12 25 12
0.290737 -0.341221 1.194 12 25 12
0.292346 -0.340936 1.193 12 26 11
0.294199 -0.340936 1.193 12 26 11
0.2963 -0.341221 1.194 12 26 11
0.298154 -0.341221 1.194 13 27 12
0.300008 -0.341221 1.194 13 27 12
0.301863 -0.341221 1.194 13 27 12
0.303463 -0.340936 1.193 13 27 12
0.305315 -0.340936 1.193 13 27 12
0.307168 -0.340936 1.193 12 26 11
0.309021 -0.340936 1.193 12 26 11
0.310613 -0.34065 1.192 13 27 12
0.312464 -0.34065 1.192 16 30 15
0.314316 -0.34065 1.192 13 27 12
0.316167 -0.34065 1.192 16 30 15
0.318018 -0.34065 1.192 15 29 12
0.319869 -0.34065 1.192 13 27 10
0.321721 -0.34065 1.192 13 27 10
0.323572 -0.34065 1.192 13 27 10
0.325423 -0.34065 1.192 11 27 10
0.327274 -0.34065 1.192 13 29 12
0.328849 -0.340364 1.191 15 31 14
0.330699 -0.340364 1.191 16 32 15
0.332269 -0.340078 1.19 17 33 16
0.334117 -0.340078 1.19 16 32 15
0.335966 -0.340078 1.19 17 33 16
0.33753 -0.339792 1.189 18 34 17
0.339091 -0.339507 1.188 18 34 17
0.340649 -0.339221 1.187 18 34 17
0.342492 -0.339221 1.187 20 36 19
0.343756 -0.338649 1.185 18 34 17
0.345596 -0.338649 1.185 20 36 19
0.347436 -0.338649 1.185 18 34 17
0.348982 -0.338364 1.184 17 33 18
0.350524 -0.338078 1.183 14 30 15
0.352362 -0.338078 1.183 15 30 17
0.354199 -0.338078 1.183 15 30 17
0.356036 -0.338078 1.183 15 29 19
0.357571 -0.337792 1.182 15 29 19
0.359407 -0.337792 1.182 15 29 19
0.361242 -0.337792 1.182 14 28 18
0.363078 -0.337792 1.182 11 20 18
0.364914 -0.337792 1.182 27 36 34
0.366749 -0.337792 1.182 50 59 57
0.368585 -0.337792 1.182 32 41 39
0.370421 -0.337792 1.182 36 45 44
0.372256 -0.337792 1.182 34 43 42
0.374092 -0.337792 1.182 36 44 46
0.375928 -0.337792 1.182 33 41 43
0.377763 -0.337792 1.182 34 41 45
0.37992 -0.338078 1.183 37 44 48
0.381758 -0.338078 1.183 34 41 45
0.383271 -0.337792 1.182 32 39 43
-0.165319 -0.335386 1.18 3 13 8
-0.163625 -0.33567 1.181 3 13 8
-0.161928 -0.335954 1.182 3 13 8
-0.160093 -0.335954 1.182 4 14 9
-0.158257 -0.335954 1.182 2 12 7
-0.156554 -0.336238 1.183 3 13 8
-0.154716 -0.336238 1.183 3 14 6
-0.153008 -0.336523 1.184 3 14 6
-0.15117 -0.336523 1.184 3 15 5
-0.149457 -0.336807 1.185 3 15 5
-0.147617 -0.336807 1.185 9 22 9
-0.145899 -0.337091 1.186 9 22 9
-0.144057 -0.337091 1.186 9 23 8
-0.142335 -0.337375 1.187 10 24 9
-0.140492 -0.337375 1.187 11 25 10
-0.138648 -0.337375 1.187 11 25 10
-0.13692 -0.33766 1.188 12 26 11
-0.134961 -0.337375 1.187 10 24 9
-0.133118 -0.337375 1.187 10 24 9
-0.131385 -0.33766 1.188 10 24 9
-0.12954 -0.33766 1.188 10 24 9
-0.127803 -0.337944 1.189 11 25 10
-0.126062 -0.338228 1.19 11 25 10
-0.0956501 -0.281383 0.99 82 82 118
-0.0940175 -0.281099 0.989 65 65 101
-0.0923881 -0.280814 0.988 60 55 107
-0.0908537 -0.280814 0.988 54 49 101
-0.0892289 -0.28053 0.987 44 36 98
-0.0877849 -0.280814 0.988 51 43 105
-0.0861632 -0.28053 0.987 65 56 120
-0.0845446 -0.280246 0.986 79 70 134
-0.0830975 -0.28053 0.987 83 76 142
-0.081482 -0.280246 0.986 90 83 149
-0.0799507 -0.280246 0.986 97 88 159
-0.0783399 -0.279962 0.985 84 75 146
-0.0768102 -0.279962 0.985 27 16 85
-0.0752804 -0.279962 0.985 41 30 99
-0.0738256 -0.280246 0.986 102 92 154
-0.0722943 -0.280246 0.986 103 93 155
-0.070763 -0.280246 0.986 103 91 153
-0.0693019 -0.28053 0.987 95 83 145
-0.0677691 -0.28053 0.987 77 68 120
-0.0661691 -0.280246 0.986 96 87 139
-0.0647034 -0.28053 0.987 68 60 110
-0.0632345 -0.280814 0.988 50 42 92
-0.0616377 -0.28053 0.987 48 42 92
-0.0601657 -0.280814 0.988 53 47 97
-0.0586313 -0.280814 0.988 59 51 106
-0.0570969 -0.280814 0.988 73 65 120
-0.0555625 -0.280814 0.988 90 82 142
-0.0540281 -0.280814 0.988 89 81 141
-0.0524937 -0.280814 0.988 74 67 138
-0.0509078 -0.28053 0.987 16 9 80
-0.0493749 -0.28053 0.987 24 10 102
-0.0478421 -0.28053 0.987 37 23 115
-0.0462623 -0.280246 0.986 22 6 117
-0.0447764 -0.28053 0.987 22 6 117
-0.0431997 -0.280246 0.986 16 6 120
-0.0416684 -0.280246 0.986 15 5 119
-0.0401371 -0.280246 0.986 13 6 119
-0.0385667 -0.279962 0.985 23 16 129
-0.037037 -0.279962 0.985 27 19 135
-0.0355072 -0.279962 0.985 19 11 127
-0.0339775 -0.279962 0.985 13 5 121
-0.0324477 -0.279962 0.985 14 6 122
-0.030918 -0.279962 0.985 16 8 124
-0.0293883 -0.279962 0.985 14 6 122
-0.0278303 -0.279678 0.984 13 5 121
-0.0263021 -0.279678 0.984 13 5 121
-0.0247739 -0.279678 0.984 13 5 121
-0.0232457 -0.279678 0.984 13 5 121
-0.0217175 -0.279678 0.984 14 6 122
-0.0201893 -0.279678 0.984 14 6 122
-0.0186611 -0.279678 0.984 14 0 121
-0.017133 -0.279678 0.984 21 6 128
-0.0156048 -0.279678 0.984 17 2 124
-0.0140766 -0.279678 0.984 14 0 121
-0.0125611 -0.279962 0.985 16 0 121
-0.0110314 -0.279962 0.985 16 0 121
-0.00950167 -0.279962 0.985 17 0 122
-0.00797193 -0.279962 0.985 18 0 123
-0.00644873 -0.280246 0.986 24 6 131
-0.00491744 -0.280246 0.986 24 6 131
-0.00338959 -0.28053 0.987 25 7 132
-0.00185674 -0.28053 0.987 26 8 133
-0.000323896 -0.28053 0.987 24 8 134
0.00121017 -0.280814 0.988 24 8 134
0.00274457 -0.280814 0.988 22 6 132
0.00427897 -0.280814 0.988 22 6 132
0.00581337 -0.280814 0.988 22 5 134
0.00734776 -0.280814 0.988 22 5 134
0.00888216 -0.280814 0.988 21 4 133
0.0104166 -0.280814 0.988 22 5 134
0.011951 -0.280814 0.988 22 5 134
0.0134717 -0.28053 0.987 22 5 134
0.0150046 -0.28053 0.987 36 19 148
0.0165374 -0.28053 0.987 23 6 135
0.0180885 -0.280814 0.988 18 2 134
0.0196031 -0.28053 0.987 21 5 137
0.0211359 -0.28053 0.987 23 9 144
0.0226688 -0.28053 0.987 23 9 144
0.0242261 -0.280814 0.988 23 8 145
0.0257345 -0.28053 0.987 23 8 145
0.0272673 -0.28053 0.987 22 8 148
0.0288002 -0.28053 0.987 22 8 148
0.0303023 -0.280246 0.986 25 10 153
0.0318336 -0.280246 0.986 23 8 151
0.0333648 -0.280246 0.986 23 7 152
0.0348961 -0.280246 0.986 24 8 153
0.0364274 -0.280246 0.986 28 11 159
0.0379587 -0.280246 0.986 32 15 163
0.03949 -0.280246 0.986 36 19 167
0.0410213 -0.280246 0.986 37 20 168
0.0425526 -0.280246 0.986 37 20 168
0.0440839 -0.280246 0.986 36 19 167
0.0456152 -0.280246 0.986 35 18 167
0.0471943 -0.28053 0.987 35 18 167
0.0487271 -0.28053 0.987 36 19 168
0.05026 -0.28053 0.987 38 21 170
0.0517928 -0.28053 0.987 40 22 174
0.0533257 -0.28053 0.987 33 15 167
0.0549141 -0.280814 0.988 19 1 153
0.0564485 -0.280814 0.988 25 7 159
0.0579829 -0.280814 0.988 30 14 166
0.0595173 -0.280814 0.988 24 8 160
0.0609899 -0.28053 0.987 21 6 155
0.0625861 -0.280814 0.988 21 6 155
0.0641205 -0.280814 0.988 19 4 152
0.0656549 -0.280814 0.988 27 12 160
0.0671213 -0.28053 0.987 13 0 144
0.0686541 -0.28053 0.987 10 0 141
0.0701158 -0.280246 0.986 10 0 140
0.0715745 -0.279962 0.985 12 0 142
0.0729558 -0.279393 0.983 12 0 142
0.0744066 -0.279109 0.982 14 1 144
0.0758544 -0.278825 0.981 16 3 146
0.0772202 -0.278256 0.979 16 3 146
0.0786602 -0.277972 0.978 16 3 146
0.080097 -0.277688 0.977 12 0 142
0.0816144 -0.277688 0.977 12 0 142
0.0831317 -0.277688 0.977 10 0 140
0.084649 -0.277688 0.977 10 0 138
0.0861663 -0.277688 0.977 15 3 143
0.0877734 -0.277972 0.978 17 3 143
0.0894748 -0.278541 0.98 17 3 143
0.0910897 -0.278825 0.981 17 4 141
0.0927076 -0.279109 0.982 12 0 136
0.0944246 -0.279678 0.984 10 0 133
0.0960503 -0.279962 0.985 10 0 133
0.0977782 -0.28053 0.987 10 0 133
0.0994116 -0.280814 0.988 11 0 134
0.100946 -0.280814 0.988 16 4 137
0.102584 -0.281099 0.989 15 3 136
0.104225 -0.281383 0.99 17 3 136
0.105763 -0.281383 0.99 17 3 136
0.1073 -0.281383 0.99 14 1 132
0.108838 -0.281383 0.99 16 3 134
0.110487 -0.281667 0.991 18 3 132
0.112026 -0.281667 0.991 18 3 132
0.113565 -0.281667 0.991 18 3 132
0.115104 -0.281667 0.991 18 3 132
0.116643 -0.281667 0.991 16 2 128
0.118182 -0.281667 0.991 18 4 130
0.119721 -0.281667 0.991 18 6 126
0.12126 -0.281667 0.991 18 6 126
0.122923 -0.281951 0.992 32 24 132
0.124464 -0.281951 0.992 18 10 118
0.125877 -0.281667 0.991 10 12 84
0.127545 -0.281951 0.992 32 34 106
0.169351 -0.33766 1.188 14 35 10
0.17134 -0.337944 1.189 14 35 10
0.173332 -0.338228 1.19 16 35 10
0.17518 -0.338228 1.19 17 36 11
0.177028 -0.338228 1.19 16 35 10
0.179027 -0.338512 1.191 16 35 10
0.180876 -0.338512 1.191 16 35 10
0.182879 -0.338796 1.192 16 35 10
0.18473 -0.338796 1.192 16 35 10
0.186582 -0.338796 1.192 16 35 10
0.188275 -0.338512 1.191 16 35 10
0.190125 -0.338512 1.191 16 35 10
0.191974 -0.338512 1.191 15 34 9
0.193661 -0.338228 1.19 16 35 10
0.195509 -0.338228 1.19 16 35 10
0.197357 -0.338228 1.19 16 35 10
0.199038 -0.337944 1.189 16 35 10
0.200716 -0.33766 1.188 17 36 11
0.202561 -0.33766 1.188 16 35 10
0.204234 -0.337375 1.187 16 35 10
0.206077 -0.337375 1.187 18 37 12
0.20757 -0.336807 1.185 18 37 12
0.209411 -0.336807 1.185 20 39 14
0.211251 -0.336807 1.185 20 39 14
0.213091 -0.336807 1.185 18 37 12
0.215113 -0.337091 1.186 18 37 12
0.216955 -0.337091 1.186 18 37 12
0.218981 -0.337375 1.187 18 37 12
0.222856 -0.33766 1.188 18 37 12
0.22489 -0.337944 1.189 18 37 12
0.226927 -0.338228 1.19 18 37 12
0.228967 -0.338512 1.191 18 36 14
0.231011 -0.338796 1.192 15 33 11
0.233057 -0.339081 1.193 14 32 10
0.23491 -0.339081 1.193 14 32 10
0.236763 -0.339081 1.193 16 34 12
0.238616 -0.339081 1.193 14 32 10
0.24067 -0.339365 1.194 15 30 10
0.242524 -0.339365 1.194 13 28 8
0.244379 -0.339365 1.194 11 28 8
0.246027 -0.339081 1.193 11 28 8
0.247672 -0.338796 1.192 10 27 7
0.249523 -0.338796 1.192 10 27 7
0.250953 -0.338228 1.19 12 26 9
0.252801 -0.338228 1.19 11 25 8
0.254435 -0.337944 1.189 10 24 9
0.256281 -0.337944 1.189 10 24 9
0.257911 -0.33766 1.188 11 24 11
0.259756 -0.33766 1.188 11 24 11
0.261601 -0.33766 1.188 11 23 13
0.263446 -0.33766 1.188 11 23 13
0.265291 -0.33766 1.188 11 24 11
0.267361 -0.337944 1.189 10 23 10
0.269207 -0.337944 1.189 9 22 9
0.271054 -0.337944 1.189 9 22 9
0.27313 -0.338228 1.19 9 22 9
0.274978 -0.338228 1.19 11 24 11
0.276826 -0.338228 1.19 11 24 11
0.278908 -0.338512 1.191 12 25 12
0.280994 -0.338796 1.192 12 24 14
0.282845 -0.338796 1.192 11 23 13
0.284696 -0.338796 1.192 10 23 10
0.286547 -0.338796 1.192 11 24 11
0.288641 -0.339081 1.193 12 25 12
0.29025 -0.338796 1.192 12 25 12
0.292101 -0.338796 1.192 12 25 12
0.293952 -0.338796 1.192 12 25 12
0.295803 -0.338796 1.192 12 26 11
0.297655 -0.338796 1.192 13 27 12
0.299506 -0.338796 1.192 15 29 14
0.301357 -0.338796 1.192 13 27 12
0.303208 -0.338796 1.192 13 27 12
0.30506 -0.338796 1.192 13 27 12
0.306911 -0.338796 1.192 11 25 10
0.308762 -0.338796 1.192 12 26 11
0.310613 -0.338796 1.192 12 26 11
0.312464 -0.338796 1.192 12 26 11
0.314579 -0.339081 1.193 12 26 11
0.316432 -0.339081 1.193 12 26 11
0.318285 -0.339081 1.193 13 27 12
0.320138 -0.339081 1.193 13 27 12
0.321721 -0.338796 1.192 13 27 12
0.323843 -0.339081 1.193 13 27 12
0.325423 -0.338796 1.192 11 27 12
0.327274 -0.338796 1.192 11 27 12
0.328849 -0.338512 1.191 13 29 14
0.330421 -0.338228 1.19 14 30 15
0.332269 -0.338228 1.19 16 32 17
0.333837 -0.337944 1.189 17 33 18
0.335683 -0.337944 1.189 21 37 22
0.336962 -0.337375 1.187 20 36 21
0.338806 -0.337375 1.187 18 34 19
0.340649 -0.337375 1.187 18 34 19
0.342204 -0.337091 1.186 18 34 17
0.343756 -0.336807 1.185 20 36 19
0.345596 -0.336807 1.185 21 37 20
0.347143 -0.336523 1.184 18 34 17
0.348687 -0.336238 1.183 18 34 17
0.350524 -0.336238 1.183 16 32 15
0.352362 -0.336238 1.183 17 33 18
0.354199 -0.336238 1.183 16 32 17
0.355735 -0.335954 1.182 15 29 19
0.357571 -0.335954 1.182 14 28 18
0.359407 -0.335954 1.182 14 27 19
0.361242 -0.335954 1.182 14 27 19
0.363078 -0.335954 1.182 12 21 19
0.364914 -0.335954 1.182 32 41 39
0.366749 -0.335954 1.182 50 59 57
0.368585 -0.335954 1.182 32 41 39
0.370421 -0.335954 1.182 38 47 46
0.371941 -0.33567 1.181 38 47 46
0.373776 -0.33567 1.181 39 46 50
0.37561 -0.33567 1.181 36 43 47
0.377124 -0.335386 1.18 36 43 47
0.379278 -0.33567 1.181 37 44 48
0.380789 -0.335386 1.18 36 43 47
0.382946 -0.33567 1.181 31 38 42
-0.165319 -0.333551 1.18 4 11 7
-0.163625 -0.333834 1.181 5 12 8
-0.161928 -0.334116 1.182 6 13 9
-0.160093 -0.334116 1.182 6 13 9
-0.158257 -0.334116 1.182 5 12 8
-0.156554 -0.334399 1.183 6 13 9
-0.154847 -0.334682 1.184 6 14 7
