ply
format ascii 1.0
comment Created by Open3D
element vertex 1347
property double x
property double y
property double z
property uchar red
property uchar green
property uchar blue
end_header
-0.0922502 -0.0842375 1.183 18 33 13
-0.0904129 -0.0842375 1.183 18 33 13
-0.0885757 -0.0842375 1.183 17 32 12
-0.0867385 -0.0842375 1.183 16 31 11
-0.084973 -0.0843087 1.184 16 31 11
-0.0832044 -0.0843799 1.185 16 31 11
-0.0813641 -0.0843799 1.185 17 32 12
-0.0796579 -0.0845223 1.187 16 31 11
-0.07788 -0.0845935 1.188 16 31 11
-0.0743149 -0.0847359 1.19 16 31 11
-0.0725277 -0.0848071 1.191 16 31 11
-0.0707967 -0.0849495 1.193 15 30 10
-0.0690596 -0.0850919 1.195 13 28 8
-0.0672037 -0.0850919 1.195 13 28 8
-0.0654025 -0.0851631 1.196 12 27 7
-0.0635982 -0.0852344 1.197 15 30 10
-0.0617908 -0.0853056 1.198 17 32 12
-0.0599303 -0.0853056 1.198 17 32 12
-0.0580697 -0.0853056 1.198 16 31 11
-0.0562092 -0.0853056 1.198 13 28 8
-0.0543033 -0.0852344 1.197 12 27 7
-0.0524443 -0.0852344 1.197 12 27 7
-0.0505008 -0.0850919 1.195 13 28 8
-0.0486042 -0.0850207 1.194 15 30 10
-0.0466716 -0.0848783 1.192 15 30 10
-0.0447452 -0.0847359 1.19 16 31 11
-0.042861 -0.0846647 1.189 13 28 8
-0.04098 -0.0845935 1.188 13 27 10
-0.039102 -0.0845223 1.187 13 27 10
-0.0372586 -0.0845223 1.187 13 27 10
-0.0354151 -0.0845223 1.187 13 27 10
-0.0335434 -0.0844511 1.186 15 29 12
-0.0317282 -0.0845223 1.187 13 27 10
-0.0298596 -0.0844511 1.186 13 27 10
-0.0280177 -0.0844511 1.186 12 26 9
-0.0261978 -0.0845223 1.187 15 29 12
-0.0243339 -0.0844511 1.186 16 30 13
-0.022492 -0.0844511 1.186 13 27 10
-0.0206327 -0.0843799 1.185 12 26 9
-0.0187923 -0.0843799 1.185 13 27 10
-0.016952 -0.0843799 1.185 16 30 13
-0.0151116 -0.0843799 1.185 16 30 13
-0.0132713 -0.0843799 1.185 15 29 12
-0.0114309 -0.0843799 1.185 15 29 12
-0.0095906 -0.0843799 1.185 16 30 13
-0.00775025 -0.0843799 1.185 15 29 12
-0.00590991 -0.0843799 1.185 12 26 9
-0.004073 -0.0844511 1.186 12 26 9
-0.00223298 -0.0845223 1.187 13 27 10
-0.000389528 -0.0845223 1.187 13 27 10
0.00145515 -0.0845935 1.188 13 27 10
0.00330015 -0.0845935 1.188 13 27 10
0.00514949 -0.0846647 1.189 13 27 10
0.00700193 -0.0847359 1.19 13 27 10
0.00885004 -0.0847359 1.19 13 27 10
0.0106982 -0.0847359 1.19 13 27 10
0.0125463 -0.0847359 1.19 13 27 10
0.0143944 -0.0847359 1.19 13 27 10
0.0162288 -0.0846647 1.189 13 27 10
0.0180602 -0.0845935 1.188 12 26 9
0.0198884 -0.0845223 1.187 11 25 8
0.0217136 -0.0844511 1.186 12 26 9
0.0235356 -0.0843799 1.185 12 26 9
0.025376 -0.0843799 1.185 11 25 8
0.0271933 -0.0843087 1.184 12 26 9
0.0289831 -0.0841663 1.182 13 27 10
0.0308188 -0.0841663 1.182 10 24 7
0.0326545 -0.0841663 1.182 11 25 8
0.0344902 -0.0841663 1.182 10 24 7
0.0363258 -0.0841663 1.182 10 24 9
0.0381615 -0.0841663 1.182 11 25 10
0.0399972 -0.0841663 1.182 11 25 10
0.0418329 -0.0841663 1.182 11 25 10
0.0436686 -0.0841663 1.182 11 25 10
0.0454658 -0.084095 1.181 10 24 9
0.04734 -0.0841663 1.182 10 24 9
0.0491756 -0.0841663 1.182 10 24 9
0.0510113 -0.0841663 1.182 10 24 9
0.052847 -0.0841663 1.182 10 24 9
0.0546827 -0.0841663 1.182 9 23 8
0.0565184 -0.0841663 1.182 9 23 8
0.0583047 -0.084095 1.181 9 23 8
0.0601388 -0.084095 1.181 8 22 7
0.061973 -0.084095 1.181 5 19 4
0.0637531 -0.0840238 1.18 4 18 3
0.0655857 -0.0840238 1.18 4 17 4
0.0674182 -0.0840238 1.18 4 17 4
0.0691921 -0.0839526 1.179 4 17 4
0.0709629 -0.0838814 1.178 5 18 5
0.0727306 -0.0838102 1.177 6 15 6
0.0743685 -0.0835966 1.174 5 14 5
0.0759321 -0.0833118 1.17 5 14 5
0.0775498 -0.0830982 1.167 6 15 6
0.0791582 -0.0828845 1.164 5 14 5
0.0808268 -0.0827421 1.162 5 14 5
0.0824892 -0.0825997 1.16 4 12 5
0.0842181 -0.0825285 1.159 4 12 5
0.0857954 -0.0823149 1.156 0 6 2
0.0873634 -0.0821013 1.153 0 4 0
0.0888447 -0.0818164 1.149 2 11 10
0.0903137 -0.0815316 1.145 34 43 42
0.0918506 -0.081318 1.142 36 44 51
0.0929683 -0.0807483 1.134 34 42 49
0.0957248 -0.0801075 1.125 23 30 39
0.0971254 -0.0798226 1.121 20 27 43
0.100522 -0.0783985 1.101 71 82 100
0.101954 -0.0781849 1.098 65 76 94
0.103376 -0.0779713 1.095 53 64 82
0.104884 -0.0778289 1.093 54 65 83
0.106484 -0.0777577 1.092 59 70 88
0.108081 -0.0776864 1.091 60 70 90
0.109675 -0.0776152 1.09 62 72 92
0.111163 -0.0774728 1.088 62 72 94
0.112853 -0.0774728 1.088 62 72 94
0.114332 -0.0773304 1.086 64 73 98
0.115912 -0.0772592 1.085 64 73 98
0.11738 -0.0771168 1.083 65 74 99
0.118952 -0.0770456 1.082 65 74 99
0.120521 -0.0769744 1.081 63 75 99
0.122087 -0.0769032 1.08 63 75 99
0.123764 -0.0769032 1.08 63 75 99
0.125441 -0.0769032 1.08 62 74 98
0.127001 -0.076832 1.079 66 78 102
0.128438 -0.0766896 1.077 66 78 102
0.130111 -0.0766896 1.077 66 78 102
0.131539 -0.0765471 1.075 63 75 99
0.133208 -0.0765471 1.075 64 76 100
0.134752 -0.0764759 1.074 64 76 100
0.136293 -0.0764047 1.073 64 76 100
0.13796 -0.0764047 1.073 64 76 100
0.139496 -0.0763335 1.072 65 77 101
0.141161 -0.0763335 1.072 65 77 101
0.142692 -0.0762623 1.071 65 77 101
0.144221 -0.0761911 1.07 65 77 101
0.145883 -0.0761911 1.07 65 77 101
0.147406 -0.0761199 1.069 66 78 102
0.148927 -0.0760487 1.068 66 78 102
0.150304 -0.0759063 1.066 65 77 101
0.151817 -0.0758351 1.065 65 77 101
0.153327 -0.0757639 1.064 64 76 100
0.154833 -0.0756927 1.063 64 76 100
0.156337 -0.0756215 1.062 67 79 103
0.157838 -0.0755502 1.061 67 79 103
0.159335 -0.075479 1.06 67 79 103
0.160981 -0.075479 1.06 67 79 103
0.162474 -0.0754078 1.059 69 81 105
0.164119 -0.0754078 1.059 65 79 103
0.165763 -0.0754078 1.059 65 79 103
0.16725 -0.0753366 1.058 64 78 102
0.169053 -0.0754078 1.059 64 78 102
0.170697 -0.0754078 1.059 65 79 103
0.172179 -0.0753366 1.058 67 81 105
0.173822 -0.0753366 1.058 61 76 102
0.175466 -0.0753366 1.058 54 69 95
0.176941 -0.0752654 1.057 56 69 100
0.178414 -0.0751942 1.056 56 69 100
0.179883 -0.075123 1.055 70 86 116
0.18135 -0.0750518 1.054 100 116 146
0.182639 -0.0749094 1.052 105 122 150
0.183923 -0.074767 1.05 99 116 144
0.1852 -0.0746246 1.048 98 117 140
0.186649 -0.0745534 1.047 89 108 131
0.188096 -0.0744821 1.046 84 101 122
0.189357 -0.0743397 1.044 72 89 110
0.190796 -0.0742685 1.043 60 75 94
0.192416 -0.0742685 1.043 58 73 92
0.193849 -0.0741973 1.042 75 83 105
0.195468 -0.0741973 1.042 80 88 110
0.197086 -0.0741973 1.042 116 124 146
0.198704 -0.0741973 1.042 145 153 175
0.200322 -0.0741973 1.042 129 146 167
0.201941 -0.0741973 1.042 122 139 160
0.203754 -0.0742685 1.043 124 148 170
0.205374 -0.0742685 1.043 125 149 171
0.207391 -0.0744109 1.045 127 152 171
0.209014 -0.0744109 1.045 125 150 169
0.210637 -0.0744109 1.045 142 162 180
0.212463 -0.0744821 1.046 151 171 189
0.214292 -0.0745534 1.047 138 155 169
0.216124 -0.0746246 1.048 90 107 121
0.21796 -0.0746958 1.049 27 37 44
0.261601 -0.0845935 1.188 16 30 15
0.263446 -0.0845935 1.188 16 30 15
0.265737 -0.0847359 1.19 16 30 15
0.267586 -0.0847359 1.19 13 27 12
0.269434 -0.0847359 1.19 13 27 10
0.271282 -0.0847359 1.19 16 30 13
0.27313 -0.0847359 1.19 16 30 13
0.274978 -0.0847359 1.19 16 30 13
0.276593 -0.0846647 1.189 15 29 12
0.277972 -0.0845223 1.187 16 30 13
0.279579 -0.0844511 1.186 16 30 13
0.281184 -0.0843799 1.185 16 30 13
0.283024 -0.0843799 1.185 15 29 12
0.284624 -0.0843087 1.184 12 26 9
0.286221 -0.0842375 1.183 15 29 12
0.288058 -0.0842375 1.183 16 30 13
0.289651 -0.0841663 1.182 16 30 13
0.291486 -0.0841663 1.182 15 29 12
0.293322 -0.0841663 1.182 15 29 12
0.295158 -0.0841663 1.182 16 30 13
0.296742 -0.084095 1.181 15 29 14
0.298323 -0.0840238 1.18 15 29 14
0.30041 -0.084095 1.181 15 29 12
0.301989 -0.0840238 1.18 13 27 10
0.303821 -0.0840238 1.18 16 30 13
0.305913 -0.084095 1.181 13 27 10
0.307747 -0.084095 1.181 13 27 10
0.309843 -0.0841663 1.182 12 26 9
0.311942 -0.0842375 1.183 13 27 10
0.31378 -0.0842375 1.183 13 27 10
0.316151 -0.0843799 1.185 15 29 12
0.318528 -0.0845223 1.187 16 30 13
0.320371 -0.0845223 1.187 17 32 12
0.322486 -0.0845935 1.188 18 33 13
0.324604 -0.0846647 1.189 19 34 14
0.326725 -0.0847359 1.19 20 35 15
0.328573 -0.0847359 1.19 22 37 17
0.330421 -0.0847359 1.19 22 37 17
0.332549 -0.0848071 1.191 23 38 18
0.334398 -0.0848071 1.191 24 39 19
0.335966 -0.0847359 1.19 26 42 20
0.337814 -0.0847359 1.19 30 46 24
0.339662 -0.0847359 1.19 35 48 27
0.34151 -0.0847359 1.19 39 52 31
0.343358 -0.0847359 1.19 47 60 39
0.345206 -0.0847359 1.19 49 62 41
0.347054 -0.0847359 1.19 36 52 30
0.348902 -0.0847359 1.19 30 46 24
0.35075 -0.0847359 1.19 28 46 24
0.352302 -0.0846647 1.189 30 48 26
0.353851 -0.0845935 1.188 30 48 26
0.355397 -0.0845223 1.187 31 49 27
0.356638 -0.0843799 1.185 32 50 28
0.357873 -0.0842375 1.183 35 53 31
0.359407 -0.0841663 1.182 27 43 26
0.360325 -0.0839526 1.179 13 29 12
0.361542 -0.0838102 1.177 20 34 17
0.362135 -0.0835254 1.173 20 34 17
0.362716 -0.0832406 1.169 24 35 21
0.363908 -0.0830982 1.167 20 31 17
0.362273 -0.0823149 1.156 15 25 13
0.362493 -0.0819588 1.151 27 37 25
0.363206 -0.081318 1.142 120 129 120
0.364021 -0.0811044 1.139 127 134 130
0.365469 -0.0810332 1.138 131 138 134
0.368204 -0.0812468 1.141 131 136 139
0.371273 -0.0815316 1.145 70 75 78
-0.163498 -0.0812836 1.167 8 18 6
-0.161963 -0.0814229 1.169 11 21 9
-0.160421 -0.0815622 1.171 11 21 9
-0.158874 -0.0817015 1.173 11 21 9
-0.15732 -0.0818408 1.175 11 21 9
-0.15576 -0.0819801 1.177 10 20 8
-0.152362 -0.0821194 1.179 11 21 9
-0.150786 -0.0822587 1.181 11 22 8
-0.149078 -0.0823284 1.182 15 26 12
-0.147617 -0.0825373 1.185 13 24 8
-0.146022 -0.0826766 1.187 15 26 10
-0.144179 -0.0826766 1.187 21 33 14
-0.142575 -0.0828159 1.189 21 33 14
-0.140847 -0.0828856 1.19 21 33 14
-0.138999 -0.0828856 1.19 21 33 14
-0.137035 -0.0828159 1.189 21 33 14
-0.135075 -0.0827463 1.188 21 33 14
-0.13323 -0.0827463 1.188 20 32 13
-0.131275 -0.0826766 1.187 21 33 14
-0.129431 -0.0826766 1.187 20 32 13
-0.12748 -0.082607 1.186 21 33 14
-0.125638 -0.082607 1.186 21 33 14
-0.123796 -0.082607 1.186 21 33 14
-0.121954 -0.082607 1.186 21 33 14
-0.120113 -0.082607 1.186 20 32 13
-0.118271 -0.082607 1.186 20 32 13
-0.116527 -0.0826766 1.187 20 32 13
-0.114587 -0.082607 1.186 20 32 13
-0.112745 -0.082607 1.186 20 32 13
-0.110903 -0.082607 1.186 21 33 14
-0.109153 -0.0826766 1.187 19 31 12
-0.107219 -0.082607 1.186 18 30 11
-0.105377 -0.082607 1.186 19 31 12
-0.103448 -0.0825373 1.185 19 31 12
-0.101608 -0.0825373 1.185 19 31 12
-0.0997675 -0.0825373 1.185 18 30 11
-0.0978445 -0.0824677 1.184 19 31 12
-0.0959247 -0.082398 1.183 20 32 13
-0.0940079 -0.0823284 1.182 20 32 13
-0.0922502 -0.082398 1.183 20 32 13
-0.0903365 -0.0823284 1.182 20 32 13
-0.0885008 -0.0823284 1.182 19 31 12
-0.0866651 -0.0823284 1.182 19 31 12
-0.0849012 -0.082398 1.183 19 31 12
-0.083064 -0.082398 1.183 19 31 12
-0.0813641 -0.0825373 1.185 19 31 12
-0.0795237 -0.0825373 1.185 18 30 11
-0.0778145 -0.0826766 1.187 18 30 11
-0.076035 -0.0827463 1.188 17 29 10
-0.0724668 -0.0828856 1.19 15 30 10
-0.0707374 -0.0830249 1.192 15 30 10
-0.0688862 -0.0830249 1.192 15 30 10
-0.0671474 -0.0831642 1.194 13 28 8
-0.0653478 -0.0832339 1.195 12 27 7
-0.0634919 -0.0832339 1.195 12 27 7
-0.0616876 -0.0833035 1.196 15 30 10
-0.0598302 -0.0833035 1.196 15 30 10
-0.0580212 -0.0833732 1.197 15 30 10
-0.0561623 -0.0833732 1.197 12 27 7
-0.0542579 -0.0833035 1.196 13 28 8
-0.0524005 -0.0833035 1.196 15 30 10
-0.0505008 -0.0832339 1.195 15 30 10
-0.0485228 -0.0830249 1.192 16 31 11
-0.0466716 -0.0830249 1.192 15 30 10
-0.0447452 -0.0828856 1.19 16 31 11
-0.042861 -0.0828159 1.189 15 30 10
-0.0409455 -0.0826766 1.187 13 28 8
-0.039102 -0.0826766 1.187 13 28 8
-0.0372586 -0.0826766 1.187 13 27 10
-0.0353853 -0.082607 1.186 15 29 12
-0.0335717 -0.0826766 1.187 15 29 12
-0.0317282 -0.0826766 1.187 13 27 10
-0.0298848 -0.0826766 1.187 13 27 10
-0.0280413 -0.0826766 1.187 12 26 9
-0.0261978 -0.0826766 1.187 15 29 12
-0.0243544 -0.0826766 1.187 15 29 12
-0.0225109 -0.0826766 1.187 15 29 12
-0.0206675 -0.0826766 1.187 13 27 10
-0.018824 -0.0826766 1.187 13 27 10
-0.0169806 -0.0826766 1.187 15 29 12
-0.0151371 -0.0826766 1.187 16 30 13
-0.0132937 -0.0826766 1.187 13 27 10
-0.0114406 -0.082607 1.186 13 27 10
-0.00959869 -0.082607 1.186 13 27 10
-0.00775679 -0.082607 1.186 12 26 9
-0.00591988 -0.0826766 1.187 13 27 10
-0.00407643 -0.0826766 1.187 15 29 12
-0.00223298 -0.0826766 1.187 15 29 12
-0.000389528 -0.0826766 1.187 15 29 12
0.00145392 -0.0826766 1.187 15 29 12
0.00329737 -0.0826766 1.187 15 29 12
0.00514516 -0.0827463 1.188 15 29 12
0.00699016 -0.0827463 1.188 15 29 12
0.00883517 -0.0827463 1.188 15 29 12
0.0106802 -0.0827463 1.188 15 29 12
0.0125252 -0.0827463 1.188 15 29 12
0.0143702 -0.0827463 1.188 16 30 13
0.0162015 -0.0826766 1.187 15 29 12
0.0180298 -0.082607 1.186 15 29 12
0.0198549 -0.0825373 1.185 15 29 12
0.0216953 -0.0825373 1.185 13 27 10
0.0235158 -0.0824677 1.184 12 26 9
0.0253117 -0.0823284 1.182 11 25 8
0.0271474 -0.0823284 1.182 11 25 8
0.0289586 -0.0822587 1.181 12 26 9
0.0307927 -0.0822587 1.181 11 25 8
0.0326268 -0.0822587 1.181 10 24 7
0.034461 -0.0822587 1.181 10 24 7
0.0362951 -0.0822587 1.181 10 24 7
0.0381292 -0.0822587 1.181 11 25 8
0.0399295 -0.0821891 1.18 11 25 10
0.0417975 -0.0822587 1.181 11 25 10
0.0436686 -0.0823284 1.182 11 25 10
0.0455043 -0.0823284 1.182 10 24 9
0.04734 -0.0823284 1.182 10 24 9
0.0491756 -0.0823284 1.182 10 24 9
0.0510113 -0.0823284 1.182 9 23 8
0.052847 -0.0823284 1.182 8 22 7
0.0546827 -0.0823284 1.182 6 19 6
0.0565184 -0.0823284 1.182 6 19 6
0.0583047 -0.0822587 1.181 6 19 6
0.0601388 -0.0822587 1.181 6 19 6
0.0619205 -0.0821891 1.18 6 19 6
0.0637531 -0.0821891 1.18 4 17 4
0.0655857 -0.0821891 1.18 4 17 4
0.0673611 -0.0821194 1.179 4 17 4
0.0691921 -0.0821194 1.179 4 16 6
0.0709629 -0.0820498 1.178 4 16 6
0.0726688 -0.0819105 1.176 5 14 5
0.0743685 -0.0817712 1.174 5 14 5
0.0758672 -0.0814229 1.169 5 14 5
0.0774834 -0.081214 1.166 5 14 5
0.0791582 -0.0810747 1.164 4 13 4
0.0808268 -0.0809353 1.162 5 14 5
0.0824892 -0.080796 1.16 4 12 5
0.0840728 -0.0805871 1.157 0 7 0
0.085647 -0.0803781 1.154 0 5 3
0.0870603 -0.0800299 1.149 1 10 8
0.0885355 -0.0797513 1.145 30 40 42
0.0895249 -0.0790548 1.135 36 46 48
0.0923125 -0.0784279 1.126 31 38 47
0.0936435 -0.0780796 1.121 23 31 45
0.0950441 -0.077801 1.117 20 28 42
0.0964323 -0.0775224 1.113 23 29 48
0.0974552 -0.0769652 1.105 61 67 86
0.0989918 -0.0768259 1.103 71 82 100
0.100248 -0.0764776 1.098 65 76 94
0.101675 -0.0762687 1.095 53 64 82
0.103281 -0.076199 1.094 49 60 78
0.104788 -0.0760597 1.092 52 62 82
0.106484 -0.0760597 1.092 59 69 89
0.108081 -0.0759901 1.091 61 71 93
0.109574 -0.0758508 1.089 61 71 93
0.111163 -0.0757811 1.088 62 71 96
0.112645 -0.0756418 1.086 64 73 98
0.114227 -0.0755722 1.085 62 71 96
0.115698 -0.0754329 1.083 64 73 98
0.117272 -0.0753632 1.082 64 73 98
0.118842 -0.0752936 1.081 65 74 99
0.120298 -0.0751543 1.079 65 74 99
0.121974 -0.0751543 1.079 64 73 98
0.123649 -0.0751543 1.079 62 73 99
0.125093 -0.0750149 1.077 63 74 100
0.126648 -0.0749453 1.076 65 76 102
0.1282 -0.0748756 1.075 65 76 102
0.129748 -0.074806 1.074 66 77 103
0.131294 -0.0747363 1.073 64 75 101
0.132836 -0.0746667 1.072 64 75 101
0.134376 -0.074597 1.071 64 75 101
0.135912 -0.0745274 1.07 64 75 101
0.137574 -0.0745274 1.07 64 75 101
0.139236 -0.0745274 1.07 65 76 102
0.140897 -0.0745274 1.07 65 76 102
0.142426 -0.0744577 1.069 65 76 102
0.144086 -0.0744577 1.069 65 76 102
0.14561 -0.0743881 1.068 65 76 102
0.147269 -0.0743881 1.068 66 77 103
0.148648 -0.0742488 1.066 65 77 101
0.150304 -0.0742488 1.066 65 77 101
0.151817 -0.0741791 1.065 65 77 101
0.153327 -0.0741095 1.064 64 76 100
0.154688 -0.0739702 1.062 64 76 100
0.15619 -0.0739005 1.061 65 77 101
0.157838 -0.0739005 1.061 66 78 102
0.159335 -0.0738309 1.06 67 79 103
0.160981 -0.0738309 1.06 67 79 103
0.162474 -0.0737612 1.059 69 81 105
0.164119 -0.0737612 1.059 65 79 103
0.165763 -0.0737612 1.059 67 81 105
0.167408 -0.0737612 1.059 67 81 105
0.169053 -0.0737612 1.059 64 78 102
0.170697 -0.0737612 1.059 64 78 102
0.172342 -0.0737612 1.059 64 78 102
0.173822 -0.0736916 1.058 63 76 102
0.175466 -0.0736916 1.058 63 76 102
0.176941 -0.0736219 1.057 63 77 106
0.178583 -0.0736219 1.057 58 72 101
0.180054 -0.0735523 1.056 54 67 98
0.18135 -0.073413 1.054 74 87 118
0.182639 -0.0732737 1.052 98 115 143
0.184098 -0.073204 1.051 101 118 146
0.185377 -0.0730647 1.049 108 124 148
0.186649 -0.0729254 1.047 110 126 150
0.188096 -0.0728557 1.046 113 126 145
0.189357 -0.0727164 1.044 86 99 118
0.190979 -0.0727164 1.044 66 79 98
0.192416 -0.0726468 1.043 72 85 104
0.193849 -0.0725771 1.042 71 79 101
0.196897 -0.0725075 1.041 182 190 217
0.198514 -0.0725075 1.041 154 162 189
0.20013 -0.0725075 1.041 126 140 164
0.201941 -0.0725771 1.042 118 132 156
0.203559 -0.0725771 1.042 125 147 167
0.205374 -0.0726468 1.043 127 149 169
0.206994 -0.0726468 1.043 128 150 170
0.208614 -0.0726468 1.043 129 151 171
0.210435 -0.0727164 1.044 142 164 182
0.212057 -0.0727164 1.044 150 172 190
0.214087 -0.0728557 1.046 158 176 193
0.215918 -0.0729254 1.047 131 149 166
0.217752 -0.072995 1.048 79 95 107
0.219589 -0.0730647 1.049 14 30 42
0.263889 -0.0828856 1.19 16 30 15
0.265737 -0.0828856 1.19 16 30 15
0.268035 -0.0830249 1.192 13 27 12
0.26966 -0.0829552 1.191 11 27 12
0.271282 -0.0828856 1.19 14 30 15
0.27313 -0.0828856 1.19 13 29 12
0.274978 -0.0828856 1.19 13 29 12
0.276593 -0.0828159 1.189 10 26 9
0.277972 -0.0826766 1.187 11 27 10
0.279344 -0.0825373 1.185 11 27 10
0.281184 -0.0825373 1.185 14 30 13
0.282785 -0.0824677 1.184 14 30 13
0.284384 -0.082398 1.183 11 27 10
0.285979 -0.0823284 1.182 11 27 10
0.287815 -0.0823284 1.182 11 27 10
0.289651 -0.0823284 1.182 13 29 12
0.29124 -0.0822587 1.181 13 29 12
0.293074 -0.0822587 1.181 16 30 13
0.294908 -0.0822587 1.181 16 30 13
0.296491 -0.0821891 1.18 15 29 14
0.298323 -0.0821891 1.18 15 29 14
0.300156 -0.0821891 1.18 16 30 13
0.301989 -0.0821891 1.18 15 29 12
0.303821 -0.0821891 1.18 17 31 14
0.305654 -0.0821891 1.18 15 29 12
0.307486 -0.0821891 1.18 13 27 10
0.309843 -0.0823284 1.182 13 27 10
0.311679 -0.0823284 1.182 12 26 9
0.31378 -0.082398 1.183 13 27 10
0.315884 -0.0824677 1.184 16 31 11
0.317991 -0.0825373 1.185 16 31 11
0.320371 -0.0826766 1.187 17 32 12
0.322214 -0.0826766 1.187 17 32 12
0.324331 -0.0827463 1.188 18 33 13
0.32645 -0.0828159 1.189 20 35 15
0.328573 -0.0828856 1.19 22 37 17
0.330421 -0.0828856 1.19 24 39 19
0.332549 -0.0829552 1.191 27 42 22
0.334398 -0.0829552 1.191 26 41 21
0.335966 -0.0828856 1.19 31 47 25
0.337814 -0.0828856 1.19 23 39 17
0.339662 -0.0828856 1.19 31 45 21
0.34151 -0.0828856 1.19 55 69 45
0.343358 -0.0828856 1.19 55 69 45
0.345206 -0.0828856 1.19 40 54 30
0.347054 -0.0828856 1.19 35 48 27
0.348902 -0.0828856 1.19 29 42 21
0.35075 -0.0828856 1.19 27 45 23
0.352302 -0.0828159 1.189 31 49 27
0.353553 -0.0826766 1.187 31 48 28
0.355097 -0.082607 1.186 31 48 28
0.356638 -0.0825373 1.185 31 48 28
0.357571 -0.0823284 1.182 34 51 31
0.358798 -0.0821891 1.18 28 45 25
0.36002 -0.0820498 1.178 11 28 8
0.360928 -0.0818408 1.175 25 40 20
0.361518 -0.0815622 1.171 23 38 18
0.362405 -0.0813533 1.168 23 37 20
0.362972 -0.0810747 1.164 20 34 17
0.361646 -0.0803781 1.154 15 25 13
0.361863 -0.0800299 1.149 28 38 26
0.362382 -0.0797513 1.145 109 117 110
0.362888 -0.0794727 1.141 119 127 120
0.364021 -0.0793334 1.139 128 134 133
0.365469 -0.0792637 1.138 134 140 139
0.368204 -0.0794727 1.141 128 134 134
0.371273 -0.0797513 1.145 70 76 76
-0.163638 -0.0795372 1.168 8 18 6
-0.162101 -0.0796734 1.17 11 21 9
-0.160421 -0.0797414 1.171 11 21 9
-0.158874 -0.0798776 1.173 11 21 9
-0.157454 -0.0800819 1.176 10 20 8
-0.155892 -0.0802181 1.178 8 18 6
-0.152491 -0.0803543 1.18 11 21 9
-0.150914 -0.0804905 1.182 11 22 8
-0.149331 -0.0806267 1.184 19 30 16
-0.147617 -0.0806948 1.185 17 31 14
-0.146022 -0.080831 1.187 18 32 15
-0.1443 -0.0808991 1.188 18 32 15
-0.142695 -0.0810353 1.19 19 33 16
-0.140847 -0.0810353 1.19 19 33 16
-0.138999 -0.0810353 1.19 19 33 16
-0.137151 -0.0810353 1.19 19 33 16
-0.135189 -0.0809672 1.189 19 33 16
-0.13323 -0.0808991 1.188 18 32 15
-0.131275 -0.080831 1.187 19 33 16
-0.129431 -0.080831 1.187 19 34 14
-0.127588 -0.080831 1.187 19 34 14
-0.125638 -0.0807629 1.186 19 34 14
-0.123796 -0.0807629 1.186 20 35 15
-0.122057 -0.080831 1.187 20 35 15
-0.120113 -0.0807629 1.186 19 34 14
-0.11837 -0.080831 1.187 19 34 14
-0.116527 -0.080831 1.187 19 34 14
-0.114587 -0.0807629 1.186 18 33 13
-0.11284 -0.080831 1.187 18 33 13
-0.110997 -0.080831 1.187 18 33 13
-0.109153 -0.080831 1.187 17 32 12
-0.10731 -0.080831 1.187 17 32 12
-0.105466 -0.080831 1.187 17 32 12
-0.103448 -0.0806948 1.185 17 32 12
-0.101608 -0.0806948 1.185 18 33 13
-0.0997675 -0.0806948 1.185 18 33 13
-0.0979272 -0.0806948 1.185 18 33 13
-0.0959247 -0.0805586 1.183 17 32 12
-0.0940874 -0.0805586 1.183 17 32 12
-0.0921722 -0.0804905 1.182 17 32 12
-0.0903365 -0.0804905 1.182 16 31 11
-0.0885008 -0.0804905 1.182 17 32 12
-0.0866651 -0.0804905 1.182 17 32 12
-0.0848295 -0.0804905 1.182 17 32 12
-0.0829938 -0.0804905 1.182 16 31 11
-0.0812954 -0.0806267 1.184 17 32 12
-0.0795237 -0.0806948 1.185 16 31 11
-0.0776834 -0.0806948 1.185 16 31 11
-0.075971 -0.080831 1.187 15 30 10
-0.07419 -0.0808991 1.188 15 30 10
-0.0706187 -0.0810353 1.19 16 31 11
-0.0687706 -0.0810353 1.19 17 32 12
-0.067035 -0.0811715 1.192 17 32 12
-0.0651838 -0.0811715 1.192 16 31 11
-0.0634388 -0.0813077 1.194 15 30 10
-0.0615845 -0.0813077 1.194 15 30 10
-0.0597802 -0.0813758 1.195 13 28 8
-0.0579243 -0.0813758 1.195 13 28 8
-0.0560684 -0.0813758 1.195 13 28 8
-0.0542125 -0.0813758 1.195 15 30 10
-0.0523129 -0.0813077 1.194 15 30 10
-0.050374 -0.0811715 1.192 15 30 10
-0.0484821 -0.0811034 1.191 15 30 10
-0.0465933 -0.0810353 1.19 15 30 10
-0.0447452 -0.0810353 1.19 15 30 10
-0.042861 -0.0809672 1.189 16 31 11
-0.0409455 -0.080831 1.187 16 31 11
-0.039102 -0.080831 1.187 16 31 11
-0.0372586 -0.080831 1.187 16 31 11
-0.0354151 -0.080831 1.187 16 31 11
-0.0335717 -0.080831 1.187 15 30 10
-0.0317282 -0.080831 1.187 13 28 8
-0.0298848 -0.080831 1.187 13 28 8
-0.0280649 -0.0808991 1.188 12 27 7
-0.0262199 -0.0808991 1.188 13 27 10
-0.0243544 -0.080831 1.187 13 27 10
-0.0225109 -0.080831 1.187 15 29 12
-0.0206675 -0.080831 1.187 15 29 12
-0.018824 -0.080831 1.187 15 29 12
-0.0169949 -0.0808991 1.188 13 27 10
-0.0151499 -0.0808991 1.188 13 27 10
-0.0133049 -0.0808991 1.188 12 26 9
-0.0114502 -0.080831 1.187 13 27 10
-0.00960679 -0.080831 1.187 13 27 10
-0.00776333 -0.080831 1.187 13 27 10
-0.00591988 -0.080831 1.187 13 27 10
-0.00407643 -0.080831 1.187 13 27 10
-0.00223298 -0.080831 1.187 13 27 10
-0.000389528 -0.080831 1.187 13 27 10
0.00145392 -0.080831 1.187 13 27 10
0.00329737 -0.080831 1.187 15 29 12
0.00514083 -0.080831 1.187 16 30 13
0.00698428 -0.080831 1.187 16 30 13
0.00882773 -0.080831 1.187 16 30 13
0.0106712 -0.080831 1.187 18 29 13
0.0125146 -0.080831 1.187 14 25 9
0.0143581 -0.080831 1.187 13 27 10
0.0161742 -0.0806948 1.185 13 27 10
0.0180146 -0.0806948 1.185 13 27 10
0.0198382 -0.0806267 1.184 13 27 10
0.0216587 -0.0805586 1.183 13 27 10
0.023476 -0.0804905 1.182 12 26 9
0.0252903 -0.0804224 1.181 11 25 8
0.0271244 -0.0804224 1.181 11 25 8
0.0289341 -0.0803543 1.18 11 25 8
0.0307666 -0.0803543 1.18 11 25 8
0.0325992 -0.0803543 1.18 10 24 9
0.0344318 -0.0803543 1.18 10 24 9
0.0362951 -0.0804224 1.181 10 24 9
0.0381292 -0.0804224 1.181 9 23 8
0.0399295 -0.0803543 1.18 10 24 9
0.0417975 -0.0804224 1.181 10 24 9
0.0436316 -0.0804224 1.181 11 25 10
0.0455043 -0.0804905 1.182 10 24 9
0.04734 -0.0804905 1.182 10 24 9
0.0491756 -0.0804905 1.182 10 24 9
0.0510113 -0.0804905 1.182 8 22 7
0.0528023 -0.0804224 1.181 6 20 5
0.0546364 -0.0804224 1.181 5 18 5
0.0564706 -0.0804224 1.181 6 19 6
0.0583047 -0.0804224 1.181 5 18 5
0.0600879 -0.0803543 1.18 3 16 3
0.0619205 -0.0803543 1.18 3 16 3
0.0637531 -0.0803543 1.18 3 16 3
0.0655857 -0.0803543 1.18 4 17 4
0.0673611 -0.0802862 1.179 4 17 4
0.0691334 -0.0802181 1.178 4 16 6
0.0709629 -0.0802181 1.178 4 16 6
0.072607 -0.0800138 1.175 5 14 5
0.0743051 -0.0798776 1.173 6 15 6
0.0758023 -0.0795372 1.168 5 14 5
0.0774834 -0.079401 1.166 4 13 4
0.0790902 -0.0791967 1.163 4 12 5
0.0806877 -0.0789924 1.16 5 13 6
0.082347 -0.0788562 1.158 0 7 3
0.0838548 -0.0785838 1.154 0 6 2
0.0852759 -0.0782433 1.149 5 14 13
0.0866815 -0.0779028 1.144 27 36 35
0.0880715 -0.0775623 1.139 35 43 50
0.0901616 -0.0763366 1.121 34 41 50
0.0915746 -0.0760642 1.117 29 36 45
0.0929752 -0.0757918 1.113 21 28 44
0.0944485 -0.0755875 1.11 29 36 52
0.0956525 -0.075179 1.104 56 65 83
0.0970143 -0.0749066 1.1 69 78 96
0.0986328 -0.0748385 1.099 65 75 95
0.100066 -0.0746342 1.096 53 63 83
0.101582 -0.074498 1.094 50 60 80
0.103187 -0.0744299 1.093 50 60 80
0.104788 -0.0743618 1.092 58 68 90
0.106387 -0.0742937 1.091 60 70 92
0.108081 -0.0742937 1.091 60 69 94
0.109574 -0.0741575 1.089 60 69 94
0.111163 -0.0740894 1.088 64 73 98
0.112645 -0.0739532 1.086 64 73 98
0.114122 -0.073817 1.084 64 73 98
0.115698 -0.0737489 1.083 64 73 98
0.117163 -0.0736127 1.081 65 73 100
0.118732 -0.0735446 1.08 65 73 100
0.120187 -0.0734084 1.078 63 74 100
0.121635 -0.0732722 1.076 63 74 100
0.123306 -0.0732722 1.076 63 74 100
0.124861 -0.0732041 1.075 63 74 100
0.126295 -0.073068 1.073 64 75 101
0.127961 -0.073068 1.073 64 75 101
0.129507 -0.0729999 1.072 63 76 102
0.131049 -0.0729318 1.071 63 76 102
0.132589 -0.0728637 1.07 62 75 101
0.13425 -0.0728637 1.07 62 75 101
0.135785 -0.0727956 1.069 62 75 101
0.137445 -0.0727956 1.069 63 76 102
0.139105 -0.0727956 1.069 62 75 101
0.140766 -0.0727956 1.069 61 74 100
0.142293 -0.0727275 1.068 64 75 101
0.143951 -0.0727275 1.068 62 73 99
0.145474 -0.0726594 1.067 63 74 100
0.146993 -0.0725913 1.066 63 74 100
0.148648 -0.0725913 1.066 65 77 101
0.150163 -0.0725232 1.065 66 78 102
0.151674 -0.0724551 1.064 67 79 103
0.153183 -0.072387 1.063 67 79 103
0.154688 -0.0723189 1.062 66 78 102
0.15619 -0.0722508 1.061 66 78 102
0.157838 -0.0722508 1.061 66 78 102
0.159335 -0.0721827 1.06 66 78 102
0.160981 -0.0721827 1.06 67 79 103
0.162628 -0.0721827 1.06 67 79 103
0.164274 -0.0721827 1.06 67 81 105
0.16592 -0.0721827 1.06 68 82 106
0.167408 -0.0721146 1.059 65 79 103
0.169053 -0.0721146 1.059 65 79 103
0.170697 -0.0721146 1.059 64 78 102
0.172342 -0.0721146 1.059 63 77 101
0.173822 -0.0720465 1.058 63 76 102
0.175466 -0.0720465 1.058 63 76 102
0.176941 -0.0719784 1.057 65 78 104
0.178583 -0.0719784 1.057 64 77 103
0.180054 -0.0719103 1.056 56 68 97
0.18135 -0.0717741 1.054 54 66 95
0.182639 -0.0716379 1.052 60 75 101
0.184098 -0.0715698 1.051 79 94 120
0.185377 -0.0714336 1.049 111 125 149
0.186828 -0.0713655 1.048 123 137 161
0.188096 -0.0712293 1.046 114 129 150
0.189357 -0.0710931 1.044 98 113 134
0.190979 -0.0710931 1.044 106 119 140
0.192416 -0.071025 1.043 100 113 134
0.193849 -0.070957 1.042 97 107 129
0.19528 -0.0708889 1.041 173 183 205
0.196897 -0.0708889 1.041 180 186 218
0.198514 -0.0708889 1.041 130 136 168
0.20013 -0.0708889 1.041 114 123 148
0.201747 -0.0708889 1.041 114 123 148
0.203364 -0.0708889 1.041 127 147 167
0.205177 -0.070957 1.042 135 155 175
0.206796 -0.070957 1.042 135 157 175
0.208614 -0.071025 1.043 121 143 161
0.210435 -0.0710931 1.044 144 166 184
0.212057 -0.0710931 1.044 154 176 194
0.213883 -0.0711612 1.045 164 184 202
0.215918 -0.0712974 1.047 153 173 191
0.217752 -0.0713655 1.048 128 146 158
0.219589 -0.0714336 1.049 71 89 101
0.221429 -0.0715017 1.05 12 23 27
0.265961 -0.0811034 1.191 15 29 14
0.268035 -0.0811715 1.192 13 27 12
0.26966 -0.0811034 1.191 15 29 12
0.271282 -0.0810353 1.19 17 31 14
0.27313 -0.0810353 1.19 15 29 12
0.274978 -0.0810353 1.19 13 27 10
0.276128 -0.080831 1.187 13 27 10
0.277737 -0.0807629 1.186 13 27 10
0.279344 -0.0806948 1.185 13 27 10
0.280947 -0.0806267 1.184 16 30 13
0.282547 -0.0805586 1.183 17 31 14
0.284143 -0.0804905 1.182 13 27 10
0.285979 -0.0804905 1.182 15 29 12
0.287571 -0.0804224 1.181 13 27 10
0.289405 -0.0804224 1.181 15 29 12
0.29124 -0.0804224 1.181 15 29 12
0.292826 -0.0803543 1.18 16 30 13
0.294658 -0.0803543 1.18 13 27 10
0.296491 -0.0803543 1.18 13 27 10
0.298071 -0.0802862 1.179 15 29 12
0.300156 -0.0803543 1.18 17 31 14
0.301989 -0.0803543 1.18 15 29 12
0.303821 -0.0803543 1.18 16 30 13
0.305654 -0.0803543 1.18 15 29 12
0.307486 -0.0803543 1.18 15 29 12
0.309319 -0.0803543 1.18 16 30 13
0.311415 -0.0804224 1.181 13 27 10
0.313514 -0.0804905 1.182 13 27 10
0.315617 -0.0805586 1.183 16 30 13
0.317723 -0.0806267 1.184 17 31 14
0.320101 -0.0807629 1.186 18 33 13
0.322214 -0.080831 1.187 18 33 13
0.324058 -0.080831 1.187 19 34 14
0.326176 -0.0808991 1.188 22 37 17
0.328573 -0.0810353 1.19 25 40 20
0.330421 -0.0810353 1.19 27 42 22
0.332269 -0.0810353 1.19 27 42 22
0.334117 -0.0810353 1.19 26 41 21
0.335966 -0.0810353 1.19 31 47 25
0.337814 -0.0810353 1.19 23 39 17
0.339662 -0.0810353 1.19 28 42 18
0.34151 -0.0810353 1.19 71 85 61
0.343358 -0.0810353 1.19 62 76 52
0.345206 -0.0810353 1.19 21 35 11
0.347054 -0.0810353 1.19 29 43 19
0.348902 -0.0810353 1.19 31 45 21
0.350456 -0.0809672 1.189 31 48 23
0.352006 -0.0808991 1.188 33 50 25
0.353553 -0.080831 1.187 31 49 27
0.354798 -0.0806948 1.185 30 48 26
0.356036 -0.0805586 1.183 29 47 25
0.357268 -0.0804224 1.181 30 48 26
0.35819 -0.0802181 1.178 26 41 21
0.359409 -0.0800819 1.176 13 28 8
0.360313 -0.0798776 1.173 23 38 18
0.3609 -0.0796053 1.169 20 35 15
0.361785 -0.079401 1.166 25 36 20
0.361101 -0.0788562 1.158 21 32 16
0.361646 -0.0785838 1.154 15 25 13
0.361863 -0.0782433 1.149 28 38 26
0.362382 -0.0779709 1.145 106 114 107
0.363206 -0.0777666 1.142 118 126 119
0.364021 -0.0775623 1.139 128 134 133
0.36579 -0.0775623 1.139 137 143 142
0.368204 -0.0776985 1.141 135 140 143
0.370949 -0.0779028 1.144 71 76 79
-0.163638 -0.0777211 1.168 8 18 6
-0.16224 -0.0779207 1.171 11 21 9
-0.160695 -0.0780538 1.173 11 21 9
-0.159144 -0.0781869 1.175 11 21 9
-0.157587 -0.0783199 1.177 10 20 8
-0.154193 -0.078453 1.179 10 20 8
-0.152491 -0.0785196 1.18 11 21 9
-0.150914 -0.0786526 1.182 13 24 10
-0.149457 -0.0788523 1.185 15 26 12
-0.147741 -0.0789188 1.186 15 26 10
-0.146022 -0.0789854 1.187 17 28 12
-0.1443 -0.0790519 1.188 18 29 13
-0.142695 -0.079185 1.19 20 31 15
-0.140847 -0.079185 1.19 21 33 14
-0.138999 -0.079185 1.19 21 33 14
-0.137035 -0.0791184 1.189 20 32 13
-0.135189 -0.0791184 1.189 20 32 13
-0.133342 -0.0791184 1.189 20 32 13
-0.131385 -0.0790519 1.188 21 33 14
-0.129431 -0.0789854 1.187 20 32 13
-0.127588 -0.0789854 1.187 22 34 15
-0.125744 -0.0789854 1.187 21 33 14
-0.123901 -0.0789854 1.187 21 33 14
-0.122057 -0.0789854 1.187 20 32 13
-0.120214 -0.0789854 1.187 21 33 14
-0.11837 -0.0789854 1.187 21 33 14
-0.116527 -0.0789854 1.187 20 32 13
-0.114684 -0.0789854 1.187 19 31 12
-0.11284 -0.0789854 1.187 19 31 12
-0.110997 -0.0789854 1.187 19 31 12
-0.109153 -0.0789854 1.187 19 31 12
-0.10731 -0.0789854 1.187 19 31 12
-0.105466 -0.0789854 1.187 19 31 12
-0.103623 -0.0789854 1.187 19 31 12
-0.101608 -0.0788523 1.185 19 31 12
-0.0997675 -0.0788523 1.185 19 31 12
-0.0979272 -0.0788523 1.185 19 31 12
-0.0960057 -0.0787857 1.184 18 30 11
-0.094167 -0.0787857 1.184 19 31 12
-0.0922502 -0.0787192 1.183 19 31 12
-0.0904129 -0.0787192 1.183 18 30 11
-0.0885008 -0.0786526 1.182 18 30 11
-0.0866651 -0.0786526 1.182 18 30 11
-0.0848295 -0.0786526 1.182 18 30 11
-0.0829938 -0.0786526 1.182 18 30 11
-0.0812267 -0.0787192 1.183 18 30 11
-0.0794566 -0.0787857 1.184 18 30 11
-0.0776834 -0.0788523 1.185 18 30 11
-0.075907 -0.0789188 1.186 18 30 11
-0.0741276 -0.0789854 1.187 17 29 10
-0.072345 -0.0790519 1.188 18 30 11
-0.0705594 -0.0791184 1.189 17 32 12
-0.0669225 -0.079185 1.19 16 31 11
-0.0651291 -0.0792515 1.191 16 31 11
-0.0632794 -0.0792515 1.191 13 28 8
-0.0614813 -0.0793181 1.192 15 30 10
-0.0596301 -0.0793181 1.192 13 28 8
-0.0577789 -0.0793181 1.192 13 28 8
-0.0559277 -0.0793181 1.192 15 30 10
-0.0540765 -0.0793181 1.192 15 30 10
-0.0521814 -0.0792515 1.191 15 30 10
-0.0503318 -0.0792515 1.191 15 30 10
-0.0484414 -0.079185 1.19 15 30 10
-0.0465541 -0.0791184 1.189 15 30 10
-0.04467 -0.0790519 1.188 13 28 8
-0.042825 -0.0790519 1.188 15 30 10
-0.0409455 -0.0789854 1.187 16 31 11
-0.039102 -0.0789854 1.187 16 31 11
-0.0372586 -0.0789854 1.187 16 31 11
-0.0354151 -0.0789854 1.187 15 30 10
-0.0335999 -0.0790519 1.188 13 28 8
-0.0317549 -0.0790519 1.188 13 28 8
-0.0299099 -0.0790519 1.188 15 30 10
-0.0280885 -0.0791184 1.189 13 28 8
-0.026242 -0.0791184 1.189 13 28 8
-0.0243954 -0.0791184 1.189 15 30 10
-0.0225489 -0.0791184 1.189 15 29 12
-0.0207023 -0.0791184 1.189 13 27 10
-0.0188558 -0.0791184 1.189 13 27 10
-0.0170092 -0.0791184 1.189 12 26 9
-0.0151626 -0.0791184 1.189 12 26 9
-0.0133161 -0.0791184 1.189 12 26 9
-0.0114695 -0.0791184 1.189 13 27 10
-0.00961488 -0.0790519 1.188 13 27 10
-0.00776987 -0.0790519 1.188 13 27 10
-0.00592487 -0.0790519 1.188 13 27 10
-0.00407987 -0.0790519 1.188 13 27 10
-0.00223486 -0.0790519 1.188 12 26 9
-0.000389856 -0.0790519 1.188 12 26 9
0.00145392 -0.0789854 1.187 12 26 9
0.00329737 -0.0789854 1.187 12 26 9
0.00514083 -0.0789854 1.187 16 30 13
0.00698428 -0.0789854 1.187 16 30 13
0.00882773 -0.0789854 1.187 16 30 13
0.0106712 -0.0789854 1.187 16 30 13
0.0125041 -0.0789188 1.186 12 26 9
0.014346 -0.0789188 1.186 13 27 10
0.0161742 -0.0788523 1.185 13 27 10
0.0179994 -0.0787857 1.184 12 26 9
0.0198214 -0.0787192 1.183 12 26 9
0.0216403 -0.0786526 1.182 12 26 9
0.023476 -0.0786526 1.182 12 26 9
0.0252903 -0.0785861 1.181 10 24 7
0.0271015 -0.0785196 1.18 10 24 7
0.0289341 -0.0785196 1.18 9 23 6
0.0307666 -0.0785196 1.18 10 24 7
0.0325992 -0.0785196 1.18 10 24 7
0.0344318 -0.0785196 1.18 11 25 8
0.0362951 -0.0785861 1.181 11 25 10
0.0381292 -0.0785861 1.181 10 24 9
0.0399295 -0.0785196 1.18 9 23 8
0.0417975 -0.0785861 1.181 9 23 8
0.0436686 -0.0786526 1.182 11 25 10
0.0455043 -0.0786526 1.182 10 24 9
0.04734 -0.0786526 1.182 9 23 8
0.0491756 -0.0786526 1.182 8 22 7
0.0510113 -0.0786526 1.182 8 22 7
0.0528023 -0.0785861 1.181 6 20 5
0.0546364 -0.0785861 1.181 5 18 5
0.0564706 -0.0785861 1.181 5 18 5
0.0583047 -0.0785861 1.181 4 17 4
0.0600879 -0.0785196 1.18 4 17 4
0.0619205 -0.0785196 1.18 3 16 3
0.0637531 -0.0785196 1.18 3 16 3
0.0655301 -0.078453 1.179 3 15 5
0.067304 -0.0783865 1.178 4 16 6
0.0691334 -0.0783865 1.178 4 16 6
0.0709027 -0.0783199 1.177 4 16 6
0.072607 -0.0781869 1.175 5 14 5
0.0743051 -0.0780538 1.173 5 14 5
0.0757374 -0.0776545 1.167 4 12 5
0.0774169 -0.0775214 1.165 4 12 5
0.0790222 -0.0773218 1.162 4 12 5
0.0806877 -0.0771887 1.16 0 7 0
0.0822048 -0.0769226 1.156 0 7 6
0.0836368 -0.0765898 1.151 11 20 19
0.084979 -0.0761906 1.145 36 46 48
0.088184 -0.074394 1.118 32 39 48
0.0895182 -0.0740612 1.113 32 40 54
0.0909188 -0.0737951 1.109 21 29 43
0.0921399 -0.0733958 1.103 23 29 48
0.0936827 -0.0732627 1.101 65 71 90
0.0953059 -0.0731962 1.1 69 80 98
0.0967497 -0.0729966 1.097 64 75 93
0.0984534 -0.0729966 1.097 58 69 87
0.0999744 -0.0728635 1.095 57 68 86
0.101582 -0.072797 1.094 56 66 86
0.103187 -0.0727304 1.093 56 66 86
0.104788 -0.0726639 1.092 59 68 93
0.106387 -0.0725973 1.091 60 69 94
0.107982 -0.0725308 1.09 59 68 93
0.109574 -0.0724642 1.089 61 70 95
0.111061 -0.0723312 1.087 64 73 98
0.112542 -0.0721981 1.085 64 73 98
0.114016 -0.072065 1.083 65 74 99
0.115591 -0.0719984 1.082 66 75 100
0.117055 -0.0718654 1.08 68 76 103
0.118622 -0.0717988 1.079 68 76 103
0.120075 -0.0716657 1.077 66 77 103
0.121635 -0.0715992 1.076 63 74 100
0.123191 -0.0715327 1.075 63 74 100
0.124744 -0.0714661 1.074 67 78 104
0.126295 -0.0713996 1.073 65 78 104
0.127842 -0.071333 1.072 63 76 102
0.129386 -0.0712665 1.071 63 76 102
0.130927 -0.0711999 1.07 63 76 102
0.132465 -0.0711334 1.069 62 75 101
0.134125 -0.0711334 1.069 62 75 101
0.135658 -0.0710669 1.068 63 76 102
0.137317 -0.0710669 1.068 62 75 101
0.138975 -0.0710669 1.068 62 75 101
0.140634 -0.0710669 1.068 62 75 101
0.142159 -0.0710003 1.067 64 75 101
0.143682 -0.0709338 1.066 64 75 101
0.145337 -0.0709338 1.066 64 75 101
0.146993 -0.0709338 1.066 64 75 101
0.148509 -0.0708672 1.065 65 76 102
0.150022 -0.0708007 1.064 66 77 103
0.151532 -0.0707341 1.063 67 78 104
0.153038 -0.0706676 1.062 69 80 106
0.154688 -0.0706676 1.062 69 80 106
0.15619 -0.0706011 1.061 69 80 106
0.157838 -0.0706011 1.061 69 81 105
0.159335 -0.0705345 1.06 67 79 103
0.160981 -0.0705345 1.06 64 78 102
0.162628 -0.0705345 1.06 67 81 105
0.164274 -0.0705345 1.06 68 82 106
0.16592 -0.0705345 1.06 67 81 105
0.167566 -0.0705345 1.06 64 78 102
0.169053 -0.070468 1.059 64 78 102
0.170697 -0.070468 1.059 65 79 103
0.172179 -0.0704014 1.058 64 78 102
0.173822 -0.0704014 1.058 65 79 103
0.175466 -0.0704014 1.058 64 78 102
0.176941 -0.0703349 1.057 64 77 103
0.178414 -0.0702684 1.056 64 77 103
0.179883 -0.0702018 1.055 63 76 102
0.18135 -0.0701353 1.054 56 69 95
0.182639 -0.0700022 1.052 55 68 94
0.184098 -0.0699356 1.051 57 70 96
0.185377 -0.0698026 1.049 77 89 113
0.186828 -0.069736 1.048 115 127 151
0.188276 -0.0696695 1.047 131 141 163
0.18972 -0.0696029 1.046 139 149 171
0.191162 -0.0695364 1.045 145 155 177
0.1926 -0.0694699 1.044 127 137 159
0.193849 -0.0693368 1.042 137 143 170
0.20013 -0.0692702 1.041 101 110 135
0.201747 -0.0692702 1.041 103 112 137
0.203364 -0.0692702 1.041 126 140 164
0.20498 -0.0692702 1.041 153 167 191
0.206796 -0.0693368 1.042 150 170 188
0.208414 -0.0693368 1.042 131 151 169
0.210234 -0.0694033 1.043 155 175 193
0.211853 -0.0694033 1.043 155 175 193
0.214087 -0.0696029 1.046 155 177 195
0.215712 -0.0696029 1.046 163 185 203
0.217752 -0.069736 1.048 153 171 188
0.219589 -0.0698026 1.049 122 140 157
0.221429 -0.0698691 1.05 69 83 93
0.26781 -0.0792515 1.191 13 27 12
0.26966 -0.0792515 1.191 15 29 12
0.27151 -0.0792515 1.191 18 32 15
0.27313 -0.079185 1.19 14 30 13
0.274747 -0.0791184 1.189 14 30 13
0.276128 -0.0789854 1.187 14 30 13
0.277737 -0.0789188 1.186 11 27 10
0.279344 -0.0788523 1.185 11 27 10
0.280947 -0.0787857 1.184 14 30 13
0.282308 -0.0786526 1.182 15 31 14
0.284143 -0.0786526 1.182 14 30 13
0.285737 -0.0785861 1.181 15 31 14
0.287571 -0.0785861 1.181 13 29 12
0.28916 -0.0785196 1.18 16 30 13
0.290993 -0.0785196 1.18 16 30 13
0.292826 -0.0785196 1.18 17 31 14
0.294658 -0.0785196 1.18 15 29 12
0.296239 -0.078453 1.179 16 30 13
0.298071 -0.078453 1.179 16 30 13
0.299902 -0.078453 1.179 17 31 14
0.301733 -0.078453 1.179 16 30 13
0.303821 -0.0785196 1.18 17 31 14
0.305654 -0.0785196 1.18 16 30 13
0.307486 -0.0785196 1.18 15 29 12
0.309581 -0.0785861 1.181 16 30 13
0.311679 -0.0786526 1.182 15 29 12
0.313514 -0.0786526 1.182 13 27 10
0.315617 -0.0787192 1.183 15 30 10
0.317991 -0.0788523 1.185 18 33 13
0.320101 -0.0789188 1.186 19 34 14
0.322214 -0.0789854 1.187 19 34 14
0.324058 -0.0789854 1.187 18 33 13
0.326176 -0.0790519 1.188 15 30 10
0.328297 -0.0791184 1.189 15 30 10
0.330421 -0.079185 1.19 24 39 19
0.332269 -0.079185 1.19 27 43 21
0.334117 -0.079185 1.19 27 43 21
0.335966 -0.079185 1.19 31 47 25
0.337814 -0.079185 1.19 23 39 17
0.339662 -0.079185 1.19 27 42 16
0.34151 -0.079185 1.19 71 86 60
0.343358 -0.079185 1.19 70 83 57
0.345206 -0.079185 1.19 40 53 27
0.346763 -0.0791184 1.189 27 41 17
0.348609 -0.0791184 1.189 29 43 19
0.350161 -0.0790519 1.188 33 50 25
0.35171 -0.0789854 1.187 32 49 24
0.352957 -0.0788523 1.185 29 47 25
0.354498 -0.0787857 1.184 30 48 26
0.355434 -0.0785861 1.181 29 47 25
0.356966 -0.0785196 1.18 32 50 28
0.357886 -0.0783199 1.177 23 38 18
0.358797 -0.0781203 1.174 13 28 8
0.359699 -0.0779207 1.171 24 39 19
0.360592 -0.0777211 1.168 20 35 15
0.361164 -0.0774549 1.164 22 33 17
0.360477 -0.0769226 1.156 19 30 14
0.360706 -0.0765898 1.151 14 23 14
0.361234 -0.0763237 1.147 28 37 28
0.362065 -0.0761241 1.144 105 113 106
0.362888 -0.0759244 1.141 119 127 120
0.363701 -0.0757248 1.138 127 133 132
0.365469 -0.0757248 1.138 137 143 142
0.368204 -0.0759244 1.141 141 147 147
0.370949 -0.0761241 1.144 76 82 82
-0.163778 -0.0759699 1.169 10 20 8
-0.16224 -0.0760999 1.171 11 21 9
-0.160695 -0.0762299 1.173 11 21 9
-0.159144 -0.0763599 1.175 12 22 10
-0.155892 -0.0765548 1.178 12 22 10
-0.154193 -0.0766198 1.179 10 20 8
-0.15275 -0.0768148 1.182 12 22 10
-0.15117 -0.0769448 1.184 13 24 10
-0.149457 -0.0770097 1.185 17 28 14
-0.147866 -0.0771397 1.187 18 29 13
-0.146022 -0.0771397 1.187 18 29 13
-0.144422 -0.0772697 1.189 17 31 14
-0.142695 -0.0773347 1.19 18 32 15
-0.140847 -0.0773347 1.19 19 33 16
-0.138999 -0.0773347 1.19 20 34 17
-0.137151 -0.0773347 1.19 19 33 16
-0.135189 -0.0772697 1.189 19 33 16
-0.133342 -0.0772697 1.189 19 34 14
-0.131385 -0.0772047 1.188 19 34 14
-0.129431 -0.0771397 1.187 19 34 14
-0.127588 -0.0771397 1.187 19 34 14
-0.125744 -0.0771397 1.187 19 34 14
-0.123901 -0.0771397 1.187 20 35 15
-0.12216 -0.0772047 1.188 18 33 13
-0.120416 -0.0772697 1.189 18 33 13
-0.11857 -0.0772697 1.189 18 33 13
-0.116625 -0.0772047 1.188 17 32 12
-0.11478 -0.0772047 1.188 17 32 12
-0.112935 -0.0772047 1.188 17 32 12
-0.11109 -0.0772047 1.188 17 32 12
-0.109245 -0.0772047 1.188 18 33 13
-0.1074 -0.0772047 1.188 18 33 13
-0.105466 -0.0771397 1.187 18 33 13
-0.103623 -0.0771397 1.187 17 32 12
-0.101694 -0.0770747 1.186 17 32 12
-0.0997675 -0.0770097 1.185 17 32 12
-0.0979272 -0.0770097 1.185 17 32 12
-0.0960057 -0.0769448 1.184 16 31 11
-0.094167 -0.0769448 1.184 16 31 11
-0.0922502 -0.0768798 1.183 16 31 11
-0.0903365 -0.0768148 1.182 16 31 11
-0.0885008 -0.0768148 1.182 16 31 11
-0.0866651 -0.0768148 1.182 15 30 10
-0.0848295 -0.0768148 1.182 15 30 10
-0.0829938 -0.0768148 1.182 17 32 12
-0.0811581 -0.0768148 1.182 17 32 12
-0.0793895 -0.0768798 1.183 16 31 11
-0.0776178 -0.0769448 1.184 16 31 11
-0.075843 -0.0770097 1.185 16 31 11
-0.0740027 -0.0770097 1.185 17 32 12
-0.0722841 -0.0771397 1.187 16 31 11
-0.0704407 -0.0771397 1.187 16 31 11
-0.0685972 -0.0771397 1.187 13 28 8
-0.06681 -0.0772047 1.188 15 30 10
-0.064965 -0.0772047 1.188 16 31 11
-0.0631731 -0.0772697 1.189 16 31 11
-0.0613782 -0.0773347 1.19 16 31 11
-0.05953 -0.0773347 1.19 15 30 10
-0.0576819 -0.0773347 1.19 13 28 8
-0.0558338 -0.0773347 1.19 15 30 10
-0.0539857 -0.0773347 1.19 15 30 10
-0.0520938 -0.0772697 1.189 15 30 10
-0.0502472 -0.0772697 1.189 13 28 8
-0.04836 -0.0772047 1.188 13 28 8
-0.0464758 -0.0771397 1.187 15 30 10
-0.0446324 -0.0771397 1.187 13 28 8
-0.0427889 -0.0771397 1.187 13 28 8
-0.0409455 -0.0771397 1.187 15 30 10
-0.039102 -0.0771397 1.187 13 28 8
-0.0372586 -0.0771397 1.187 15 30 10
-0.0354151 -0.0771397 1.187 12 27 7
-0.0335999 -0.0772047 1.188 12 27 7
-0.0317817 -0.0772697 1.189 12 27 7
-0.0299351 -0.0772697 1.189 15 30 10
-0.0281122 -0.0773347 1.19 15 30 10
-0.0262641 -0.0773347 1.19 15 30 10
-0.0244159 -0.0773347 1.19 15 30 10
-0.0225678 -0.0773347 1.19 15 30 10
-0.0207197 -0.0773347 1.19 12 27 7
-0.0188716 -0.0773347 1.19 12 27 7
-0.0170235 -0.0773347 1.19 12 27 7
-0.0151754 -0.0773347 1.19 12 26 9
-0.0133273 -0.0773347 1.19 15 29 12
-0.0114792 -0.0773347 1.19 13 27 10
-0.00962297 -0.0772697 1.189 12 26 9
-0.00777641 -0.0772697 1.189 13 27 10
-0.00592986 -0.0772697 1.189 12 26 9
-0.00407987 -0.0772047 1.188 13 27 10
-0.00223486 -0.0772047 1.188 12 26 9
-0.000389856 -0.0772047 1.188 13 27 10
0.00145392 -0.0771397 1.187 12 26 9
0.00329737 -0.0771397 1.187 13 27 12
0.00514083 -0.0771397 1.187 15 29 14
0.00697839 -0.0770747 1.186 15 29 12
0.00882029 -0.0770747 1.186 15 29 12
0.0106622 -0.0770747 1.186 16 30 13
0.0125041 -0.0770747 1.186 12 26 9
0.0143339 -0.0770097 1.185 13 27 10
0.0161742 -0.0770097 1.185 15 29 12
0.0180146 -0.0770097 1.185 13 27 10
0.0198382 -0.0769448 1.184 12 26 9
0.0216587 -0.0768798 1.183 12 26 9
0.023476 -0.0768148 1.182 11 25 8
0.0253117 -0.0768148 1.182 11 25 8
0.0271244 -0.0767498 1.181 11 25 8
0.0289341 -0.0766848 1.18 11 25 8
0.0307666 -0.0766848 1.18 11 25 8
0.0326268 -0.0767498 1.181 10 24 7
0.034461 -0.0767498 1.181 11 25 8
0.0362951 -0.0767498 1.181 11 25 10
0.0381292 -0.0767498 1.181 11 25 10
0.0399634 -0.0767498 1.181 9 23 8
0.0418329 -0.0768148 1.182 9 23 8
0.0436686 -0.0768148 1.182 9 23 8
0.0455043 -0.0768148 1.182 9 23 8
0.04734 -0.0768148 1.182 8 22 7
0.0491756 -0.0768148 1.182 8 22 7
0.0510113 -0.0768148 1.182 8 21 8
0.0528023 -0.0767498 1.181 8 21 8
0.0546827 -0.0768148 1.182 5 18 5
0.0564706 -0.0767498 1.181 5 18 5
0.0582553 -0.0766848 1.18 5 18 5
0.0600879 -0.0766848 1.18 4 17 4
0.0619205 -0.0766848 1.18 4 17 4
0.063699 -0.0766198 1.179 5 18 5
0.0654745 -0.0765548 1.178 3 15 5
0.067304 -0.0765548 1.178 4 16 6
0.0691334 -0.0765548 1.178 6 15 6
0.0709027 -0.0764898 1.177 6 15 6
0.072607 -0.0763599 1.175 5 14 5
0.0742418 -0.0761649 1.172 4 13 4
0.0757374 -0.07584 1.167 4 12 5
0.0773505 -0.075645 1.164 5 13 6
0.0789542 -0.0754501 1.161 0 6 5
0.0805486 -0.0752551 1.158 0 5 4
0.0819915 -0.0749302 1.153 5 14 13
0.0834188 -0.0746052 1.148 37 46 45
0.0840884 -0.0736304 1.133 36 44 51
0.0864477 -0.0726556 1.118 29 36 45
0.0876319 -0.0722007 1.111 28 35 44
0.0887139 -0.0716808 1.103 25 32 48
0.0901809 -0.0714858 1.1 27 34 50
0.0918057 -0.0714208 1.099 74 83 101
0.0934274 -0.0713559 1.098 84 93 111
0.095046 -0.0712909 1.097 67 78 96
0.0966615 -0.0712259 1.096 59 70 88
0.0982739 -0.0711609 1.095 59 69 89
0.0998831 -0.0710959 1.094 58 68 88
0.101489 -0.0710309 1.093 58 68 90
0.103281 -0.0710959 1.094 58 68 90
0.104788 -0.0709659 1.092 59 68 93
0.106484 -0.0709659 1.092 60 69 94
0.108081 -0.070901 1.091 60 68 95
0.109574 -0.070771 1.089 64 72 99
0.111163 -0.070706 1.088 64 72 99
0.112645 -0.070576 1.086 64 72 99
0.114122 -0.070446 1.084 65 73 100
0.115591 -0.0703161 1.082 67 75 102
0.117055 -0.0701861 1.08 67 75 102
0.118622 -0.0701211 1.079 65 73 100
0.119964 -0.0699261 1.076 64 75 101
0.121635 -0.0699261 1.076 62 73 99
0.123191 -0.0698612 1.075 64 75 101
0.124628 -0.0697312 1.073 73 84 110
0.126295 -0.0697312 1.073 64 77 103
0.127842 -0.0696662 1.072 62 75 101
0.129386 -0.0696012 1.071 62 75 101
0.130927 -0.0695362 1.07 61 74 100
0.132589 -0.0695362 1.07 61 74 100
0.134125 -0.0694712 1.069 61 74 100
0.135658 -0.0694062 1.068 61 74 100
0.137317 -0.0694062 1.068 61 74 100
0.138975 -0.0694062 1.068 62 75 101
0.140502 -0.0693413 1.067 63 76 102
0.142159 -0.0693413 1.067 66 77 103
0.143682 -0.0692763 1.066 66 77 103
0.145337 -0.0692763 1.066 64 75 101
0.146855 -0.0692113 1.065 64 75 101
0.148509 -0.0692113 1.065 63 74 100
0.150022 -0.0691463 1.064 67 78 104
0.151532 -0.0690813 1.063 69 80 106
0.153038 -0.0690163 1.062 70 81 107
0.154688 -0.0690163 1.062 70 81 107
0.15619 -0.0689513 1.061 70 81 107
0.157838 -0.0689513 1.061 69 81 105
0.159485 -0.0689513 1.061 69 81 105
0.160981 -0.0688864 1.06 67 81 105
0.162628 -0.0688864 1.06 68 82 106
0.164274 -0.0688864 1.06 67 81 105
0.16592 -0.0688864 1.06 65 79 103
0.167566 -0.0688864 1.06 64 78 102
0.169053 -0.0688214 1.059 63 77 101
0.170697 -0.0688214 1.059 64 78 102
0.172179 -0.0687564 1.058 65 79 103
0.173822 -0.0687564 1.058 64 78 102
0.1753 -0.0686914 1.057 64 78 102
0.176941 -0.0686914 1.057 64 78 102
0.178414 -0.0686264 1.056 64 78 102
0.179883 -0.0685614 1.055 63 77 101
0.18135 -0.0684964 1.054 57 71 95
0.182639 -0.0683665 1.052 62 74 98
0.184098 -0.0683015 1.051 63 75 99
0.185377 -0.0681715 1.049 68 77 102
0.186828 -0.0681065 1.048 74 83 108
0.188276 -0.0680415 1.047 101 111 133
0.189902 -0.0680415 1.047 124 134 156
0.191345 -0.0679765 1.046 135 144 169
0.192785 -0.0679115 1.045 137 146 171
0.194222 -0.0678466 1.044 153 153 189
0.195655 -0.0677816 1.043 221 221 255
0.20013 -0.0676516 1.041 98 102 134
0.201747 -0.0676516 1.041 104 108 140
0.203364 -0.0676516 1.041 123 131 158
0.20498 -0.0676516 1.041 159 167 194
0.206796 -0.0677166 1.042 119 139 157
0.208414 -0.0677166 1.042 96 116 134
0.210234 -0.0677816 1.043 153 175 195
0.212057 -0.0678466 1.044 151 173 193
0.213883 -0.0679115 1.045 152 177 196
0.215712 -0.0679765 1.046 156 181 200
0.217544 -0.0680415 1.047 158 178 196
0.219379 -0.0681065 1.048 144 164 182
0.221218 -0.0681715 1.049 114 130 142
0.223272 -0.0683015 1.051 48 64 76
0.26966 -0.0773997 1.191 16 30 13
0.271282 -0.0773347 1.19 18 32 15
0.2729 -0.0772697 1.189 17 31 14
0.274285 -0.0771397 1.187 17 31 14
0.275896 -0.0770747 1.186 17 31 14
0.277503 -0.0770097 1.185 13 27 10
0.279108 -0.0769448 1.184 13 27 10
0.280709 -0.0768798 1.183 15 29 12
0.282308 -0.0768148 1.182 17 31 14
0.283903 -0.0767498 1.181 17 31 14
0.285737 -0.0767498 1.181 17 31 14
