ply
format ascii 1.0
comment Created by Open3D
element vertex 1298
property double x
property double y
property double z
property uchar red
property uchar green
property uchar blue
end_header
-0.11341 -0.00889569 1.193 37 57 28
-0.111558 -0.00889569 1.193 37 57 28
-0.109705 -0.00889569 1.193 36 56 27
-0.107852 -0.00889569 1.193 35 55 26
-0.105999 -0.00889569 1.193 35 55 26
-0.104147 -0.00889569 1.193 35 55 26
-0.102294 -0.00889569 1.193 35 55 26
-0.100441 -0.00889569 1.193 35 55 26
-0.0985056 -0.00888823 1.192 34 54 25
-0.0966544 -0.00888823 1.192 31 51 22
-0.0948032 -0.00888823 1.192 32 52 23
-0.092952 -0.00888823 1.192 35 55 26
-0.0910244 -0.00888078 1.191 35 55 26
-0.0891747 -0.00888078 1.191 34 54 25
-0.087325 -0.00888078 1.191 34 54 25
-0.0854036 -0.00887332 1.19 34 54 25
-0.0835555 -0.00887332 1.19 32 52 23
-0.0817074 -0.00887332 1.19 35 55 26
-0.079725 -0.00885841 1.188 35 55 26
-0.0778145 -0.00885095 1.187 35 55 26
-0.075907 -0.00884349 1.186 34 54 25
-0.0740027 -0.00883604 1.185 34 54 25
-0.0721014 -0.00882858 1.184 32 52 23
-0.070144 -0.00881367 1.182 32 52 23
-0.0682505 -0.00880621 1.181 34 54 25
-0.0663601 -0.00879875 1.18 34 54 27
-0.0644182 -0.00878384 1.178 32 52 25
-0.0625887 -0.00878384 1.178 25 45 18
-0.0606561 -0.00876893 1.176 35 55 28
-0.0588297 -0.00876893 1.176 35 54 29
-0.0569549 -0.00876147 1.175 38 57 32
-0.0550362 -0.00874656 1.173 39 56 36
-0.0531238 -0.00873164 1.171 36 53 33
-0.0510861 -0.00869436 1.166 28 41 40
-0.0488527 -0.0086198 1.156 28 41 40
-0.0444007 -0.00845575 1.134 19 31 46
-0.0396888 -0.00820968 1.101 90 97 135
-0.0378754 -0.00818731 1.098 100 104 162
-0.0361043 -0.0081724 1.096 105 109 167
-0.0343708 -0.00816495 1.095 134 137 199
-0.0326404 -0.00815749 1.094 167 170 232
-0.0308848 -0.00814258 1.092 197 200 255
-0.0291354 -0.00812766 1.09 204 207 255
-0.0274174 -0.00812021 1.089 201 208 255
-0.0257262 -0.00812021 1.089 197 204 255
-0.0240129 -0.00811275 1.088 209 216 255
-0.0223232 -0.00811275 1.088 226 233 255
-0.0206335 -0.00811275 1.088 235 245 255
-0.0189438 -0.00811275 1.088 232 242 255
-0.0172541 -0.00811275 1.088 225 238 255
-0.0155643 -0.00811275 1.088 214 227 246
-0.0138746 -0.00811275 1.088 211 224 243
-0.0121961 -0.00812021 1.089 214 227 246
-0.0105049 -0.00812021 1.089 205 216 242
-0.00882173 -0.00812766 1.09 199 210 236
-0.00713547 -0.00813512 1.091 201 209 236
-0.00544609 -0.00814258 1.092 201 209 236
-0.00375705 -0.00815749 1.094 229 234 250
-0.00205991 -0.00816495 1.095 245 250 255
0.00134246 -0.0081724 1.096 251 254 255
0.00304736 -0.00817986 1.097 251 255 254
0.0047597 -0.00819477 1.099 251 255 254
0.00647826 -0.00820968 1.101 251 255 254
0.00821046 -0.00823205 1.104 251 255 254
0.00994299 -0.00824697 1.106 251 255 254
0.0117028 -0.00827679 1.11 251 255 254
0.013463 -0.00829916 1.113 251 255 254
0.0152324 -0.00832153 1.116 251 255 254
0.0170112 -0.0083439 1.119 251 255 254
0.0187826 -0.00835882 1.121 251 255 254
0.0205602 -0.00837373 1.123 251 255 255
0.0223638 -0.0083961 1.126 249 253 253
0.0241339 -0.00840356 1.127 223 227 241
0.0259072 -0.00841101 1.128 138 142 156
0.027708 -0.00842593 1.13 54 59 68
0.0313284 -0.00845575 1.134 45 55 57
0.0332646 -0.00850049 1.14 55 65 67
0.0351887 -0.00853777 1.145 53 68 60
0.0371607 -0.00858251 1.151 46 61 53
0.0391851 -0.00863471 1.158 44 62 47
0.0411958 -0.00867945 1.164 46 64 49
0.0450423 -0.00872419 1.17 36 56 34
0.0470596 -0.00876147 1.175 44 65 40
0.0490924 -0.00879875 1.18 47 68 43
0.0510976 -0.00882858 1.184 44 66 39
0.0530259 -0.00884349 1.186 44 66 39
0.054914 -0.00885095 1.187 46 68 39
0.0568531 -0.00886586 1.189 44 66 37
0.058749 -0.00887332 1.19 44 66 37
0.0606481 -0.00888078 1.191 44 66 37
0.0625502 -0.00888823 1.192 46 67 35
0.0644014 -0.00888823 1.192 48 69 37
0.0663082 -0.00889569 1.193 45 66 34
0.0682181 -0.00890315 1.194 45 66 34
0.0700724 -0.00890315 1.194 45 66 34
0.071987 -0.0089106 1.195 49 70 38
0.0738429 -0.0089106 1.195 49 71 37
0.0756988 -0.0089106 1.195 48 70 36
0.0775546 -0.0089106 1.195 46 69 32
0.0794105 -0.0089106 1.195 46 69 32
0.0812664 -0.0089106 1.195 45 69 30
0.0831223 -0.0089106 1.195 46 70 31
0.0849781 -0.0089106 1.195 48 72 33
0.086834 -0.0089106 1.195 49 73 34
0.0886899 -0.0089106 1.195 48 72 33
0.0906215 -0.00891806 1.196 48 72 33
0.092479 -0.00891806 1.196 48 72 33
0.0943364 -0.00891806 1.196 48 72 33
0.0961938 -0.00891806 1.196 48 72 33
0.0980512 -0.00891806 1.196 49 73 34
0.0999087 -0.00891806 1.196 52 76 37
0.101766 -0.00891806 1.196 52 76 37
0.10371 -0.00892552 1.197 51 75 36
0.105481 -0.00891806 1.196 51 75 36
0.107338 -0.00891806 1.196 50 74 35
0.109105 -0.0089106 1.195 50 74 35
0.11096 -0.0089106 1.195 50 74 35
0.112722 -0.00890315 1.194 51 75 36
0.11448 -0.00889569 1.193 51 75 36
0.116235 -0.00888823 1.192 52 76 37
0.118087 -0.00888823 1.192 53 77 38
0.119837 -0.00888078 1.191 53 77 38
0.121585 -0.00887332 1.19 53 77 38
0.123433 -0.00887332 1.19 55 79 40
0.125176 -0.00886586 1.189 56 80 41
0.126809 -0.00885095 1.187 56 80 41
0.128652 -0.00885095 1.187 54 80 41
0.130386 -0.00884349 1.186 54 80 41
0.132227 -0.00884349 1.186 53 79 38
0.133956 -0.00883604 1.185 53 79 38
0.135797 -0.00883604 1.185 51 77 36
0.137637 -0.00883604 1.185 53 79 38
0.13936 -0.00882858 1.184 55 82 38
0.141198 -0.00882858 1.184 60 87 43
0.143158 -0.00883604 1.185 54 81 37
0.144998 -0.00883604 1.185 51 78 34
0.146839 -0.00883604 1.185 51 78 34
0.148554 -0.00882858 1.184 53 80 36
0.150265 -0.00882112 1.183 55 82 38
0.151974 -0.00881367 1.182 53 80 36
0.15381 -0.00881367 1.182 60 87 43
0.155777 -0.00882112 1.183 63 90 46
0.157614 -0.00882112 1.183 65 90 46
0.159452 -0.00882112 1.183 60 85 41
0.161289 -0.00882112 1.183 59 84 40
0.163126 -0.00882112 1.183 60 85 41
0.165103 -0.00882858 1.184 63 88 44
0.167083 -0.00883604 1.185 62 87 43
0.168923 -0.00883604 1.185 60 85 41
0.170763 -0.00883604 1.185 62 87 43
0.172604 -0.00883604 1.185 63 88 44
0.174444 -0.00883604 1.185 64 89 45
0.176433 -0.00884349 1.186 68 92 51
0.178425 -0.00885095 1.187 63 87 46
0.180269 -0.00885095 1.187 62 86 45
0.182112 -0.00885095 1.187 63 87 46
0.183956 -0.00885095 1.187 63 87 48
0.185799 -0.00885095 1.187 62 86 47
0.187643 -0.00885095 1.187 60 84 45
0.189486 -0.00885095 1.187 63 87 48
0.191168 -0.00884349 1.186 64 88 49
0.19301 -0.00884349 1.186 63 87 48
0.194688 -0.00883604 1.185 63 87 48
0.196528 -0.00883604 1.185 64 88 49
0.198368 -0.00883604 1.185 63 87 48
0.200209 -0.00883604 1.185 63 87 48
0.202049 -0.00883604 1.185 63 87 48
0.203889 -0.00883604 1.185 60 84 45
0.20573 -0.00883604 1.185 63 87 48
0.207745 -0.00884349 1.186 63 87 48
0.209587 -0.00884349 1.186 63 87 48
0.211607 -0.00885095 1.187 63 87 48
0.213451 -0.00885095 1.187 64 88 49
0.215476 -0.00885841 1.188 63 87 48
0.217504 -0.00886586 1.189 63 87 46
0.219535 -0.00887332 1.19 63 87 46
0.221383 -0.00887332 1.19 63 87 46
0.223418 -0.00888078 1.191 68 92 51
0.225457 -0.00888823 1.192 64 86 45
0.227308 -0.00888823 1.192 51 73 32
0.22916 -0.00888823 1.192 57 79 38
0.231011 -0.00888823 1.192 57 79 38
0.232862 -0.00888823 1.192 53 75 36
0.234713 -0.00888823 1.192 45 67 28
0.236565 -0.00888823 1.192 48 70 31
0.238216 -0.00888078 1.191 48 70 31
0.239864 -0.00887332 1.19 47 68 31
0.241712 -0.00887332 1.19 45 66 29
0.243355 -0.00886586 1.189 45 62 29
0.244996 -0.00885841 1.188 42 59 26
0.246633 -0.00885095 1.187 41 57 26
0.248476 -0.00885095 1.187 33 49 18
0.25032 -0.00885095 1.187 33 49 18
0.251951 -0.00884349 1.186 33 49 18
0.253579 -0.00883604 1.185 32 47 19
0.255419 -0.00883604 1.185 32 47 19
0.257042 -0.00882858 1.184 31 46 20
0.258881 -0.00882858 1.184 33 48 22
0.26028 -0.00881367 1.182 33 48 22
0.262115 -0.00881367 1.182 32 47 21
0.264174 -0.00882112 1.183 32 47 21
0.266011 -0.00882112 1.183 33 48 22
0.268075 -0.00882858 1.184 33 47 23
0.270142 -0.00883604 1.185 33 47 23
0.272212 -0.00884349 1.186 30 47 22
0.276128 -0.00885095 1.187 32 49 24
0.278206 -0.00885841 1.188 30 47 22
0.280522 -0.00887332 1.19 30 47 22
0.28237 -0.00887332 1.19 30 47 22
0.284696 -0.00888823 1.192 29 46 21
0.286547 -0.00888823 1.192 30 47 22
0.288641 -0.00889569 1.193 29 46 21
0.290493 -0.00889569 1.193 30 47 22
0.292591 -0.00890315 1.194 31 48 23
0.294692 -0.0089106 1.195 30 47 22
0.296548 -0.0089106 1.195 30 47 22
0.298154 -0.00890315 1.194 29 46 21
0.30026 -0.0089106 1.195 30 47 22
0.302116 -0.0089106 1.195 30 47 22
0.303717 -0.00890315 1.194 30 47 22
0.305571 -0.00890315 1.194 31 48 23
0.307168 -0.00889569 1.193 31 48 23
0.309021 -0.00889569 1.193 30 47 22
0.310613 -0.00888823 1.192 27 44 19
0.312727 -0.00889569 1.193 27 44 19
0.314316 -0.00888823 1.192 29 46 21
0.316167 -0.00888823 1.192 29 46 21
0.318018 -0.00888823 1.192 32 49 24
0.319869 -0.00888823 1.192 32 49 24
0.321451 -0.00888078 1.191 27 44 19
0.323029 -0.00887332 1.19 29 46 21
0.324604 -0.00886586 1.189 27 45 18
0.326176 -0.00885841 1.188 30 48 21
0.327745 -0.00885095 1.187 36 54 27
0.329588 -0.00885095 1.187 36 54 27
0.331432 -0.00885095 1.187 36 54 27
0.332994 -0.00884349 1.186 38 56 29
0.334554 -0.00883604 1.185 41 56 30
0.336394 -0.00883604 1.185 42 57 31
0.338235 -0.00883604 1.185 39 57 30
0.339788 -0.00882858 1.184 43 61 34
0.341627 -0.00882858 1.184 43 61 32
0.343176 -0.00882112 1.183 45 63 34
0.345013 -0.00882112 1.183 39 59 30
0.346557 -0.00881367 1.182 41 61 32
0.348393 -0.00881367 1.182 41 61 34
0.350228 -0.00881367 1.182 39 59 32
0.352064 -0.00881367 1.182 38 56 34
0.3539 -0.00881367 1.182 37 55 33
0.355434 -0.00880621 1.181 37 53 36
0.357268 -0.00880621 1.181 36 52 35
0.358798 -0.00879875 1.18 34 48 33
0.360631 -0.00879875 1.18 26 40 25
0.361849 -0.00878384 1.178 47 57 45
0.362753 -0.00876147 1.175 26 36 24
0.363647 -0.0087391 1.172 25 36 28
0.363284 -0.00868691 1.165 20 31 23
0.360706 -0.00858251 1.151 31 42 40
0.360604 -0.00853777 1.145 116 127 125
0.360167 -0.00848558 1.138 141 151 153
0.361298 -0.00847066 1.136 144 154 156
0.362742 -0.00846321 1.135 155 165 167
0.364505 -0.00846321 1.135 159 169 171
0.367559 -0.00849303 1.139 124 131 135
0.371922 -0.00855269 1.147 91 98 102
-0.16574 -0.0069817 1.183 30 47 27
-0.164041 -0.0069876 1.184 29 46 26
-0.162339 -0.0069935 1.185 30 47 27
-0.160634 -0.00699941 1.186 31 48 28
-0.158926 -0.00700531 1.187 29 47 25
-0.157083 -0.00700531 1.187 28 46 24
-0.155501 -0.00701711 1.189 28 46 24
-0.153784 -0.00702301 1.19 31 49 27
-0.151936 -0.00702301 1.19 32 51 26
-0.150214 -0.00702891 1.191 34 53 28
-0.148488 -0.00703482 1.192 35 54 29
-0.146637 -0.00703482 1.192 34 53 28
-0.144786 -0.00703482 1.192 34 53 28
-0.142935 -0.00703482 1.192 32 51 26
-0.141202 -0.00704072 1.193 34 54 27
-0.139349 -0.00704072 1.193 34 54 27
-0.137496 -0.00704072 1.193 35 55 28
-0.135644 -0.00704072 1.193 36 56 29
-0.133791 -0.00704072 1.193 36 56 29
-0.131828 -0.00703482 1.192 36 56 29
-0.129976 -0.00703482 1.192 36 56 29
-0.128125 -0.00703482 1.192 36 56 29
-0.126274 -0.00703482 1.192 35 55 26
-0.124423 -0.00703482 1.192 34 54 25
-0.122674 -0.00704072 1.193 35 55 26
-0.120822 -0.00704072 1.193 35 55 26
-0.118969 -0.00704072 1.193 36 56 27
-0.117116 -0.00704072 1.193 43 63 34
-0.115263 -0.00704072 1.193 37 57 28
-0.11341 -0.00704072 1.193 35 55 26
-0.111558 -0.00704072 1.193 36 56 27
-0.109705 -0.00704072 1.193 36 56 27
-0.107852 -0.00704072 1.193 35 55 26
-0.105999 -0.00704072 1.193 35 55 26
-0.104059 -0.00703482 1.192 35 55 26
-0.102208 -0.00703482 1.192 35 55 26
-0.100357 -0.00703482 1.192 35 55 26
-0.0985056 -0.00703482 1.192 34 54 25
-0.0966544 -0.00703482 1.192 31 51 22
-0.0947237 -0.00702891 1.191 31 51 22
-0.092874 -0.00702891 1.191 31 51 22
-0.0910244 -0.00702891 1.191 31 51 22
-0.0892496 -0.00703482 1.192 32 52 23
-0.087325 -0.00702891 1.191 32 52 23
-0.0855471 -0.00703482 1.192 32 52 23
-0.0836257 -0.00702891 1.191 32 52 23
-0.0817074 -0.00702301 1.19 34 54 25
-0.0798593 -0.00702301 1.19 34 54 25
-0.0780112 -0.00702301 1.19 30 50 21
-0.076035 -0.00701121 1.188 24 44 15
-0.0741276 -0.00700531 1.187 32 52 23
-0.0722841 -0.00700531 1.187 32 52 23
-0.070322 -0.0069935 1.185 32 52 23
-0.0684239 -0.0069876 1.184 32 52 23
-0.0665288 -0.0069817 1.183 32 52 25
-0.0646369 -0.0069758 1.182 32 52 25
-0.062695 -0.006964 1.18 31 51 24
-0.0608108 -0.00695809 1.179 34 54 27
-0.0589297 -0.00695219 1.178 31 50 25
-0.0571003 -0.00695219 1.178 30 49 24
-0.0552239 -0.00694629 1.177 37 55 33
-0.0533052 -0.00693449 1.175 36 54 32
-0.051349 -0.00691678 1.172 34 52 37
-0.0494443 -0.00690498 1.17 36 54 39
-0.047383 -0.00686957 1.164 26 38 40
-0.0362361 -0.00649186 1.1 99 103 149
-0.0345277 -0.00649186 1.1 114 116 176
-0.0327299 -0.00647416 1.097 136 138 198
-0.0310262 -0.00647416 1.097 164 167 229
-0.0292691 -0.00646235 1.095 192 195 255
-0.027493 -0.00644465 1.092 199 205 255
-0.0257734 -0.00643875 1.091 186 192 253
-0.0240349 -0.00642694 1.089 193 200 250
-0.0223437 -0.00642694 1.089 208 215 255
-0.0206335 -0.00642104 1.088 228 236 255
-0.0189438 -0.00642104 1.088 229 237 255
-0.0172541 -0.00642104 1.088 219 232 253
-0.0155643 -0.00642104 1.088 213 226 247
-0.0138874 -0.00642694 1.089 218 231 252
-0.0121961 -0.00642694 1.089 221 234 255
-0.0105145 -0.00643284 1.09 210 217 242
-0.00882983 -0.00643875 1.091 202 209 234
-0.00714201 -0.00644465 1.092 207 210 231
-0.00545108 -0.00645055 1.093 229 232 253
-0.00375705 -0.00645645 1.094 251 251 255
-0.00205991 -0.00646235 1.095 251 251 255
0.00134368 -0.00647416 1.097 251 255 255
0.00305014 -0.00648006 1.098 251 255 254
0.00476403 -0.00649186 1.1 251 255 254
0.00648414 -0.00650366 1.102 251 255 254
0.00821789 -0.00652137 1.105 251 255 254
0.00996097 -0.00653907 1.108 251 255 254
0.0117134 -0.00655678 1.111 251 255 254
0.0134872 -0.00658039 1.115 251 255 254
0.0152461 -0.00659219 1.117 251 255 254
0.0170264 -0.00660989 1.12 247 255 254
0.0188161 -0.0066276 1.123 247 255 254
0.0205968 -0.0066394 1.125 253 252 255
0.0223638 -0.0066453 1.126 232 231 235
0.0241553 -0.00665711 1.128 156 150 163
0.0259301 -0.00666301 1.129 64 58 71
0.029489 -0.00667481 1.131 49 53 53
0.031356 -0.00669842 1.135 52 65 57
0.0332354 -0.00672203 1.139 50 63 55
0.035158 -0.00675153 1.144 39 60 44
0.0370961 -0.00678104 1.149 38 59 43
0.0391174 -0.00682236 1.156 39 61 40
0.0411251 -0.00685777 1.162 44 66 45
0.0449653 -0.00689318 1.168 38 61 38
0.0470195 -0.00692859 1.174 39 63 37
0.0490508 -0.00695809 1.179 40 64 38
0.0510545 -0.0069817 1.183 42 64 37
0.0530259 -0.00699941 1.186 41 63 36
0.054914 -0.00700531 1.187 43 65 38
0.0568531 -0.00701711 1.189 43 65 38
0.058749 -0.00702301 1.19 41 63 34
0.060699 -0.00703482 1.192 37 59 30
0.0625502 -0.00703482 1.192 47 69 40
0.0644554 -0.00704072 1.193 46 68 39
0.0663638 -0.00704662 1.194 43 66 34
0.0682752 -0.00705252 1.195 42 65 33
0.0701311 -0.00705252 1.195 43 66 34
0.071987 -0.00705252 1.195 51 74 42
0.0738429 -0.00705252 1.195 49 73 39
0.0756988 -0.00705252 1.195 43 67 33
0.0775546 -0.00705252 1.195 45 67 33
0.0794105 -0.00705252 1.195 45 67 33
0.0813344 -0.00705842 1.196 45 68 31
0.0831918 -0.00705842 1.196 48 71 34
0.0849781 -0.00705252 1.195 48 71 34
0.086834 -0.00705252 1.195 46 69 32
0.0887641 -0.00705842 1.196 48 71 34
0.0906215 -0.00705842 1.196 49 72 35
0.092479 -0.00705842 1.196 48 71 34
0.0943364 -0.00705842 1.196 48 71 34
0.0961938 -0.00705842 1.196 49 72 35
0.0980512 -0.00705842 1.196 49 72 35
0.0999087 -0.00705842 1.196 53 76 39
0.101766 -0.00705842 1.196 51 74 37
0.103624 -0.00705842 1.196 51 74 37
0.105481 -0.00705842 1.196 52 75 38
0.107338 -0.00705842 1.196 51 74 37
0.109105 -0.00705252 1.195 50 73 36
0.11096 -0.00705252 1.195 50 73 36
0.112816 -0.00705252 1.195 51 74 37
0.114576 -0.00704662 1.194 52 75 38
0.116333 -0.00704072 1.193 53 76 39
0.118087 -0.00703482 1.192 55 78 41
0.119938 -0.00703482 1.192 55 78 41
0.121687 -0.00702891 1.191 53 76 39
0.123537 -0.00702891 1.191 55 78 41
0.125281 -0.00702301 1.19 54 80 41
0.127022 -0.00701711 1.189 55 81 42
0.128652 -0.00700531 1.187 55 81 42
0.130496 -0.00700531 1.187 56 82 43
0.132339 -0.00700531 1.187 55 81 42
0.134069 -0.00699941 1.186 55 81 42
0.135911 -0.00699941 1.186 54 80 39
0.137753 -0.00699941 1.186 54 80 39
0.139477 -0.0069935 1.185 54 80 39
0.141318 -0.0069935 1.185 50 76 35
0.143158 -0.0069935 1.185 51 78 34
0.145121 -0.00699941 1.186 53 80 36
0.146839 -0.0069935 1.185 53 80 36
0.148679 -0.0069935 1.185 54 81 37
0.150392 -0.0069876 1.184 55 82 38
0.152231 -0.0069876 1.184 53 80 36
0.15407 -0.0069876 1.184 55 82 38
0.155909 -0.0069876 1.184 54 81 37
0.157614 -0.0069817 1.183 57 82 38
0.159586 -0.0069876 1.184 58 83 39
0.161425 -0.0069876 1.184 59 84 40
0.163264 -0.0069876 1.184 59 84 40
0.165103 -0.0069876 1.184 60 85 41
0.167083 -0.0069935 1.185 59 84 40
0.168923 -0.0069935 1.185 60 85 41
0.170763 -0.0069935 1.185 63 88 44
0.172604 -0.0069935 1.185 64 89 45
0.174444 -0.0069935 1.185 65 90 46
0.176433 -0.00699941 1.186 64 88 47
0.178425 -0.00700531 1.187 63 87 46
0.180269 -0.00700531 1.187 63 87 46
0.182112 -0.00700531 1.187 63 87 46
0.183801 -0.00699941 1.186 63 87 48
0.185799 -0.00700531 1.187 62 86 47
0.187643 -0.00700531 1.187 62 86 47
0.189326 -0.00699941 1.186 62 86 47
0.191168 -0.00699941 1.186 63 87 48
0.19301 -0.00699941 1.186 62 86 47
0.194688 -0.0069935 1.185 63 87 48
0.196528 -0.0069935 1.185 64 88 49
0.198368 -0.0069935 1.185 63 87 48
0.200209 -0.0069935 1.185 63 87 48
0.202049 -0.0069935 1.185 62 86 45
0.203889 -0.0069935 1.185 62 86 45
0.20573 -0.0069935 1.185 63 87 46
0.207745 -0.00699941 1.186 63 87 46
0.209764 -0.00700531 1.187 63 87 46
0.211607 -0.00700531 1.187 63 87 46
0.213451 -0.00700531 1.187 64 88 47
0.215476 -0.00701121 1.188 63 87 46
0.217687 -0.00702301 1.19 63 87 46
0.219535 -0.00702301 1.19 63 87 46
0.221569 -0.00702891 1.191 63 87 46
0.223606 -0.00703482 1.192 64 88 47
0.225457 -0.00703482 1.192 63 87 46
0.227308 -0.00703482 1.192 49 73 32
0.22916 -0.00703482 1.192 54 76 35
0.231011 -0.00703482 1.192 59 81 40
0.232862 -0.00703482 1.192 55 77 36
0.234713 -0.00703482 1.192 43 65 24
0.236565 -0.00703482 1.192 48 70 31
0.238216 -0.00702891 1.191 48 70 31
0.239864 -0.00702301 1.19 48 70 31
0.241509 -0.00701711 1.189 50 72 33
0.243151 -0.00701121 1.188 44 65 28
0.24479 -0.00700531 1.187 40 61 24
0.246633 -0.00700531 1.187 40 56 25
0.248267 -0.00699941 1.186 29 45 14
0.250109 -0.00699941 1.186 28 44 13
0.251738 -0.0069935 1.185 32 48 17
0.253365 -0.0069876 1.184 31 46 18
0.254988 -0.0069817 1.183 29 44 16
0.256825 -0.0069817 1.183 32 47 21
0.258444 -0.0069758 1.182 33 48 22
0.26028 -0.0069758 1.182 32 47 21
0.262115 -0.0069758 1.182 33 48 22
0.263951 -0.0069758 1.182 32 47 21
0.266011 -0.0069817 1.183 33 48 22
0.268075 -0.0069876 1.184 33 47 23
0.270142 -0.0069935 1.185 33 47 23
0.272212 -0.00699941 1.186 30 47 22
0.276128 -0.00700531 1.187 32 49 24
0.27844 -0.00701711 1.189 29 46 21
0.280522 -0.00702301 1.19 29 46 21
0.282845 -0.00703482 1.192 29 46 21
0.284696 -0.00703482 1.192 30 47 22
0.286788 -0.00704072 1.193 31 48 23
0.289124 -0.00705252 1.195 31 48 23
0.29098 -0.00705252 1.195 31 48 23
0.292836 -0.00705252 1.195 31 48 23
0.294692 -0.00705252 1.195 32 49 24
0.296548 -0.00705252 1.195 31 48 23
0.298404 -0.00705252 1.195 29 46 21
0.30026 -0.00705252 1.195 30 47 22
0.302116 -0.00705252 1.195 31 48 23
0.303971 -0.00705252 1.195 31 48 23
0.305827 -0.00705252 1.195 31 48 23
0.307426 -0.00704662 1.194 31 48 23
0.30928 -0.00704662 1.194 31 48 23
0.311134 -0.00704662 1.194 30 47 22
0.312989 -0.00704662 1.194 30 47 22
0.314579 -0.00704072 1.193 30 47 22
0.316432 -0.00704072 1.193 29 46 21
0.318018 -0.00703482 1.192 32 49 24
0.319869 -0.00703482 1.192 32 49 24
0.321451 -0.00702891 1.191 31 48 23
0.322757 -0.00701711 1.189 30 47 22
0.324604 -0.00701711 1.189 30 47 22
0.325901 -0.00700531 1.187 33 50 25
0.327745 -0.00700531 1.187 38 56 29
0.329588 -0.00700531 1.187 43 61 34
0.330873 -0.0069935 1.185 43 61 34
0.332714 -0.0069935 1.185 40 58 31
0.334272 -0.0069876 1.184 42 57 31
0.33611 -0.0069876 1.184 43 58 32
0.337664 -0.0069817 1.183 41 59 32
0.339214 -0.0069758 1.182 43 61 34
0.34105 -0.0069758 1.182 43 61 34
0.342885 -0.0069758 1.182 45 63 36
0.344721 -0.0069758 1.182 41 59 32
0.346557 -0.0069758 1.182 41 59 32
0.348393 -0.0069758 1.182 38 58 31
0.350228 -0.0069758 1.182 38 58 31
0.351766 -0.0069699 1.181 38 57 32
0.3536 -0.0069699 1.181 39 58 33
0.355133 -0.006964 1.18 41 58 38
0.356966 -0.006964 1.18 38 55 35
0.358494 -0.00695809 1.179 31 45 30
0.360325 -0.00695809 1.179 29 43 28
0.360928 -0.00693449 1.175 47 57 45
0.362135 -0.00692268 1.173 26 36 24
0.362405 -0.00689318 1.168 25 36 28
0.360477 -0.00682236 1.156 23 34 26
0.360289 -0.00675153 1.144 114 123 121
0.360167 -0.00671612 1.138 142 152 154
0.36098 -0.00669842 1.135 141 151 153
0.362423 -0.00669252 1.134 157 167 169
0.364184 -0.00669252 1.134 163 173 175
0.367236 -0.00671612 1.138 122 129 133
0.371273 -0.00675744 1.145 94 101 105
-0.16574 -0.00514228 1.183 28 45 25
-0.164041 -0.00514662 1.184 28 45 25
-0.162339 -0.00515097 1.185 28 45 25
-0.160499 -0.00515097 1.185 30 47 27
-0.158926 -0.00515967 1.187 30 48 26
-0.157083 -0.00515967 1.187 28 46 24
-0.15537 -0.00516401 1.188 28 46 24
-0.153654 -0.00516836 1.189 30 48 26
-0.151936 -0.00517271 1.19 34 53 28
-0.150214 -0.00517705 1.191 34 53 28
-0.148488 -0.0051814 1.192 37 54 29
-0.146637 -0.0051814 1.192 36 53 28
-0.144786 -0.0051814 1.192 34 52 25
-0.143055 -0.00518575 1.193 34 52 25
-0.141202 -0.00518575 1.193 37 55 28
-0.139349 -0.00518575 1.193 36 54 27
-0.137496 -0.00518575 1.193 37 55 28
-0.135644 -0.00518575 1.193 39 57 30
-0.133791 -0.00518575 1.193 39 57 30
-0.131938 -0.00518575 1.193 39 57 30
-0.130085 -0.00518575 1.193 39 57 30
-0.128233 -0.00518575 1.193 37 55 28
-0.12638 -0.00518575 1.193 32 50 23
-0.124527 -0.00518575 1.193 34 52 25
-0.122674 -0.00518575 1.193 34 52 25
-0.120822 -0.00518575 1.193 36 54 27
-0.118969 -0.00518575 1.193 38 56 27
-0.117116 -0.00518575 1.193 37 55 26
-0.115263 -0.00518575 1.193 35 55 26
-0.11341 -0.00518575 1.193 35 55 26
-0.111464 -0.0051814 1.192 35 55 26
-0.109613 -0.0051814 1.192 34 54 25
-0.107762 -0.0051814 1.192 34 54 25
-0.105911 -0.0051814 1.192 32 52 23
-0.104059 -0.0051814 1.192 32 52 23
-0.102208 -0.0051814 1.192 34 54 25
-0.100273 -0.00517705 1.191 34 54 25
-0.098423 -0.00517705 1.191 34 54 25
-0.0965733 -0.00517705 1.191 31 51 22
-0.0947237 -0.00517705 1.191 30 50 21
-0.092874 -0.00517705 1.191 30 50 21
-0.0910244 -0.00517705 1.191 30 50 21
-0.0892496 -0.0051814 1.192 31 51 22
-0.0873983 -0.0051814 1.192 31 51 22
-0.0855471 -0.0051814 1.192 31 51 22
-0.0836959 -0.0051814 1.192 31 51 22
-0.0818447 -0.0051814 1.192 34 54 25
-0.0799935 -0.0051814 1.192 34 54 25
-0.0781423 -0.0051814 1.192 25 45 16
-0.076291 -0.0051814 1.192 28 48 19
-0.0743149 -0.00517271 1.19 34 54 25
-0.0724059 -0.00516836 1.189 32 52 23
-0.0704407 -0.00515967 1.187 32 52 25
-0.0685972 -0.00515967 1.187 32 52 25
-0.0666975 -0.00515532 1.186 31 51 24
-0.064801 -0.00515097 1.185 30 50 23
-0.0628544 -0.00514228 1.183 30 49 24
-0.0609655 -0.00513793 1.182 30 49 24
-0.0591298 -0.00513793 1.182 30 49 24
-0.0571972 -0.00512924 1.18 29 48 23
-0.0553177 -0.00512489 1.179 32 50 28
-0.0534413 -0.00512054 1.178 34 52 30
-0.051568 -0.0051162 1.177 36 52 35
-0.0496556 -0.0051075 1.175 35 51 34
-0.047668 -0.00509012 1.171 32 45 43
-0.0346847 -0.00480323 1.105 102 104 162
-0.0329089 -0.00479453 1.103 114 116 174
-0.0311393 -0.00478584 1.101 137 140 202
-0.0294027 -0.00478149 1.1 164 167 229
-0.0276188 -0.00476845 1.097 193 195 255
-0.0258679 -0.00475976 1.095 200 202 255
-0.0240791 -0.00474237 1.091 189 194 249
-0.0223437 -0.00473368 1.089 197 202 255
-0.0206524 -0.00473368 1.089 213 222 255
-0.0189438 -0.00472933 1.088 223 232 255
-0.0172699 -0.00473368 1.089 210 225 246
-0.0155787 -0.00473368 1.089 218 233 254
-0.0139002 -0.00473802 1.09 225 238 255
-0.0122185 -0.00474237 1.091 214 227 248
-0.0105242 -0.00474237 1.091 207 217 237
-0.00883792 -0.00474672 1.092 201 211 231
-0.00714855 -0.00475106 1.093 216 220 234
-0.00545607 -0.00475541 1.094 246 250 255
-0.00206179 -0.00476411 1.096 251 254 255
-0.000359994 -0.00476845 1.097 251 255 254
0.00134491 -0.0047728 1.098 251 255 254
0.0030557 -0.00478149 1.1 251 255 254
0.0047727 -0.00479019 1.102 251 255 254
0.00650179 -0.00480323 1.105 251 255 254
0.00823277 -0.00481192 1.107 251 255 254
0.00998794 -0.00482931 1.111 251 255 254
0.0117344 -0.004838 1.113 251 255 254
0.0134993 -0.00485104 1.116 251 255 254
0.0152734 -0.00486408 1.119 251 255 254
0.0170416 -0.00487278 1.121 249 255 255
0.0188161 -0.00488147 1.123 248 254 254
0.0205968 -0.00489016 1.125 235 238 254
0.0223837 -0.00489886 1.127 162 165 181
0.0241553 -0.0049032 1.128 51 56 67
0.0259301 -0.00490755 1.129 10 15 26
0.027708 -0.0049119 1.13 42 51 55
0.0313284 -0.00492928 1.134 48 62 57
0.0332063 -0.00494667 1.138 43 57 52
0.0350965 -0.00496406 1.142 40 61 45
0.0370315 -0.00498579 1.147 39 60 44
0.0390497 -0.00501622 1.154 39 61 40
0.0410543 -0.0050423 1.16 40 62 41
0.0430775 -0.00506838 1.166 40 64 38
0.0468994 -0.00509012 1.171 39 63 37
0.0490092 -0.00512054 1.178 38 62 36
0.0510113 -0.00513793 1.182 38 63 35
0.0529811 -0.00515097 1.185 39 64 36
0.054914 -0.00515967 1.187 41 63 36
0.0568531 -0.00516836 1.189 41 63 36
0.058749 -0.00517271 1.19 41 63 36
0.060699 -0.0051814 1.192 40 62 35
0.0625502 -0.0051814 1.192 46 68 41
0.0644554 -0.00518575 1.193 46 68 41
0.0663638 -0.00519009 1.194 42 64 35
0.0682752 -0.00519444 1.195 41 63 34
0.0701311 -0.00519444 1.195 41 63 34
0.071987 -0.00519444 1.195 46 68 39
0.0738429 -0.00519444 1.195 44 67 35
0.0756988 -0.00519444 1.195 37 60 28
0.0775546 -0.00519444 1.195 43 65 31
0.0794105 -0.00519444 1.195 43 65 31
0.0812664 -0.00519444 1.195 43 65 31
0.0831223 -0.00519444 1.195 46 68 34
0.0849781 -0.00519444 1.195 48 71 34
0.086834 -0.00519444 1.195 48 71 34
0.0887641 -0.00519879 1.196 48 71 34
0.0906215 -0.00519879 1.196 49 72 35
0.092479 -0.00519879 1.196 49 72 35
0.0943364 -0.00519879 1.196 50 73 36
0.0961938 -0.00519879 1.196 51 74 37
0.0981332 -0.00520313 1.197 56 79 42
0.0999922 -0.00520313 1.197 53 76 39
0.101851 -0.00520313 1.197 51 74 37
0.10371 -0.00520313 1.197 51 74 37
0.105393 -0.00519444 1.195 51 74 37
0.107249 -0.00519444 1.195 52 75 38
0.109196 -0.00519879 1.196 50 73 36
0.11096 -0.00519444 1.195 50 73 36
0.112816 -0.00519444 1.195 52 75 38
0.114576 -0.00519009 1.194 57 80 43
0.116431 -0.00519009 1.194 53 76 39
0.118186 -0.00518575 1.193 53 76 39
0.119938 -0.0051814 1.192 53 76 39
0.121789 -0.0051814 1.192 52 75 38
0.123537 -0.00517705 1.191 53 76 39
0.125281 -0.00517271 1.19 51 77 38
0.127022 -0.00516836 1.189 56 82 43
0.128869 -0.00516836 1.189 58 84 45
0.130605 -0.00516401 1.188 55 81 42
0.132339 -0.00515967 1.187 55 81 42
0.134182 -0.00515967 1.187 54 80 41
0.136026 -0.00515967 1.187 54 80 39
0.137869 -0.00515967 1.187 53 79 38
0.139595 -0.00515532 1.186 53 79 38
0.141437 -0.00515532 1.186 51 77 36
0.143279 -0.00515532 1.186 50 76 35
0.145121 -0.00515532 1.186 53 79 38
0.147087 -0.00515967 1.187 54 80 39
0.148805 -0.00515532 1.186 54 80 39
0.150519 -0.00515097 1.185 54 80 39
0.15236 -0.00515097 1.185 54 80 39
0.1542 -0.00515097 1.185 56 82 41
0.15604 -0.00515097 1.185 55 81 40
0.157881 -0.00515097 1.185 56 80 39
0.159586 -0.00514662 1.184 57 81 40
0.161562 -0.00515097 1.185 57 82 38
0.163264 -0.00514662 1.184 59 84 40
0.165242 -0.00515097 1.185 60 85 41
0.167083 -0.00515097 1.185 60 85 41
0.168923 -0.00515097 1.185 59 84 40
0.170763 -0.00515097 1.185 62 87 43
0.172604 -0.00515097 1.185 64 89 45
0.174444 -0.00515097 1.185 64 89 45
0.176284 -0.00515097 1.185 64 88 47
0.178125 -0.00515097 1.185 63 87 46
0.180117 -0.00515532 1.186 63 87 46
0.181959 -0.00515532 1.186 63 87 46
0.183956 -0.00515967 1.187 64 88 49
0.185643 -0.00515532 1.186 62 86 47
0.187484 -0.00515532 1.186 64 88 49
0.189326 -0.00515532 1.186 63 87 48
0.191168 -0.00515532 1.186 64 88 49
0.19301 -0.00515532 1.186 63 87 48
0.194688 -0.00515097 1.185 63 87 48
0.196528 -0.00515097 1.185 64 88 49
0.198368 -0.00515097 1.185 63 87 48
0.200209 -0.00515097 1.185 63 87 48
0.202049 -0.00515097 1.185 62 86 47
0.204062 -0.00515532 1.186 62 86 47
0.205903 -0.00515532 1.186 63 87 48
0.20792 -0.00515967 1.187 63 87 48
0.209764 -0.00515967 1.187 63 87 48
0.211786 -0.00516401 1.188 63 87 48
0.213631 -0.00516401 1.188 64 88 47
0.215838 -0.00517271 1.19 63 87 46
0.217687 -0.00517271 1.19 63 87 46
0.219535 -0.00517271 1.19 63 87 46
0.221755 -0.0051814 1.192 64 88 47
0.223606 -0.0051814 1.192 63 87 46
0.225457 -0.0051814 1.192 64 88 47
0.227308 -0.0051814 1.192 59 83 42
0.22916 -0.0051814 1.192 59 81 40
0.231011 -0.0051814 1.192 60 82 41
0.232862 -0.0051814 1.192 58 80 41
0.234713 -0.0051814 1.192 45 67 28
0.236565 -0.0051814 1.192 50 72 33
0.238216 -0.00517705 1.191 50 72 33
0.239864 -0.00517271 1.19 50 71 34
0.241509 -0.00516836 1.189 48 69 32
0.243151 -0.00516401 1.188 44 64 30
0.24479 -0.00515967 1.187 41 61 27
0.246425 -0.00515532 1.186 42 58 27
0.248058 -0.00515097 1.185 38 54 23
0.249898 -0.00515097 1.185 33 49 18
0.251526 -0.00514662 1.184 29 45 14
0.253151 -0.00514228 1.183 31 46 18
0.254773 -0.00513793 1.182 29 44 16
0.256608 -0.00513793 1.182 33 48 22
0.258444 -0.00513793 1.182 33 48 22
0.26028 -0.00513793 1.182 32 47 21
0.262115 -0.00513793 1.182 33 48 22
0.263951 -0.00513793 1.182 33 48 22
0.266011 -0.00514228 1.183 32 47 21
0.268075 -0.00514662 1.184 32 46 22
0.270142 -0.00515097 1.185 32 46 22
0.274285 -0.00515967 1.187 32 49 24
0.276593 -0.00516836 1.189 33 50 25
0.278674 -0.00517271 1.19 32 49 24
0.280994 -0.0051814 1.192 32 49 24
0.283082 -0.00518575 1.193 31 48 23
0.285174 -0.00519009 1.194 30 47 22
0.287269 -0.00519444 1.195 31 48 23
0.289124 -0.00519444 1.195 31 48 23
0.29098 -0.00519444 1.195 31 48 23
0.293081 -0.00519879 1.196 30 47 22
0.294692 -0.00519444 1.195 31 48 23
0.296796 -0.00519879 1.196 31 48 23
0.298654 -0.00519879 1.196 31 48 23
0.300511 -0.00519879 1.196 32 49 24
0.302116 -0.00519444 1.195 32 49 24
0.303971 -0.00519444 1.195 32 49 24
0.305827 -0.00519444 1.195 31 48 23
0.307683 -0.00519444 1.195 31 48 23
0.30928 -0.00519009 1.194 31 48 23
0.311395 -0.00519444 1.195 31 48 23
0.312989 -0.00519009 1.194 31 48 23
0.314579 -0.00518575 1.193 31 48 23
0.316432 -0.00518575 1.193 31 48 23
0.318018 -0.0051814 1.192 32 49 24
0.319869 -0.0051814 1.192 32 49 24
0.321721 -0.0051814 1.192 33 50 25
0.322757 -0.00516836 1.189 33 50 25
0.324331 -0.00516401 1.188 33 50 25
0.325901 -0.00515967 1.187 34 51 26
0.327745 -0.00515967 1.187 36 54 27
0.329033 -0.00515097 1.185 37 55 28
0.330873 -0.00515097 1.185 37 55 28
0.332433 -0.00514662 1.184 39 57 30
0.333707 -0.00513793 1.182 38 56 29
0.335543 -0.00513793 1.182 40 58 31
0.337378 -0.00513793 1.182 41 59 32
0.339214 -0.00513793 1.182 41 59 32
0.34105 -0.00513793 1.182 41 59 32
0.342885 -0.00513793 1.182 45 63 36
0.344721 -0.00513793 1.182 41 59 32
0.346557 -0.00513793 1.182 43 61 34
0.348098 -0.00513358 1.181 41 61 34
0.349932 -0.00513358 1.181 42 62 35
0.351468 -0.00512924 1.18 42 61 36
0.353301 -0.00512924 1.18 43 62 37
0.355133 -0.00512924 1.18 48 64 47
0.356663 -0.00512489 1.179 37 53 36
0.35819 -0.00512054 1.178 26 40 25
0.359714 -0.0051162 1.177 27 41 26
0.360313 -0.00509881 1.173 48 58 46
0.361518 -0.00509012 1.171 28 38 26
0.361785 -0.00506838 1.166 25 37 27
0.359854 -0.00501622 1.154 24 36 26
0.359766 -0.00499014 1.148 30 39 37
0.359974 -0.00496841 1.143 115 124 122
0.360167 -0.00494667 1.138 144 154 156
0.361298 -0.00493798 1.136 150 160 162
0.362423 -0.00492928 1.134 160 170 172
0.364184 -0.00492928 1.134 162 172 174
0.366913 -0.00494232 1.137 118 125 129
0.371273 -0.0049771 1.145 94 101 105
-0.1656 -0.00330006 1.182 29 46 26
-0.164041 -0.00330565 1.184 29 46 26
-0.162339 -0.00330844 1.185 28 45 25
-0.160499 -0.00330844 1.185 29 46 26
-0.158926 -0.00331402 1.187 29 47 25
-0.157083 -0.00331402 1.187 27 45 23
-0.15537 -0.00331681 1.188 28 46 24
-0.153654 -0.00331961 1.189 28 46 24
-0.151936 -0.0033224 1.19 32 51 26
-0.150087 -0.0033224 1.19 34 53 28
-0.148488 -0.00332798 1.192 34 54 27
-0.146637 -0.00332798 1.192 32 52 25
-0.144786 -0.00332798 1.192 32 52 25
-0.143055 -0.00333077 1.193 32 52 25
-0.14132 -0.00333357 1.194 34 54 27
-0.139466 -0.00333357 1.194 35 55 28
-0.137612 -0.00333357 1.194 36 56 29
-0.135757 -0.00333357 1.194 38 58 31
-0.133903 -0.00333357 1.194 35 55 28
-0.132049 -0.00333357 1.194 31 51 24
-0.130194 -0.00333357 1.194 34 54 27
-0.12834 -0.00333357 1.194 29 49 22
-0.126486 -0.00333357 1.194 31 51 24
-0.124527 -0.00333077 1.193 30 50 23
-0.122674 -0.00333077 1.193 31 51 22
-0.120822 -0.00333077 1.193 30 50 21
-0.118969 -0.00333077 1.193 31 51 22
-0.117116 -0.00333077 1.193 27 47 18
-0.115263 -0.00333077 1.193 31 51 22
-0.113315 -0.00332798 1.192 34 54 25
-0.111464 -0.00332798 1.192 32 52 23
-0.109613 -0.00332798 1.192 32 52 23
-0.107762 -0.00332798 1.192 30 50 21
-0.105822 -0.00332519 1.191 29 49 20
-0.103972 -0.00332519 1.191 31 51 22
-0.102122 -0.00332519 1.191 32 52 23
-0.100273 -0.00332519 1.191 32 52 23
-0.0983404 -0.0033224 1.19 31 51 22
-0.0964923 -0.0033224 1.19 31 51 22
-0.0946442 -0.0033224 1.19 31 51 22
-0.092796 -0.0033224 1.19 29 49 20
-0.0910244 -0.00332519 1.191 29 49 20
-0.0892496 -0.00332798 1.192 30 50 21
-0.0873983 -0.00332798 1.192 31 51 22
-0.0855471 -0.00332798 1.192 30 50 21
-0.0836959 -0.00332798 1.192 30 50 21
-0.0818447 -0.00332798 1.192 31 51 22
-0.0799935 -0.00332798 1.192 32 52 23
-0.0781423 -0.00332798 1.192 29 49 20
-0.076291 -0.00332798 1.192 30 50 21
-0.0744398 -0.00332798 1.192 32 52 23
-0.0725277 -0.00332519 1.191 32 52 23
-0.0705594 -0.00331961 1.189 32 52 25
-0.068655 -0.00331681 1.188 32 52 25
-0.0667538 -0.00331402 1.187 31 51 24
-0.0649103 -0.00331402 1.187 29 49 22
-0.0629606 -0.00330844 1.185 29 49 22
-0.0611203 -0.00330844 1.185 29 49 22
-0.0592299 -0.00330565 1.184 30 49 24
-0.0572942 -0.00330006 1.182 30 49 24
-0.0554116 -0.00329727 1.181 31 50 25
-0.0535774 -0.00329727 1.181 31 50 25
-0.0516995 -0.00329448 1.18 30 47 27
-0.0497824 -0.0032889 1.178 28 45 25
-0.0478308 -0.00328052 1.175 29 45 30
-0.0331177 -0.00309904 1.11 96 95 142
-0.031309 -0.00309067 1.107 120 120 180
-0.0295364 -0.00308508 1.105 144 144 204
-0.0277196 -0.00307392 1.101 166 169 231
-0.0259388 -0.00306554 1.098 190 193 255
-0.0241673 -0.00305717 1.095 196 200 255
-0.0223847 -0.003046 1.091 193 197 255
-0.0206714 -0.00304321 1.09 204 211 254
-0.0189612 -0.00304041 1.089 213 220 255
-0.0172858 -0.00304321 1.09 218 230 254
-0.0156073 -0.003046 1.091 232 244 255
-0.0139129 -0.003046 1.091 226 239 255
-0.0122297 -0.00304879 1.092 211 224 245
-0.0105531 -0.00305437 1.094 214 222 236
-0.00716163 -0.00305717 1.095 250 250 255
-0.00546604 -0.00305996 1.096 251 251 255
-0.00376735 -0.00306275 1.097 251 255 255
-0.00206555 -0.00306554 1.098 251 255 255
-0.000360978 -0.00307112 1.1 251 255 254
0.00134858 -0.00307392 1.101 251 255 254
0.00306125 -0.00307671 1.102 251 255 254
0.00478136 -0.00308229 1.104 251 255 254
0.00650768 -0.00308788 1.106 251 255 254
0.00825508 -0.00309904 1.11 251 255 254
0.0100059 -0.00310742 1.113 251 255 254
0.0117555 -0.003113 1.115 251 255 254
0.0135235 -0.00312138 1.118 247 255 254
0.015287 -0.00312696 1.12 247 255 254
0.0170568 -0.00313255 1.122 251 253 255
0.0188329 -0.00313813 1.124 241 243 248
0.0206151 -0.00314372 1.126 177 175 192
0.0223837 -0.00314651 1.127 64 62 79
0.0241768 -0.00315209 1.129 6 11 14
0.0259531 -0.00315488 1.13 45 50 53
0.027708 -0.00315488 1.13 52 64 59
0.0313008 -0.00316326 1.133 39 59 45
0.0331771 -0.00317443 1.137 42 62 48
0.0350658 -0.00318559 1.141 44 65 47
0.0369992 -0.00319955 1.146 41 62 44
0.0389482 -0.00321351 1.151 38 60 39
0.0409835 -0.00323306 1.158 38 60 39
0.0430036 -0.00324981 1.164 39 62 39
0.0468593 -0.00326656 1.17 38 62 36
0.048926 -0.00328331 1.176 33 57 31
0.0509682 -0.00329727 1.181 37 62 34
0.0529811 -0.00330844 1.185 38 63 35
0.054914 -0.00331402 1.187 38 63 35
0.0568053 -0.00331681 1.188 37 62 34
0.058749 -0.0033224 1.19 38 63 35
0.060699 -0.00332798 1.192 38 63 35
0.0626027 -0.00333077 1.193 39 64 36
0.0645095 -0.00333357 1.194 38 63 35
0.0664194 -0.00333636 1.195 39 64 34
0.0682752 -0.00333636 1.195 39 64 34
0.0701311 -0.00333636 1.195 41 63 34
0.071987 -0.00333636 1.195 41 63 34
0.0738429 -0.00333636 1.195 40 63 31
0.0756988 -0.00333636 1.195 36 59 27
0.0775546 -0.00333636 1.195 42 63 31
0.0794105 -0.00333636 1.195 43 64 32
0.0812664 -0.00333636 1.195 44 66 32
0.0831223 -0.00333636 1.195 46 68 34
0.0849781 -0.00333636 1.195 49 71 37
0.086834 -0.00333636 1.195 48 70 36
0.0886899 -0.00333636 1.195 49 71 37
0.0905458 -0.00333636 1.195 49 71 37
0.092479 -0.00333915 1.196 50 72 38
0.0943364 -0.00333915 1.196 56 78 44
0.0961938 -0.00333915 1.196 57 79 45
0.0980512 -0.00333915 1.196 58 80 46
0.0999087 -0.00333915 1.196 56 78 44
0.101766 -0.00333915 1.196 50 72 38
0.10371 -0.00334194 1.197 49 71 37
0.105481 -0.00333915 1.196 48 70 36
0.107338 -0.00333915 1.196 49 71 37
0.109196 -0.00333915 1.196 49 71 37
0.111053 -0.00333915 1.196 48 70 36
0.112816 -0.00333636 1.195 46 68 34
0.114672 -0.00333636 1.195 50 72 38
0.116528 -0.00333636 1.195 50 72 38
0.118285 -0.00333357 1.194 50 73 36
0.120039 -0.00333077 1.193 51 74 37
0.121789 -0.00332798 1.192 51 74 37
0.12364 -0.00332798 1.192 53 76 39
0.125386 -0.00332519 1.191 50 76 37
0.127129 -0.0033224 1.19 49 75 36
0.128977 -0.0033224 1.19 48 74 35
0.130715 -0.00331961 1.189 50 76 37
0.13245 -0.00331681 1.188 51 77 38
0.134295 -0.00331681 1.188 51 77 38
0.13614 -0.00331681 1.188 51 77 36
0.137869 -0.00331402 1.187 50 76 35
0.139713 -0.00331402 1.187 51 77 36
0.141556 -0.00331402 1.187 51 77 36
0.1434 -0.00331402 1.187 51 77 36
0.145243 -0.00331402 1.187 51 77 36
0.147087 -0.00331402 1.187 53 79 38
0.148805 -0.00331123 1.186 54 80 39
0.150646 -0.00331123 1.186 55 81 40
0.15236 -0.00330844 1.185 56 82 41
0.1542 -0.00330844 1.185 57 83 42
0.15604 -0.00330844 1.185 56 82 41
0.157881 -0.00330844 1.185 58 82 41
0.159721 -0.00330844 1.185 58 82 41
0.161562 -0.00330844 1.185 57 82 38
0.163402 -0.00330844 1.185 57 82 38
0.165242 -0.00330844 1.185 60 85 41
0.167083 -0.00330844 1.185 62 87 43
0.168923 -0.00330844 1.185 62 87 43
0.170763 -0.00330844 1.185 62 87 43
0.172604 -0.00330844 1.185 63 88 44
0.174444 -0.00330844 1.185 63 88 44
0.176284 -0.00330844 1.185 64 89 45
0.178125 -0.00330844 1.185 64 89 45
0.180117 -0.00331123 1.186 63 87 46
0.182112 -0.00331402 1.187 64 88 47
0.183801 -0.00331123 1.186 64 88 47
0.185799 -0.00331402 1.187 63 87 46
0.187484 -0.00331123 1.186 64 88 49
0.189326 -0.00331123 1.186 64 88 49
0.191168 -0.00331123 1.186 64 88 49
0.193173 -0.00331402 1.187 64 88 49
0.194852 -0.00331123 1.186 64 88 49
0.196694 -0.00331123 1.186 64 88 49
0.198536 -0.00331123 1.186 64 88 49
0.200378 -0.00331123 1.186 64 88 49
0.20222 -0.00331123 1.186 63 87 46
0.204234 -0.00331402 1.187 63 87 46
0.206077 -0.00331402 1.187 63 87 46
0.20792 -0.00331402 1.187 63 87 46
0.209764 -0.00331402 1.187 63 87 46
0.211786 -0.00331681 1.188 64 88 47
0.21399 -0.0033224 1.19 63 87 46
0.215838 -0.0033224 1.19 63 87 46
0.217687 -0.0033224 1.19 63 87 46
0.219904 -0.00332798 1.192 64 88 47
0.221755 -0.00332798 1.192 63 87 46
0.223606 -0.00332798 1.192 62 86 45
0.225457 -0.00332798 1.192 62 86 45
0.227499 -0.00333077 1.193 63 87 46
0.229352 -0.00333077 1.193 62 86 45
0.231205 -0.00333077 1.193 59 83 42
0.232862 -0.00332798 1.192 58 80 41
0.234713 -0.00332798 1.192 50 72 33
0.236366 -0.00332519 1.191 52 74 35
0.238016 -0.0033224 1.19 57 79 40
0.239864 -0.0033224 1.19 48 69 32
0.241509 -0.00331961 1.189 46 67 30
0.243151 -0.00331681 1.188 46 66 32
0.24479 -0.00331402 1.187 41 61 27
0.246425 -0.00331123 1.186 39 59 25
0.248058 -0.00330844 1.185 43 63 29
0.249898 -0.00330844 1.185 36 51 23
0.251526 -0.00330565 1.184 29 44 16
0.253151 -0.00330286 1.183 31 46 18
0.254773 -0.00330006 1.182 29 44 16
0.256608 -0.00330006 1.182 32 47 21
0.258444 -0.00330006 1.182 33 48 22
0.26028 -0.00330006 1.182 32 47 21
0.262115 -0.00330006 1.182 33 48 22
0.263951 -0.00330006 1.182 33 47 23
0.266236 -0.00330565 1.184 33 47 23
0.268302 -0.00330844 1.185 31 48 23
0.272212 -0.00331123 1.186 31 48 23
0.274285 -0.00331402 1.187 31 48 23
0.276826 -0.0033224 1.19 32 49 24
0.278674 -0.0033224 1.19 32 49 24
0.280994 -0.00332798 1.192 32 49 24
0.28332 -0.00333357 1.194 31 48 23
0.285413 -0.00333636 1.195 31 48 23
0.287509 -0.00333915 1.196 31 48 23
0.289608 -0.00334194 1.197 31 48 23
0.291467 -0.00334194 1.197 30 47 22
0.293326 -0.00334194 1.197 30 47 22
0.294939 -0.00333915 1.196 30 47 22
0.296796 -0.00333915 1.196 31 48 23
0.298903 -0.00334194 1.197 32 49 24
0.300511 -0.00333915 1.196 32 49 24
0.302621 -0.00334194 1.197 32 49 24
0.303971 -0.00333636 1.195 32 49 24
0.306083 -0.00333915 1.196 31 48 23
0.307683 -0.00333636 1.195 31 48 23
0.309539 -0.00333636 1.195 31 48 23
0.311395 -0.00333636 1.195 31 48 23
0.312989 -0.00333357 1.194 31 48 23
0.314843 -0.00333357 1.194 31 48 23
0.316432 -0.00333077 1.193 30 47 22
0.318018 -0.00332798 1.192 31 48 23
0.319869 -0.00332798 1.192 31 48 23
0.321451 -0.00332519 1.191 31 48 23
0.323029 -0.0033224 1.19 31 48 23
0.324331 -0.00331681 1.188 32 49 24
0.325901 -0.00331402 1.187 32 49 24
0.327469 -0.00331123 1.186 34 51 26
0.329033 -0.00330844 1.185 29 46 21
0.330594 -0.00330565 1.184 32 50 23
0.332152 -0.00330286 1.183 36 54 27
0.333707 -0.00330006 1.182 34 52 25
0.335543 -0.00330006 1.182 38 56 29
0.337378 -0.00330006 1.182 40 58 31
0.339214 -0.00330006 1.182 39 57 30
0.34105 -0.00330006 1.182 41 59 32
0.342885 -0.00330006 1.182 45 63 36
0.344721 -0.00330006 1.182 43 61 34
0.346557 -0.00330006 1.182 44 62 35
0.348098 -0.00329727 1.181 44 62 35
0.349636 -0.00329448 1.18 43 61 34
0.351468 -0.00329448 1.18 42 61 36
0.353301 -0.00329448 1.18 39 58 33
0.354832 -0.00329169 1.179 45 62 42
0.356361 -0.0032889 1.178 36 53 33
0.357886 -0.0032861 1.177 25 41 26
0.359103 -0.00328052 1.175 27 43 28
0.360006 -0.00327214 1.172 41 54 41
0.360592 -0.00326098 1.168 31 44 31
0.361164 -0.00324981 1.164 26 38 28
0.359542 -0.0032191 1.153 25 37 27
0.359452 -0.00320235 1.147 32 41 39
0.359659 -0.00318839 1.142 116 125 123
0.35985 -0.00317443 1.137 148 157 161
0.361298 -0.00317163 1.136 152 161 165
0.362103 -0.00316326 1.133 159 168 172
0.364184 -0.00316605 1.134 163 172 176
0.366591 -0.00317163 1.136 122 128 135
0.370949 -0.00319397 1.144 94 100 107
-0.1656 -0.0014622 1.182 32 49 29
-0.164041 -0.00146467 1.184 31 48 28
-0.162339 -0.00146591 1.185 31 48 28
-0.160499 -0.00146591 1.185 30 47 27
-0.158792 -0.00146714 1.186 29 46 26
-0.157083 -0.00146838 1.187 28 45 25
-0.15537 -0.00146962 1.188 29 47 25
-0.153654 -0.00147085 1.189 29 47 25
-0.151936 -0.00147209 1.19 31 50 25
-0.150087 -0.00147209 1.19 31 50 25
-0.148364 -0.00147333 1.191 30 50 23
-0.146637 -0.00147457 1.192 30 50 23
-0.144786 -0.00147457 1.192 31 51 24
-0.143055 -0.0014758 1.193 32 52 25
-0.14132 -0.00147704 1.194 35 55 28
-0.139466 -0.00147704 1.194 41 61 34
-0.137612 -0.00147704 1.194 38 58 31
-0.135757 -0.00147704 1.194 37 57 30
-0.133903 -0.00147704 1.194 30 50 23
-0.132049 -0.00147704 1.194 32 52 25
-0.130194 -0.00147704 1.194 34 54 27
-0.12834 -0.00147704 1.194 30 50 23
-0.126486 -0.00147704 1.194 31 51 24
-0.124631 -0.00147704 1.194 31 51 24
-0.122777 -0.00147704 1.194 32 52 25
-0.120923 -0.00147704 1.194 31 51 24
-0.118969 -0.0014758 1.193 31 51 24
-0.117116 -0.0014758 1.193 30 50 23
-0.115263 -0.0014758 1.193 30 50 23
-0.113315 -0.00147457 1.192 31 51 24
-0.111464 -0.00147457 1.192 31 51 24
-0.109613 -0.00147457 1.192 31 51 24
-0.107671 -0.00147333 1.191 29 49 22
-0.105733 -0.00147209 1.19 30 50 23
-0.103885 -0.00147209 1.19 31 51 24
-0.102037 -0.00147209 1.19 31 51 24
-0.100188 -0.00147209 1.19 31 51 24
-0.0983404 -0.00147209 1.19 31 51 24
-0.0964923 -0.00147209 1.19 31 51 24
-0.0946442 -0.00147209 1.19 29 49 22
-0.092796 -0.00147209 1.19 28 48 21
-0.0909479 -0.00147209 1.19 28 48 21
-0.0891747 -0.00147333 1.191 30 50 23
-0.0873983 -0.00147457 1.192 30 50 23
-0.0855471 -0.00147457 1.192 30 50 23
-0.0836959 -0.00147457 1.192 29 49 22
-0.0818447 -0.00147457 1.192 29 49 22
-0.0799935 -0.00147457 1.192 28 48 21
-0.0781423 -0.00147457 1.192 28 48 21
-0.076291 -0.00147457 1.192 28 48 21
-0.0744398 -0.00147457 1.192 27 47 20
-0.0725277 -0.00147333 1.191 30 50 23
-0.0706187 -0.00147209 1.19 32 52 25
-0.0687128 -0.00147085 1.189 31 51 24
-0.0668663 -0.00147085 1.189 31 50 25
-0.064965 -0.00146962 1.188 28 47 22
-0.0630669 -0.00146838 1.187 29 48 23
-0.0611718 -0.00146714 1.186 29 48 23
-0.0593299 -0.00146714 1.186 30 49 24
-0.0574396 -0.00146591 1.185 30 49 24
-0.0555523 -0.00146467 1.184 29 47 25
-0.0537135 -0.00146467 1.184 30 48 26
-0.0517871 -0.0014622 1.182 29 47 25
-0.0499514 -0.0014622 1.182 29 47 25
-0.0481157 -0.0014622 1.182 28 44 27
-0.0351869 -0.00138674 1.121 48 49 91
-0.031507 -0.00137808 1.114 106 106 164
-0.0296967 -0.00137436 1.111 120 120 178
-0.0278454 -0.00136818 1.106 139 143 203
-0.0260333 -0.00136323 1.102 162 166 226
-0.0242336 -0.00135828 1.098 185 188 250
-0.0224668 -0.00135457 1.095 201 204 255
-0.0207093 -0.00135086 1.092 195 203 251
-0.018996 -0.00134962 1.091 207 215 255
-0.0173016 -0.00134962 1.091 217 230 255
-0.0156216 -0.00135086 1.092 232 245 255
-0.0139384 -0.0013521 1.093 232 245 255
-0.0105628 -0.00135457 1.095 228 239 243
-0.00887029 -0.00135581 1.096 242 253 255
-0.00717471 -0.00135705 1.097 251 254 255
-0.005481 -0.00135952 1.099 251 254 255
-0.00377765 -0.00136076 1.1 251 255 254
-0.0020712 -0.00136199 1.101 251 255 254
-0.000361634 -0.00136323 1.102 251 255 254
0.00135103 -0.00136447 1.103 251 255 254
0.00306681 -0.00136571 1.104 251 255 254
0.00479002 -0.00136818 1.106 251 255 254
0.00652533 -0.00137189 1.109 251 255 254
0.00826252 -0.00137436 1.111 251 255 254
0.0100239 -0.00137931 1.115 249 255 254
0.0117766 -0.00138179 1.117 249 255 254
0.0135355 -0.00138426 1.119 247 255 255
0.0153007 -0.00138674 1.121 247 255 255
0.017072 -0.00138921 1.123 238 243 255
0.0188496 -0.00139168 1.125 178 183 199
0.0206151 -0.00139292 1.126 59 63 77
0.0224035 -0.00139539 1.128 12 16 30
0.0241768 -0.00139663 1.129 38 46 53
0.0259531 -0.00139787 1.13 50 58 65
0.027708 -0.00139787 1.13 48 61 59
0.0312731 -0.00140034 1.132 34 54 40
0.0331479 -0.00140529 1.136 33 53 39
0.0350351 -0.00141024 1.14 33 54 36
0.036967 -0.00141642 1.145 35 56 38
0.0389482 -0.00142385 1.151 35 57 36
0.0409481 -0.00143127 1.157 37 59 38
0.0429666 -0.00143869 1.163 40 64 38
0.0468193 -0.00144611 1.169 37 61 35
0.0488844 -0.00145354 1.175 34 58 32
0.050925 -0.00145972 1.18 39 60 35
0.0529364 -0.00146467 1.184 39 60 35
0.054914 -0.00146838 1.187 39 61 34
0.0567575 -0.00146838 1.187 36 58 31
0.0586997 -0.00147085 1.189 34 56 29
0.0606481 -0.00147333 1.191 39 61 34
0.0625502 -0.00147457 1.192 39 61 34
0.0644554 -0.0014758 1.193 39 61 34
0.0663638 -0.00147704 1.194 41 63 34
0.0682752 -0.00147828 1.195 41 63 34
0.0701311 -0.00147828 1.195 40 62 33
0.071987 -0.00147828 1.195 39 61 32
0.0738429 -0.00147828 1.195 39 60 28
0.0756988 -0.00147828 1.195 39 60 28
0.0775546 -0.00147828 1.195 39 60 28
0.079344 -0.00147704 1.194 43 64 32
0.0812664 -0.00147828 1.195 48 70 36
0.0831223 -0.00147828 1.195 45 67 33
0.084907 -0.00147704 1.194 44 66 32
0.086834 -0.00147828 1.195 46 68 34
0.0886899 -0.00147828 1.195 46 68 34
0.0905458 -0.00147828 1.195 48 70 36
0.0924016 -0.00147828 1.195 45 67 33
0.0942575 -0.00147828 1.195 48 70 36
0.0961134 -0.00147828 1.195 45 67 33
0.0980512 -0.00147951 1.196 42 64 30
0.0999087 -0.00147951 1.196 37 59 25
0.101851 -0.00148075 1.197 39 61 27
0.10371 -0.00148075 1.197 44 66 32
0.105481 -0.00147951 1.196 46 68 34
0.107338 -0.00147951 1.196 46 68 34
0.109196 -0.00147951 1.196 46 68 34
0.111053 -0.00147951 1.196 45 67 33
0.112911 -0.00147951 1.196 48 70 36
0.114672 -0.00147828 1.195 49 71 37
0.116528 -0.00147828 1.195 49 71 37
0.118384 -0.00147828 1.195 49 71 37
0.120139 -0.00147704 1.194 48 70 36
0.121891 -0.0014758 1.193 43 66 29
0.123744 -0.0014758 1.193 46 69 32
0.125492 -0.00147457 1.192 48 73 36
0.127236 -0.00147333 1.191 49 74 37
0.128977 -0.00147209 1.19 50 76 37
0.130825 -0.00147209 1.19 50 76 37
0.132562 -0.00147085 1.189 51 77 38
0.134409 -0.00147085 1.189 51 77 38
0.136255 -0.00147085 1.189 51 77 38
0.137985 -0.00146962 1.188 50 76 37
0.139713 -0.00146838 1.187 50 76 35
0.141556 -0.00146838 1.187 51 77 36
0.1434 -0.00146838 1.187 53 79 38
0.145365 -0.00146962 1.188 53 79 38
