ply
format ascii 1.0
comment Created by Open3D
element vertex 1324
property double x
property double y
property double z
property uchar red
property uchar green
property uchar blue
end_header
0.19301 -0.0328166 1.186 56 82 36
0.194688 -0.032789 1.185 56 82 36
0.196528 -0.032789 1.185 56 82 36
0.198368 -0.032789 1.185 57 83 37
0.200209 -0.032789 1.185 58 84 38
0.20222 -0.0328166 1.186 58 84 38
0.204062 -0.0328166 1.186 58 84 38
0.205903 -0.0328166 1.186 57 83 37
0.207745 -0.0328166 1.186 55 81 35
0.209587 -0.0328166 1.186 57 83 37
0.211607 -0.0328443 1.187 57 83 37
0.213451 -0.0328443 1.187 58 84 38
0.215476 -0.032872 1.188 57 83 37
0.217321 -0.032872 1.188 58 83 39
0.219166 -0.032872 1.188 59 84 40
0.221197 -0.0328996 1.189 59 84 40
0.223231 -0.0329273 1.19 58 83 39
0.225079 -0.0329273 1.19 57 81 40
0.227118 -0.032955 1.191 56 80 39
0.228967 -0.032955 1.191 57 81 42
0.231011 -0.0329826 1.192 55 79 40
0.232862 -0.0329826 1.192 61 82 45
0.234713 -0.0329826 1.192 58 79 42
0.236565 -0.0329826 1.192 46 66 32
0.238416 -0.0329826 1.192 39 59 25
0.240267 -0.0329826 1.192 45 65 31
0.242118 -0.0329826 1.192 44 64 30
0.24356 -0.0329273 1.19 43 60 27
0.245408 -0.0329273 1.19 48 65 32
0.246841 -0.032872 1.188 40 57 24
0.248476 -0.0328443 1.187 45 62 29
0.25032 -0.0328443 1.187 35 52 19
0.251738 -0.032789 1.185 28 45 12
0.253365 -0.0327613 1.184 31 46 18
0.254988 -0.0327336 1.183 31 46 18
0.256825 -0.0327336 1.183 32 47 19
0.258444 -0.0327059 1.182 31 46 18
0.26028 -0.0327059 1.182 31 46 20
0.262115 -0.0327059 1.182 31 46 20
0.263951 -0.0327059 1.182 31 46 20
0.265787 -0.0327059 1.182 31 46 20
0.267622 -0.0327059 1.182 31 45 21
0.269458 -0.0327059 1.182 31 45 21
0.271523 -0.0327336 1.183 29 46 21
0.273592 -0.0327613 1.184 27 44 19
0.275663 -0.032789 1.185 27 44 19
0.277737 -0.0328166 1.186 27 44 19
0.279815 -0.0328443 1.187 29 46 21
0.28398 -0.0328996 1.189 29 46 21
0.286067 -0.0329273 1.19 27 44 19
0.288399 -0.0329826 1.192 26 43 18
0.290493 -0.0330103 1.193 26 43 18
0.292836 -0.0330657 1.195 31 48 23
0.294939 -0.0330933 1.196 26 43 18
0.296796 -0.0330933 1.196 27 44 19
0.298654 -0.0330933 1.196 26 43 18
0.300511 -0.0330933 1.196 27 44 19
0.302116 -0.0330657 1.195 30 47 22
0.303717 -0.033038 1.194 29 46 21
0.305315 -0.0330103 1.193 30 47 22
0.306911 -0.0329826 1.192 30 47 22
0.308503 -0.032955 1.191 29 46 21
0.309831 -0.0328996 1.189 30 47 22
0.311154 -0.0328443 1.187 30 47 22
0.312997 -0.0328443 1.187 29 46 21
0.314841 -0.0328443 1.187 29 46 21
0.316417 -0.0328166 1.186 30 47 22
0.318259 -0.0328166 1.186 31 48 23
0.320101 -0.0328166 1.186 31 48 23
0.321943 -0.0328166 1.186 31 48 23
0.324058 -0.0328443 1.187 29 49 22
0.325901 -0.0328443 1.187 29 49 22
0.327745 -0.0328443 1.187 31 51 22
0.329588 -0.0328443 1.187 36 56 27
0.331711 -0.032872 1.188 35 56 24
0.333837 -0.0328996 1.189 34 55 23
0.335683 -0.0328996 1.189 36 57 25
0.337814 -0.0329273 1.19 37 58 26
0.339662 -0.0329273 1.19 39 60 28
0.34151 -0.0329273 1.19 37 58 26
0.343358 -0.0329273 1.19 39 60 28
0.345206 -0.0329273 1.19 41 62 30
0.347346 -0.032955 1.191 38 59 27
0.349196 -0.032955 1.191 30 51 19
0.35075 -0.0329273 1.19 41 61 32
0.352599 -0.0329273 1.19 41 61 32
0.354149 -0.0328996 1.189 38 57 32
0.355696 -0.032872 1.188 37 56 31
0.35724 -0.0328443 1.187 38 56 34
0.359084 -0.0328443 1.187 44 62 40
0.360319 -0.032789 1.185 29 46 26
0.362159 -0.032789 1.185 21 38 18
0.363385 -0.0327336 1.183 21 37 20
0.364605 -0.0326783 1.181 23 39 22
0.366129 -0.0326506 1.18 25 37 27
0.36609 -0.0324846 1.174 24 36 26
0.36572 -0.0322909 1.167 28 33 36
0.365328 -0.0320972 1.16 78 83 86
0.363015 -0.0317375 1.147 137 142 145
0.362888 -0.0315715 1.141 132 137 140
0.364021 -0.0315161 1.139 138 144 144
0.365469 -0.0314885 1.138 159 165 165
0.367881 -0.0315438 1.14 146 152 152
0.371273 -0.0316822 1.145 85 91 91
-0.167001 -0.0311292 1.192 32 51 26
-0.165288 -0.0311553 1.193 31 50 25
-0.163572 -0.0311815 1.194 30 50 23
-0.161853 -0.0312076 1.195 30 50 23
-0.159997 -0.0312076 1.195 29 49 22
-0.158142 -0.0312076 1.195 29 49 22
-0.156416 -0.0312337 1.196 29 49 22
-0.154559 -0.0312337 1.196 30 50 23
-0.152829 -0.0312598 1.197 27 47 18
-0.15097 -0.0312598 1.197 27 47 18
-0.149236 -0.0312859 1.198 31 51 22
-0.147498 -0.031312 1.199 35 55 26
-0.145758 -0.0313382 1.2 37 57 28
-0.143894 -0.0313382 1.2 38 58 29
-0.142031 -0.0313382 1.2 38 58 29
-0.140284 -0.0313643 1.201 38 58 29
-0.138418 -0.0313643 1.201 38 59 27
-0.136667 -0.0313904 1.202 41 62 30
-0.1348 -0.0313904 1.202 41 62 30
-0.132933 -0.0313904 1.202 39 60 28
-0.131176 -0.0314165 1.203 41 62 30
-0.129307 -0.0314165 1.203 39 60 28
-0.127439 -0.0314165 1.203 37 58 26
-0.125571 -0.0314165 1.203 38 59 27
-0.123703 -0.0314165 1.203 38 59 27
-0.121834 -0.0314165 1.203 37 58 26
-0.119966 -0.0314165 1.203 39 58 26
-0.118098 -0.0314165 1.203 39 58 26
-0.116133 -0.0313904 1.202 39 58 26
-0.114171 -0.0313643 1.201 38 57 25
-0.112212 -0.0313382 1.2 38 57 25
-0.110349 -0.0313382 1.2 40 59 27
-0.108485 -0.0313382 1.2 40 59 27
-0.106532 -0.031312 1.199 41 60 28
-0.104583 -0.0312859 1.198 41 60 28
-0.102637 -0.0312598 1.197 41 60 28
-0.100778 -0.0312598 1.197 40 59 27
-0.0988362 -0.0312337 1.196 40 59 27
-0.0968977 -0.0312076 1.195 43 62 30
-0.0950418 -0.0312076 1.195 43 62 30
-0.09303 -0.0311553 1.193 43 62 30
-0.0911772 -0.0311553 1.193 41 60 28
-0.0892496 -0.0311292 1.192 41 60 28
-0.0873983 -0.0311292 1.192 44 63 31
-0.0854754 -0.0311031 1.191 40 60 26
-0.0835555 -0.031077 1.19 36 56 22
-0.0815701 -0.0310248 1.188 34 54 20
-0.0796579 -0.0309987 1.187 38 58 24
-0.0778145 -0.0309987 1.187 44 63 31
-0.075843 -0.0309464 1.185 43 62 30
-0.0740027 -0.0309464 1.185 41 59 30
-0.0721623 -0.0309464 1.185 40 58 29
-0.0702627 -0.0309203 1.184 36 54 25
-0.0683661 -0.0308942 1.183 34 52 23
-0.0664726 -0.0308681 1.182 30 48 21
-0.0645822 -0.030842 1.181 29 47 20
-0.0627481 -0.030842 1.181 27 44 19
-0.0608624 -0.0308159 1.18 27 44 19
-0.0590298 -0.0308159 1.18 29 42 21
-0.0571487 -0.0307897 1.179 28 41 20
-0.0552708 -0.0307636 1.178 27 39 20
-0.0534413 -0.0307636 1.178 27 39 20
-0.0516119 -0.0307636 1.178 27 38 24
-0.0498246 -0.0307897 1.179 27 38 24
-0.0479529 -0.0307636 1.178 22 30 23
-0.0461626 -0.0307897 1.179 22 30 23
-0.0443316 -0.0307897 1.179 22 28 27
-0.0160805 -0.0264807 1.014 62 80 110
-0.0145057 -0.0264807 1.014 98 116 146
-0.0129182 -0.0264546 1.013 123 147 179
-0.011345 -0.0264546 1.013 129 153 185
-0.00977177 -0.0264546 1.013 126 155 188
-0.00819045 -0.0264285 1.012 120 149 182
-0.00661878 -0.0264285 1.012 110 141 175
-0.00504711 -0.0264285 1.012 108 139 173
-0.00347544 -0.0264285 1.012 107 137 174
-0.00190377 -0.0264285 1.012 108 138 175
-0.0003321 -0.0264285 1.012 107 137 174
0.00123835 -0.0264024 1.011 106 136 173
0.00281124 -0.0264285 1.012 106 135 174
0.00438291 -0.0264285 1.012 106 135 174
0.0059487 -0.0264024 1.011 107 136 175
0.00752625 -0.0264285 1.012 107 136 175
0.00908893 -0.0264024 1.011 106 135 174
0.0106591 -0.0264024 1.011 108 137 176
0.0122292 -0.0264024 1.011 101 130 169
0.0137856 -0.0263763 1.01 116 145 184
0.0153542 -0.0263763 1.01 112 141 180
0.0169228 -0.0263763 1.01 112 141 180
0.018473 -0.0263502 1.009 112 141 180
0.02004 -0.0263502 1.009 114 143 182
0.021607 -0.0263502 1.009 115 144 183
0.0231741 -0.0263502 1.009 110 139 178
0.0247411 -0.0263502 1.009 109 138 177
0.026282 -0.026324 1.008 109 138 177
0.0278475 -0.026324 1.008 109 138 177
0.0294129 -0.026324 1.008 109 138 177
0.0309784 -0.026324 1.008 109 138 177
0.0325438 -0.026324 1.008 113 142 181
0.0341093 -0.026324 1.008 114 143 182
0.0357101 -0.0263502 1.009 114 143 182
0.0372772 -0.0263502 1.009 113 142 181
0.0388442 -0.0263502 1.009 113 142 181
0.0404112 -0.0263502 1.009 112 143 182
0.0419782 -0.0263502 1.009 111 142 181
0.0435452 -0.0263502 1.009 110 141 180
0.0451569 -0.0263763 1.01 110 141 180
0.0467255 -0.0263763 1.01 110 141 180
0.0482941 -0.0263763 1.01 111 142 181
0.049912 -0.0264024 1.011 113 144 183
0.0514821 -0.0264024 1.011 113 144 183
0.0530522 -0.0264024 1.011 111 142 181
0.0546223 -0.0264024 1.011 113 144 183
0.0561925 -0.0264024 1.011 115 146 185
0.0577626 -0.0264024 1.011 115 146 185
0.0593327 -0.0264024 1.011 116 147 186
0.0608426 -0.0263763 1.01 113 144 183
0.0624111 -0.0263763 1.01 110 139 178
0.0639797 -0.0263763 1.01 121 150 189
0.0654834 -0.0263502 1.009 127 158 197
0.0670504 -0.0263502 1.009 121 152 191
0.0685494 -0.026324 1.008 119 150 189
0.0701148 -0.026324 1.008 119 150 189
0.0716092 -0.0262979 1.007 119 150 189
0.0731004 -0.0262718 1.006 122 153 192
0.0746628 -0.0262718 1.006 127 158 197
0.0762251 -0.0262718 1.006 119 150 189
0.0777102 -0.0262457 1.005 111 142 181
0.079271 -0.0262457 1.005 116 147 186
0.0809122 -0.0262718 1.006 116 147 186
0.0824745 -0.0262718 1.006 118 149 188
0.0840369 -0.0262718 1.006 118 149 188
0.0856843 -0.0262979 1.007 118 149 188
0.0872482 -0.0262979 1.007 114 145 184
0.0889003 -0.026324 1.008 115 146 185
0.0905555 -0.0263502 1.009 116 147 186
0.0922139 -0.0263763 1.01 113 144 183
0.0937824 -0.0263763 1.01 113 142 181
0.0954454 -0.0264024 1.011 113 142 181
0.0970155 -0.0264024 1.011 112 141 180
0.0986831 -0.0264285 1.012 114 143 182
0.100255 -0.0264285 1.012 110 136 176
0.101826 -0.0264285 1.012 112 138 178
0.103398 -0.0264285 1.012 113 143 180
0.10497 -0.0264285 1.012 117 147 184
0.106436 -0.0264024 1.011 150 182 214
0.108006 -0.0264024 1.011 195 227 255
0.109468 -0.0263763 1.01 204 236 252
0.111037 -0.0263763 1.01 121 153 169
0.145243 -0.0309987 1.187 56 80 46
0.147087 -0.0309987 1.187 57 82 45
0.14893 -0.0309987 1.187 57 82 45
0.150773 -0.0309987 1.187 56 82 43
0.152617 -0.0309987 1.187 56 82 43
0.15446 -0.0309987 1.187 55 81 42
0.156436 -0.0310248 1.188 56 82 43
0.158281 -0.0310248 1.188 55 81 42
0.16026 -0.0310509 1.189 57 83 44
0.162107 -0.0310509 1.189 57 83 44
0.163953 -0.0310509 1.189 57 83 44
0.1658 -0.0310509 1.189 59 83 44
0.167788 -0.031077 1.19 60 84 45
0.169636 -0.031077 1.19 59 83 44
0.171484 -0.031077 1.19 58 82 43
0.173186 -0.0310509 1.189 58 82 43
0.175033 -0.0310509 1.189 57 81 42
0.176731 -0.0310248 1.188 55 79 38
0.178425 -0.0309987 1.187 57 81 40
0.180269 -0.0309987 1.187 58 82 41
0.182112 -0.0309987 1.187 59 83 42
0.183956 -0.0309987 1.187 60 85 41
0.185799 -0.0309987 1.187 60 85 41
0.187643 -0.0309987 1.187 59 84 40
0.189486 -0.0309987 1.187 58 83 39
0.191329 -0.0309987 1.187 58 84 38
0.19301 -0.0309725 1.186 59 85 39
0.194852 -0.0309725 1.186 62 88 42
0.196694 -0.0309725 1.186 58 84 38
0.198536 -0.0309725 1.186 57 83 37
0.200378 -0.0309725 1.186 58 84 38
0.20222 -0.0309725 1.186 59 85 39
0.204062 -0.0309725 1.186 59 85 39
0.205903 -0.0309725 1.186 57 83 37
0.207745 -0.0309725 1.186 57 83 37
0.209764 -0.0309987 1.187 59 85 39
0.211607 -0.0309987 1.187 58 84 38
0.213451 -0.0309987 1.187 62 88 42
0.215476 -0.0310248 1.188 59 85 39
0.217321 -0.0310248 1.188 60 85 41
0.219166 -0.0310248 1.188 59 84 40
0.221197 -0.0310509 1.189 58 83 39
0.223043 -0.0310509 1.189 58 83 39
0.225079 -0.031077 1.19 57 81 40
0.226927 -0.031077 1.19 57 81 40
0.228967 -0.0311031 1.191 58 82 43
0.231011 -0.0311292 1.192 56 80 41
0.232862 -0.0311292 1.192 54 74 40
0.234713 -0.0311292 1.192 54 74 40
0.236565 -0.0311292 1.192 51 71 37
0.238416 -0.0311292 1.192 44 64 30
0.240267 -0.0311292 1.192 45 65 31
0.241915 -0.0311031 1.191 43 63 29
0.24356 -0.031077 1.19 40 60 26
0.245408 -0.031077 1.19 43 63 29
0.246841 -0.0310248 1.188 34 54 20
0.248476 -0.0309987 1.187 37 57 23
0.25032 -0.0309987 1.187 32 51 19
0.251738 -0.0309464 1.185 29 48 16
0.253365 -0.0309203 1.184 32 47 19
0.255204 -0.0309203 1.184 32 47 19
0.256825 -0.0308942 1.183 32 47 21
0.258444 -0.0308681 1.182 31 46 20
0.26028 -0.0308681 1.182 31 46 20
0.262115 -0.0308681 1.182 31 46 20
0.263951 -0.0308681 1.182 31 45 21
0.265787 -0.0308681 1.182 31 45 21
0.267622 -0.0308681 1.182 31 45 21
0.269686 -0.0308942 1.183 31 45 21
0.271753 -0.0309203 1.184 31 44 23
0.273823 -0.0309464 1.185 31 44 23
0.275663 -0.0309464 1.185 30 46 24
0.279815 -0.0309987 1.187 27 43 21
0.281896 -0.0310248 1.188 30 46 24
0.28398 -0.0310509 1.189 30 46 24
0.286067 -0.031077 1.19 27 43 21
0.288399 -0.0311292 1.192 20 36 14
0.290493 -0.0311553 1.193 27 43 21
0.292836 -0.0312076 1.195 31 47 25
0.294692 -0.0312076 1.195 29 45 23
0.296796 -0.0312337 1.196 27 43 21
0.298654 -0.0312337 1.196 27 43 21
0.30026 -0.0312076 1.195 30 46 24
0.302116 -0.0312076 1.195 30 46 24
0.303717 -0.0311815 1.194 29 45 23
0.30506 -0.0311292 1.192 30 46 24
0.306911 -0.0311292 1.192 30 46 24
0.308503 -0.0311031 1.191 29 45 23
0.310092 -0.031077 1.19 29 45 23
0.311416 -0.0310248 1.188 30 46 24
0.312997 -0.0309987 1.187 29 45 23
0.314841 -0.0309987 1.187 29 45 23
0.316684 -0.0309987 1.187 29 46 21
0.318528 -0.0309987 1.187 31 48 23
0.320371 -0.0309987 1.187 31 48 23
0.322214 -0.0309987 1.187 31 48 23
0.324058 -0.0309987 1.187 31 49 22
0.325901 -0.0309987 1.187 32 50 23
0.328021 -0.0310248 1.188 33 51 22
0.329866 -0.0310248 1.188 39 57 28
0.332269 -0.031077 1.19 37 58 26
0.334117 -0.031077 1.19 37 58 26
0.335966 -0.031077 1.19 42 63 31
0.337814 -0.031077 1.19 39 60 28
0.339662 -0.031077 1.19 41 62 30
0.34151 -0.031077 1.19 39 60 28
0.343647 -0.0311031 1.191 39 60 28
0.345496 -0.0311031 1.191 39 60 28
0.349196 -0.0311031 1.191 38 59 27
0.35075 -0.031077 1.19 41 61 32
0.352599 -0.031077 1.19 41 61 32
0.354447 -0.031077 1.19 41 60 35
0.355995 -0.0310509 1.189 39 58 33
0.357541 -0.0310248 1.188 39 57 35
0.359084 -0.0309987 1.187 37 55 33
0.360623 -0.0309725 1.186 32 50 28
0.362159 -0.0309464 1.185 34 52 30
0.364 -0.0309464 1.185 35 51 34
0.364914 -0.0308681 1.182 31 47 30
0.366749 -0.0308681 1.182 27 38 30
0.366402 -0.0306853 1.175 25 36 28
0.366033 -0.0305025 1.168 29 34 37
0.365328 -0.0302935 1.16 82 87 90
0.362698 -0.0299279 1.146 137 141 146
0.362888 -0.0297974 1.141 117 121 126
0.364021 -0.0297451 1.139 105 111 111
0.365469 -0.029719 1.138 138 144 144
0.368204 -0.0297974 1.141 143 146 149
0.371922 -0.0299541 1.147 90 93 96
-0.167001 -0.0292758 1.192 32 51 26
-0.165149 -0.0292758 1.192 30 49 24
-0.163572 -0.0293249 1.194 30 49 24
-0.161853 -0.0293495 1.195 30 49 24
-0.159997 -0.0293495 1.195 30 50 23
-0.158142 -0.0293495 1.195 30 50 23
-0.156416 -0.0293741 1.196 30 50 23
-0.154688 -0.0293986 1.197 30 50 23
-0.152829 -0.0293986 1.197 31 51 24
-0.151096 -0.0294232 1.198 30 50 23
-0.14936 -0.0294477 1.199 31 51 22
-0.147621 -0.0294723 1.2 35 55 26
-0.145758 -0.0294723 1.2 38 58 29
-0.143894 -0.0294723 1.2 41 61 32
-0.142149 -0.0294969 1.201 39 59 30
-0.1404 -0.0295214 1.202 42 62 33
-0.138418 -0.0294969 1.201 39 60 28
-0.136667 -0.0295214 1.202 42 63 31
-0.1348 -0.0295214 1.202 39 60 28
-0.132933 -0.0295214 1.202 37 58 26
-0.131176 -0.029546 1.203 39 60 28
-0.129307 -0.029546 1.203 39 60 28
-0.127439 -0.029546 1.203 37 58 26
-0.125571 -0.029546 1.203 37 58 26
-0.123703 -0.029546 1.203 38 59 27
-0.121834 -0.029546 1.203 37 58 26
-0.119966 -0.029546 1.203 37 58 26
-0.118098 -0.029546 1.203 37 58 26
-0.116133 -0.0295214 1.202 39 58 26
-0.114171 -0.0294969 1.201 39 58 26
-0.112212 -0.0294723 1.2 38 57 25
-0.110349 -0.0294723 1.2 38 57 25
-0.108485 -0.0294723 1.2 39 58 26
-0.106532 -0.0294477 1.199 40 59 27
-0.104583 -0.0294232 1.198 40 59 27
-0.102637 -0.0293986 1.197 40 59 27
-0.100778 -0.0293986 1.197 40 59 27
-0.0988362 -0.0293741 1.196 40 59 27
-0.0968977 -0.0293495 1.195 40 59 27
-0.0950418 -0.0293495 1.195 40 59 27
-0.09303 -0.0293004 1.193 40 59 27
-0.0911008 -0.0292758 1.192 40 59 27
-0.0892496 -0.0292758 1.192 41 61 27
-0.087325 -0.0292513 1.191 41 61 27
-0.0854036 -0.0292267 1.19 40 60 26
-0.0835555 -0.0292267 1.19 41 61 27
-0.0815701 -0.0291776 1.188 40 60 26
-0.0796579 -0.029153 1.187 40 60 26
-0.0778145 -0.029153 1.187 39 59 25
-0.075907 -0.0291285 1.186 38 58 24
-0.0740027 -0.0291039 1.185 38 57 25
-0.0721623 -0.0291039 1.185 41 60 28
-0.070322 -0.0291039 1.185 40 58 29
-0.0684817 -0.0291039 1.185 37 55 26
-0.0665851 -0.0290793 1.184 33 51 24
-0.0646916 -0.0290548 1.183 33 51 24
-0.0628012 -0.0290302 1.182 29 47 20
-0.0609655 -0.0290302 1.182 27 45 18
-0.0591298 -0.0290302 1.182 31 45 21
-0.0571972 -0.0289811 1.18 31 45 21
-0.0553646 -0.0289811 1.18 28 41 20
-0.0535321 -0.0289811 1.18 29 42 21
-0.0516995 -0.0289811 1.18 28 40 21
-0.0498669 -0.0289811 1.18 27 39 20
-0.0480343 -0.0289811 1.18 26 37 23
-0.0462017 -0.0289811 1.18 25 36 22
-0.0443316 -0.0289565 1.179 25 35 23
-0.0424645 -0.028932 1.178 24 34 22
-0.030953 -0.0284408 1.158 17 26 24
-0.0291043 -0.0283916 1.156 18 27 25
-0.0129182 -0.0248795 1.013 89 107 132
-0.011345 -0.0248795 1.013 124 142 167
-0.00976212 -0.024855 1.012 127 151 185
-0.00819045 -0.024855 1.012 131 155 189
-0.00661878 -0.024855 1.012 122 151 184
-0.00504711 -0.024855 1.012 117 146 179
-0.00347544 -0.024855 1.012 113 144 178
-0.00190377 -0.024855 1.012 108 139 173
-0.000331772 -0.0248304 1.011 107 137 174
0.00123835 -0.0248304 1.011 105 135 172
0.00280846 -0.0248304 1.011 107 137 174
0.00438291 -0.024855 1.012 108 138 175
0.0059487 -0.0248304 1.011 108 137 176
0.00752625 -0.024855 1.012 108 137 176
0.00909792 -0.024855 1.012 107 136 175
0.0106591 -0.0248304 1.011 110 139 178
0.0122292 -0.0248304 1.011 116 145 184
0.0137993 -0.0248304 1.011 114 143 182
0.0153542 -0.0248059 1.01 112 141 180
0.0169228 -0.0248059 1.01 112 141 180
0.0184913 -0.0248059 1.01 112 141 180
0.0200599 -0.0248059 1.01 112 141 180
0.021607 -0.0247813 1.009 112 141 180
0.0231741 -0.0247813 1.009 110 139 178
0.0247411 -0.0247813 1.009 110 139 178
0.0263081 -0.0247813 1.009 110 139 178
0.0278751 -0.0247813 1.009 110 139 178
0.0294421 -0.0247813 1.009 112 141 180
0.0309784 -0.0247567 1.008 114 143 182
0.0325438 -0.0247567 1.008 116 145 184
0.0341093 -0.0247567 1.008 115 144 183
0.0357101 -0.0247813 1.009 115 144 183
0.0372772 -0.0247813 1.009 115 144 183
0.0388442 -0.0247813 1.009 114 143 182
0.0404112 -0.0247813 1.009 114 143 182
0.0419782 -0.0247813 1.009 110 139 178
0.0435452 -0.0247813 1.009 110 139 178
0.0451569 -0.0248059 1.01 110 139 178
0.0467255 -0.0248059 1.01 113 142 181
0.0482941 -0.0248059 1.01 113 142 181
0.049912 -0.0248304 1.011 115 144 183
0.0514821 -0.0248304 1.011 117 146 185
0.0530522 -0.0248304 1.011 114 143 182
0.0546223 -0.0248304 1.011 108 137 176
0.0561925 -0.0248304 1.011 116 145 184
0.0577054 -0.0248059 1.01 118 147 186
0.059274 -0.0248059 1.01 117 146 185
0.0608426 -0.0248059 1.01 115 144 183
0.0623493 -0.0247813 1.009 115 144 183
0.0639164 -0.0247813 1.009 120 149 188
0.0654185 -0.0247567 1.008 124 153 192
0.0669839 -0.0247567 1.008 123 152 191
0.0684814 -0.0247322 1.007 122 151 190
0.0700453 -0.0247322 1.007 121 150 189
0.0715381 -0.0247076 1.006 120 151 190
0.0731004 -0.0247076 1.006 122 153 192
0.0746628 -0.0247076 1.006 122 153 192
0.0762251 -0.0247076 1.006 123 154 193
0.0777102 -0.024683 1.005 120 151 190
0.0793498 -0.0247076 1.006 119 150 189
0.0809122 -0.0247076 1.006 116 147 186
0.0824745 -0.0247076 1.006 116 147 186
0.0840369 -0.0247076 1.006 118 149 188
0.0856843 -0.0247322 1.007 116 147 186
0.0872482 -0.0247322 1.007 115 146 185
0.0889003 -0.0247567 1.008 115 146 185
0.0905555 -0.0247813 1.009 115 146 185
0.0921226 -0.0247813 1.009 107 138 177
0.0937824 -0.0248059 1.01 113 142 181
0.0954454 -0.0248304 1.011 114 143 182
0.0970155 -0.0248304 1.011 113 142 181
0.0985856 -0.0248304 1.011 112 141 180
0.100255 -0.024855 1.012 114 138 178
0.101826 -0.024855 1.012 114 138 178
0.103296 -0.0248304 1.011 113 143 180
0.104866 -0.0248304 1.011 123 153 190
0.106436 -0.0248304 1.011 180 210 238
0.108006 -0.0248304 1.011 211 241 255
0.109468 -0.0248059 1.01 172 203 215
0.1434 -0.029153 1.187 56 80 46
0.145243 -0.029153 1.187 56 80 46
0.147087 -0.029153 1.187 57 82 45
0.14893 -0.029153 1.187 58 83 46
0.150773 -0.029153 1.187 60 84 45
0.152617 -0.029153 1.187 60 84 45
0.154591 -0.0291776 1.188 58 82 43
0.156436 -0.0291776 1.188 59 83 44
0.158414 -0.0292021 1.189 58 82 43
0.16026 -0.0292021 1.189 58 82 43
0.162107 -0.0292021 1.189 59 83 44
0.164091 -0.0292267 1.19 59 83 44
0.165939 -0.0292267 1.19 59 83 44
0.167788 -0.0292267 1.19 59 83 44
0.169636 -0.0292267 1.19 58 82 43
0.171484 -0.0292267 1.19 57 81 42
0.173332 -0.0292267 1.19 58 82 43
0.175033 -0.0292021 1.189 58 82 43
0.176879 -0.0292021 1.189 58 82 41
0.178576 -0.0291776 1.188 59 83 42
0.180421 -0.0291776 1.188 59 83 42
0.182112 -0.029153 1.187 58 82 41
0.183956 -0.029153 1.187 60 85 41
0.185799 -0.029153 1.187 60 85 41
0.187643 -0.029153 1.187 60 85 41
0.189486 -0.029153 1.187 59 84 40
0.191329 -0.029153 1.187 59 85 39
0.193173 -0.029153 1.187 60 86 40
0.195016 -0.029153 1.187 62 88 42
0.196694 -0.0291285 1.186 60 86 40
0.198536 -0.0291285 1.186 56 83 34
0.200378 -0.0291285 1.186 58 85 36
0.20222 -0.0291285 1.186 59 86 37
0.204234 -0.029153 1.187 60 87 38
0.206077 -0.029153 1.187 59 86 37
0.20792 -0.029153 1.187 58 85 36
0.209764 -0.029153 1.187 58 85 36
0.211607 -0.029153 1.187 58 85 36
0.213631 -0.0291776 1.188 62 88 42
0.215476 -0.0291776 1.188 60 86 40
0.217321 -0.0291776 1.188 59 85 39
0.21935 -0.0292021 1.189 60 86 40
0.221197 -0.0292021 1.189 59 84 40
0.223043 -0.0292021 1.189 60 85 41
0.225079 -0.0292267 1.19 58 82 41
0.226927 -0.0292267 1.19 57 81 40
0.228967 -0.0292513 1.191 57 81 42
0.231011 -0.0292758 1.192 57 81 42
0.232862 -0.0292758 1.192 51 74 37
0.234713 -0.0292758 1.192 48 71 34
0.236565 -0.0292758 1.192 48 68 34
0.238416 -0.0292758 1.192 44 64 30
0.240267 -0.0292758 1.192 44 64 30
0.241915 -0.0292513 1.191 39 59 25
0.24356 -0.0292267 1.19 41 61 27
0.245408 -0.0292267 1.19 43 63 29
0.246841 -0.0291776 1.188 38 54 23
0.248686 -0.0291776 1.188 35 51 20
0.25032 -0.029153 1.187 33 49 18
0.251951 -0.0291285 1.186 31 47 16
0.253579 -0.0291039 1.185 32 47 19
0.255204 -0.0290793 1.184 32 47 19
0.256825 -0.0290548 1.183 32 47 21
0.258881 -0.0290793 1.184 32 47 21
0.2605 -0.0290548 1.183 32 46 22
0.262337 -0.0290548 1.183 32 46 22
0.264174 -0.0290548 1.183 32 46 22
0.266011 -0.0290548 1.183 31 45 21
0.268075 -0.0290793 1.184 31 44 23
0.270142 -0.0291039 1.185 29 42 21
0.271982 -0.0291039 1.185 29 42 21
0.274054 -0.0291285 1.186 31 44 23
0.275896 -0.0291285 1.186 29 46 21
0.279815 -0.029153 1.187 29 46 21
0.281896 -0.0291776 1.188 30 47 22
0.284219 -0.0292267 1.19 30 47 22
0.286307 -0.0292513 1.191 27 44 19
0.288399 -0.0292758 1.192 25 42 17
0.29025 -0.0292758 1.192 29 46 21
0.292591 -0.0293249 1.194 30 47 22
0.294692 -0.0293495 1.195 30 47 22
0.296548 -0.0293495 1.195 29 46 21
0.298404 -0.0293495 1.195 29 46 21
0.30026 -0.0293495 1.195 30 47 22
0.301863 -0.0293249 1.194 29 46 21
0.303463 -0.0293004 1.193 29 46 21
0.30506 -0.0292758 1.192 27 44 19
0.306911 -0.0292758 1.192 29 46 21
0.308503 -0.0292513 1.191 29 46 21
0.310092 -0.0292267 1.19 29 46 21
0.311678 -0.0292021 1.189 29 46 21
0.313261 -0.0291776 1.188 27 44 19
0.314841 -0.029153 1.187 27 44 19
0.316684 -0.029153 1.187 30 47 22
0.318796 -0.0291776 1.188 31 48 23
0.320371 -0.029153 1.187 31 48 23
0.322486 -0.0291776 1.188 30 47 22
0.324331 -0.0291776 1.188 32 50 23
0.32645 -0.0292021 1.189 34 52 25
0.328297 -0.0292021 1.189 34 52 23
0.330421 -0.0292267 1.19 36 54 25
0.332269 -0.0292267 1.19 37 58 26
0.334117 -0.0292267 1.19 37 58 26
0.338098 -0.0292513 1.191 41 62 30
0.339947 -0.0292513 1.191 41 62 30
0.341797 -0.0292513 1.191 39 60 28
0.343935 -0.0292758 1.192 38 59 27
0.345786 -0.0292758 1.192 38 59 27
0.347638 -0.0292758 1.192 39 60 28
0.349489 -0.0292758 1.192 39 60 28
0.351045 -0.0292513 1.191 39 59 30
0.352599 -0.0292267 1.19 38 58 29
0.354447 -0.0292267 1.19 39 58 33
0.355995 -0.0292021 1.189 39 58 33
0.357541 -0.0291776 1.188 39 57 35
0.359084 -0.029153 1.187 34 52 30
0.360927 -0.029153 1.187 55 71 54
0.362465 -0.0291285 1.186 73 89 72
0.364 -0.0291039 1.185 67 83 66
0.365222 -0.0290548 1.183 58 74 57
0.366749 -0.0290302 1.182 27 37 32
0.367026 -0.0289074 1.177 27 37 32
0.366347 -0.0287109 1.169 29 34 37
0.365958 -0.028539 1.162 84 89 92
0.362382 -0.0281215 1.145 139 144 147
0.36257 -0.0279987 1.14 110 115 118
0.363701 -0.0279496 1.138 102 108 108
0.365469 -0.0279496 1.138 103 109 109
0.368527 -0.0280478 1.142 126 132 132
0.371922 -0.0281706 1.147 91 97 97
-0.167001 -0.0274224 1.192 29 46 21
-0.165288 -0.0274454 1.193 31 48 23
-0.163572 -0.0274684 1.194 32 49 24
-0.161853 -0.0274914 1.195 32 49 24
-0.159997 -0.0274914 1.195 31 49 22
-0.158274 -0.0275144 1.196 32 50 23
-0.156416 -0.0275144 1.196 31 51 24
-0.154688 -0.0275374 1.197 31 51 24
-0.152829 -0.0275374 1.197 32 52 25
-0.151096 -0.0275604 1.198 37 57 30
-0.14936 -0.0275834 1.199 36 56 27
-0.147621 -0.0276064 1.2 37 57 28
-0.145758 -0.0276064 1.2 39 59 30
-0.143894 -0.0276064 1.2 39 59 30
-0.142031 -0.0276064 1.2 38 58 29
-0.140284 -0.0276294 1.201 38 58 29
-0.138418 -0.0276294 1.201 38 59 27
-0.136553 -0.0276294 1.201 41 62 30
-0.1348 -0.0276525 1.202 38 59 27
-0.133044 -0.0276755 1.203 37 58 26
-0.131176 -0.0276755 1.203 38 59 27
-0.129307 -0.0276755 1.203 39 60 28
-0.127545 -0.0276985 1.204 36 57 25
-0.125675 -0.0276985 1.204 36 57 25
-0.123703 -0.0276755 1.203 37 58 26
-0.121834 -0.0276755 1.203 37 58 26
-0.119966 -0.0276755 1.203 37 58 26
-0.118098 -0.0276755 1.203 37 58 26
-0.116133 -0.0276525 1.202 39 58 26
-0.114171 -0.0276294 1.201 39 58 26
-0.112212 -0.0276064 1.2 39 58 26
-0.110349 -0.0276064 1.2 38 57 25
-0.108485 -0.0276064 1.2 38 57 25
-0.106532 -0.0275834 1.199 39 58 26
-0.104583 -0.0275604 1.198 39 58 26
-0.102637 -0.0275374 1.197 39 58 26
-0.100778 -0.0275374 1.197 38 57 25
-0.0987536 -0.0274914 1.195 39 58 26
-0.0968977 -0.0274914 1.195 39 58 26
-0.0950418 -0.0274914 1.195 39 58 26
-0.09303 -0.0274454 1.193 39 59 25
-0.0911008 -0.0274224 1.192 39 59 25
-0.0892496 -0.0274224 1.192 39 59 25
-0.087325 -0.0273994 1.191 40 60 26
-0.0854036 -0.0273764 1.19 38 58 24
-0.0835555 -0.0273764 1.19 40 60 26
-0.0816387 -0.0273534 1.189 40 60 26
-0.079725 -0.0273304 1.188 39 59 25
-0.0778145 -0.0273074 1.187 37 57 23
-0.075971 -0.0273074 1.187 38 58 24
-0.0741276 -0.0273074 1.187 38 57 25
-0.0722232 -0.0272844 1.186 38 57 25
-0.0703813 -0.0272844 1.186 38 56 27
-0.0684817 -0.0272614 1.185 36 54 25
-0.0666413 -0.0272614 1.185 34 52 23
-0.064801 -0.0272614 1.185 36 54 25
-0.0629075 -0.0272384 1.184 29 47 20
-0.0610687 -0.0272384 1.184 30 48 21
-0.0591799 -0.0272154 1.183 30 48 21
-0.0572942 -0.0271923 1.182 26 44 17
-0.0554585 -0.0271923 1.182 23 40 15
-0.0536228 -0.0271923 1.182 29 46 21
-0.0517433 -0.0271693 1.181 27 43 21
-0.0499514 -0.0271923 1.182 25 41 19
-0.048075 -0.0271693 1.181 20 35 15
-0.0462017 -0.0271463 1.18 25 40 20
-0.044294 -0.0271003 1.178 25 39 22
-0.0423924 -0.0270543 1.176 25 39 22
-0.0405315 -0.0270313 1.175 24 38 23
-0.0386079 -0.0269623 1.172 19 33 18
-0.0366622 -0.0268703 1.168 15 28 15
-0.0347289 -0.0267782 1.164 15 28 15
-0.030953 -0.0266402 1.158 22 34 24
-0.0291294 -0.0266172 1.157 23 34 26
-0.027309 -0.0265942 1.156 15 26 18
-0.0255137 -0.0265942 1.156 13 22 21
-0.00976212 -0.0232814 1.012 80 99 127
-0.00819045 -0.0232814 1.012 111 130 158
-0.00661224 -0.0232584 1.011 128 151 180
-0.00504212 -0.0232584 1.011 131 154 183
-0.00347544 -0.0232814 1.012 129 156 189
-0.00190189 -0.0232584 1.011 122 149 182
-0.000331772 -0.0232584 1.011 112 140 175
0.00123835 -0.0232584 1.011 108 136 171
0.00281124 -0.0232814 1.012 110 140 177
0.00438291 -0.0232814 1.012 109 139 176
0.00595458 -0.0232814 1.012 107 137 174
0.00752625 -0.0232814 1.012 108 138 175
0.00909792 -0.0232814 1.012 108 137 176
0.0106696 -0.0232814 1.012 116 145 184
0.0122413 -0.0232814 1.012 118 147 186
0.0138129 -0.0232814 1.012 116 145 184
0.0153694 -0.0232584 1.011 112 141 180
0.0169228 -0.0232354 1.01 110 139 178
0.0184913 -0.0232354 1.01 112 141 180
0.0200599 -0.0232354 1.01 112 141 180
0.0216285 -0.0232354 1.01 110 139 178
0.0231741 -0.0232124 1.009 110 139 178
0.0247411 -0.0232124 1.009 110 139 178
0.0263081 -0.0232124 1.009 110 139 178
0.0278751 -0.0232124 1.009 110 139 178
0.0294421 -0.0232124 1.009 113 142 181
0.0310091 -0.0232124 1.009 115 144 183
0.0325761 -0.0232124 1.009 114 143 182
0.0341431 -0.0232124 1.009 114 143 182
0.0357101 -0.0232124 1.009 115 144 183
0.0372772 -0.0232124 1.009 115 144 183
0.0388442 -0.0232124 1.009 115 144 183
0.0404112 -0.0232124 1.009 115 144 183
0.0419782 -0.0232124 1.009 107 136 175
0.0435452 -0.0232124 1.009 104 135 174
0.0451569 -0.0232354 1.01 111 142 181
0.0467255 -0.0232354 1.01 116 147 186
0.0482941 -0.0232354 1.01 113 144 183
0.0498626 -0.0232354 1.01 107 138 177
0.0514312 -0.0232354 1.01 114 145 184
0.0529997 -0.0232354 1.01 112 143 182
0.0545683 -0.0232354 1.01 114 145 184
0.0561369 -0.0232354 1.01 114 145 184
0.0577054 -0.0232354 1.01 115 146 185
0.059274 -0.0232354 1.01 115 146 185
0.0607823 -0.0232124 1.009 115 146 185
0.0623493 -0.0232124 1.009 121 150 189
0.063853 -0.0231894 1.008 120 149 188
0.0654185 -0.0231894 1.008 120 149 188
0.0669175 -0.0231664 1.007 122 151 190
0.0684814 -0.0231664 1.007 119 150 189
0.0700453 -0.0231664 1.007 120 151 190
0.0715381 -0.0231434 1.006 121 152 191
0.0731004 -0.0231434 1.006 122 153 192
0.0746628 -0.0231434 1.006 123 154 193
0.0761494 -0.0231204 1.005 122 153 192
0.0777875 -0.0231434 1.006 123 154 193
0.0793498 -0.0231434 1.006 121 152 191
0.0809122 -0.0231434 1.006 127 158 197
0.0824745 -0.0231434 1.006 121 152 191
0.0840369 -0.0231434 1.006 115 146 185
0.0856843 -0.0231664 1.007 116 147 186
0.0872482 -0.0231664 1.007 116 147 186
0.0889003 -0.0231894 1.008 116 147 186
0.0905555 -0.0232124 1.009 116 147 186
0.0921226 -0.0232124 1.009 110 141 180
0.0937824 -0.0232354 1.01 113 142 181
0.095351 -0.0232354 1.01 114 143 182
0.0970155 -0.0232584 1.011 115 141 181
0.0985856 -0.0232584 1.011 118 144 184
0.100156 -0.0232584 1.011 123 149 189
0.101826 -0.0232814 1.012 115 141 181
0.103398 -0.0232814 1.012 117 145 180
0.10497 -0.0232814 1.012 134 162 197
0.106541 -0.0232814 1.012 191 221 244
0.108006 -0.0232584 1.011 200 230 253
0.109576 -0.0232584 1.011 128 157 162
0.143279 -0.0272844 1.186 56 80 46
0.145243 -0.0273074 1.187 57 81 47
0.147087 -0.0273074 1.187 58 83 46
0.14893 -0.0273074 1.187 57 82 45
0.150773 -0.0273074 1.187 56 82 43
0.152617 -0.0273074 1.187 57 83 44
0.154591 -0.0273304 1.188 56 82 43
0.156436 -0.0273304 1.188 57 83 44
0.158414 -0.0273534 1.189 57 83 42
0.16026 -0.0273534 1.189 56 82 41
0.162243 -0.0273764 1.19 59 83 42
0.164091 -0.0273764 1.19 58 82 41
0.165939 -0.0273764 1.19 58 82 41
0.167788 -0.0273764 1.19 58 82 41
0.169636 -0.0273764 1.19 57 81 40
0.171484 -0.0273764 1.19 58 82 41
0.173332 -0.0273764 1.19 60 84 43
0.17518 -0.0273764 1.19 59 83 42
0.176879 -0.0273534 1.189 60 84 43
0.178726 -0.0273534 1.189 60 84 43
0.180421 -0.0273304 1.188 60 84 43
0.182266 -0.0273304 1.188 59 83 42
0.183956 -0.0273074 1.187 59 83 42
0.185799 -0.0273074 1.187 60 84 43
0.187643 -0.0273074 1.187 60 85 41
0.189486 -0.0273074 1.187 60 85 41
0.191329 -0.0273074 1.187 60 85 41
0.193173 -0.0273074 1.187 60 85 41
0.195016 -0.0273074 1.187 59 85 39
0.19686 -0.0273074 1.187 59 85 39
0.198703 -0.0273074 1.187 51 78 29
0.200547 -0.0273074 1.187 58 85 36
0.20239 -0.0273074 1.187 60 87 38
0.204234 -0.0273074 1.187 60 87 38
0.206077 -0.0273074 1.187 60 87 38
0.20792 -0.0273074 1.187 59 86 37
0.209941 -0.0273304 1.188 58 85 36
0.211786 -0.0273304 1.188 59 86 37
0.213631 -0.0273304 1.188 62 88 42
0.215657 -0.0273534 1.189 60 86 40
0.217504 -0.0273534 1.189 59 85 39
0.21935 -0.0273534 1.189 60 86 40
0.221197 -0.0273534 1.189 59 84 40
0.223231 -0.0273764 1.19 59 84 40
0.225079 -0.0273764 1.19 58 82 41
0.227118 -0.0273994 1.191 57 81 40
0.228967 -0.0273994 1.191 57 81 42
0.231011 -0.0274224 1.192 57 81 42
0.232862 -0.0274224 1.192 50 73 36
0.234713 -0.0274224 1.192 48 71 34
0.236565 -0.0274224 1.192 48 69 32
0.238416 -0.0274224 1.192 48 69 32
0.240267 -0.0274224 1.192 50 70 36
0.241915 -0.0273994 1.191 41 61 27
0.243765 -0.0273994 1.191 41 61 27
0.245408 -0.0273764 1.19 40 60 26
0.247049 -0.0273534 1.189 37 57 23
0.248686 -0.0273304 1.188 34 54 20
0.25032 -0.0273074 1.187 31 50 18
0.252163 -0.0273074 1.187 30 49 17
0.253579 -0.0272614 1.185 30 48 19
0.255419 -0.0272614 1.185 30 48 19
0.257042 -0.0272384 1.184 29 46 21
0.258881 -0.0272384 1.184 30 47 22
0.2605 -0.0272154 1.183 33 47 23
0.262337 -0.0272154 1.183 33 47 23
0.264174 -0.0272154 1.183 34 48 24
0.266236 -0.0272384 1.184 32 46 22
0.268302 -0.0272614 1.185 29 42 21
0.270142 -0.0272614 1.185 29 42 21
0.271982 -0.0272614 1.185 29 42 21
0.276128 -0.0273074 1.187 32 45 24
0.277972 -0.0273074 1.187 31 44 23
0.280051 -0.0273304 1.188 34 50 28
0.282133 -0.0273534 1.189 34 50 28
0.284219 -0.0273764 1.19 31 47 25
0.286307 -0.0273994 1.191 30 46 24
0.288399 -0.0274224 1.192 32 48 26
0.29025 -0.0274224 1.192 31 47 25
0.292346 -0.0274454 1.193 30 46 24
0.294445 -0.0274684 1.194 30 46 24
0.2963 -0.0274684 1.194 29 45 23
0.298154 -0.0274684 1.194 30 46 24
0.300008 -0.0274684 1.194 30 46 24
0.30161 -0.0274454 1.193 30 46 24
0.303463 -0.0274454 1.193 30 46 24
0.30506 -0.0274224 1.192 29 45 23
0.306911 -0.0274224 1.192 27 43 21
0.308503 -0.0273994 1.191 29 45 23
0.310092 -0.0273764 1.19 29 45 23
0.311678 -0.0273534 1.189 30 46 24
0.313525 -0.0273534 1.189 31 47 25
0.315106 -0.0273304 1.188 30 46 24
0.317218 -0.0273534 1.189 31 47 25
0.318796 -0.0273304 1.188 31 47 25
0.320911 -0.0273534 1.189 31 48 23
0.322757 -0.0273534 1.189 30 47 22
0.326725 -0.0273764 1.19 33 50 25
0.328573 -0.0273764 1.19 34 52 25
0.330421 -0.0273764 1.19 34 52 25
0.334398 -0.0273994 1.191 38 57 25
0.33653 -0.0274224 1.192 38 59 27
0.338381 -0.0274224 1.192 39 60 28
0.340233 -0.0274224 1.192 41 62 30
0.342084 -0.0274224 1.192 39 60 28
0.343935 -0.0274224 1.192 38 59 27
0.345786 -0.0274224 1.192 37 58 26
0.347638 -0.0274224 1.192 36 57 25
0.349196 -0.0273994 1.191 38 59 27
0.35075 -0.0273764 1.19 37 57 28
0.352599 -0.0273764 1.19 39 59 30
0.354447 -0.0273764 1.19 41 60 35
0.355995 -0.0273534 1.189 41 60 35
0.357541 -0.0273304 1.188 38 56 34
0.359386 -0.0273304 1.188 35 53 31
0.360927 -0.0273074 1.187 46 60 43
0.36277 -0.0273074 1.187 65 79 62
0.364 -0.0272614 1.185 74 88 73
0.36584 -0.0272614 1.185 54 68 53
0.36737 -0.0272384 1.184 26 36 31
0.367338 -0.0271003 1.178 27 37 32
0.362065 -0.0263181 1.144 139 147 149
0.36257 -0.0262261 1.14 130 138 140
0.363701 -0.0261801 1.138 110 119 118
0.36579 -0.0262031 1.139 135 144 143
0.368527 -0.0262721 1.142 139 144 147
0.372246 -0.0264102 1.148 90 95 98
-0.167001 -0.025569 1.192 27 44 19
-0.165288 -0.0255904 1.193 30 47 22
-0.163572 -0.0256119 1.194 32 49 24
-0.161853 -0.0256333 1.195 33 50 25
-0.159997 -0.0256333 1.195 29 49 22
-0.158274 -0.0256548 1.196 31 51 24
-0.156547 -0.0256762 1.197 31 51 24
-0.154688 -0.0256762 1.197 31 51 24
-0.152829 -0.0256762 1.197 32 52 25
-0.151096 -0.0256977 1.198 37 57 30
-0.149236 -0.0256977 1.198 36 56 29
-0.147498 -0.0257191 1.199 36 56 29
-0.145636 -0.0257191 1.199 38 58 29
-0.143894 -0.0257406 1.2 38 58 29
-0.142031 -0.0257406 1.2 39 59 30
-0.140167 -0.0257406 1.2 39 59 30
-0.138303 -0.0257406 1.2 39 59 30
-0.136553 -0.025762 1.201 41 61 32
-0.1348 -0.0257835 1.202 39 60 28
-0.132933 -0.0257835 1.202 38 59 27
-0.131176 -0.0258049 1.203 37 58 26
-0.129307 -0.0258049 1.203 39 60 28
-0.127439 -0.0258049 1.203 36 57 25
-0.125675 -0.0258264 1.204 35 56 24
-0.123805 -0.0258264 1.204 37 58 26
-0.121834 -0.0258049 1.203 36 57 25
-0.119966 -0.0258049 1.203 36 57 25
-0.118098 -0.0258049 1.203 37 58 26
-0.116036 -0.025762 1.201 37 58 26
-0.114171 -0.025762 1.201 36 57 25
-0.112212 -0.0257406 1.2 36 57 25
-0.110349 -0.0257406 1.2 36 57 25
-0.108485 -0.0257406 1.2 36 57 25
-0.106532 -0.0257191 1.199 36 57 25
-0.104583 -0.0256977 1.198 36 57 25
-0.102637 -0.0256762 1.197 36 57 25
-0.100778 -0.0256762 1.197 36 57 25
-0.0988362 -0.0256548 1.196 37 58 26
-0.0968977 -0.0256333 1.195 36 57 25
-0.0950418 -0.0256333 1.195 36 57 25
-0.093108 -0.0256119 1.194 36 57 25
-0.0911008 -0.025569 1.192 37 58 26
-0.0892496 -0.025569 1.192 36 58 24
-0.087325 -0.0255475 1.191 36 58 24
-0.0854036 -0.0255261 1.19 35 57 23
-0.0835555 -0.0255261 1.19 38 60 26
-0.0817074 -0.0255261 1.19 36 58 24
-0.079725 -0.0254832 1.188 36 58 24
-0.0778145 -0.0254617 1.187 35 57 23
-0.075971 -0.0254617 1.187 35 57 23
-0.0741276 -0.0254617 1.187 36 57 25
-0.0722841 -0.0254617 1.187 35 56 24
-0.0704407 -0.0254617 1.187 35 56 24
-0.0685972 -0.0254617 1.187 32 53 21
-0.0666975 -0.0254403 1.186 34 54 25
-0.064801 -0.0254188 1.185 41 61 32
-0.0629606 -0.0254188 1.185 41 59 30
-0.0611203 -0.0254188 1.185 40 58 29
-0.0592299 -0.0253974 1.184 29 47 20
-0.0573426 -0.0253759 1.183 29 47 20
-0.0554585 -0.0253545 1.182 29 47 20
-0.0536228 -0.0253545 1.182 33 51 24
-0.0517871 -0.0253545 1.182 30 47 22
-0.0499092 -0.025333 1.181 31 48 23
-0.0480343 -0.0253116 1.18 26 42 20
-0.0461234 -0.0252687 1.178 27 43 21
-0.0442564 -0.0252472 1.177 26 42 20
-0.0423563 -0.0252043 1.175 25 41 19
-0.0404625 -0.0251614 1.173 25 40 20
-0.038542 -0.0250971 1.17 24 39 19
-0.034699 -0.0249469 1.163 25 39 22
-0.032808 -0.0248826 1.16 23 37 22
-0.030953 -0.0248397 1.158 22 36 21
-0.0291294 -0.0248182 1.157 22 35 22
-0.0273326 -0.0248182 1.157 20 33 20
-0.0255137 -0.0247968 1.156 16 28 18
-0.0237389 -0.0248182 1.157 18 30 20
-0.021961 -0.0248397 1.158 15 22 18
-0.00976212 -0.0217079 1.012 82 92 107
-0.00818236 -0.0216864 1.011 78 88 103
-0.00661224 -0.0216864 1.011 91 108 129
-0.00504212 -0.0216864 1.011 114 131 152
-0.00347544 -0.0217079 1.012 124 148 180
-0.00190189 -0.0216864 1.011 134 158 190
-0.000331772 -0.0216864 1.011 124 153 186
0.00123835 -0.0216864 1.011 119 148 181
0.00281124 -0.0217079 1.012 117 148 182
0.00438291 -0.0217079 1.012 117 148 182
0.00596047 -0.0217293 1.013 110 140 177
0.00753369 -0.0217293 1.013 108 138 175
0.00910691 -0.0217293 1.013 108 138 175
0.0106801 -0.0217293 1.013 109 139 176
0.0122534 -0.0217293 1.013 109 138 177
0.0138129 -0.0217079 1.012 109 138 177
0.0153846 -0.0217079 1.012 109 138 177
0.0169395 -0.0216864 1.011 108 137 176
0.0185096 -0.0216864 1.011 113 142 181
0.0200599 -0.021665 1.01 112 141 180
0.0216285 -0.021665 1.01 113 142 181
0.023197 -0.021665 1.01 113 142 181
0.0247411 -0.0216435 1.009 112 141 180
0.0263081 -0.0216435 1.009 110 139 178
0.0278751 -0.0216435 1.009 113 142 181
0.0294421 -0.0216435 1.009 113 142 181
0.0310091 -0.0216435 1.009 114 143 182
0.0325761 -0.0216435 1.009 113 142 181
0.0341431 -0.0216435 1.009 113 142 181
0.0357101 -0.0216435 1.009 113 142 181
0.0372772 -0.0216435 1.009 115 144 183
0.0388442 -0.0216435 1.009 116 145 184
0.0404112 -0.0216435 1.009 115 144 183
0.0419782 -0.0216435 1.009 115 144 183
0.0435452 -0.0216435 1.009 115 144 183
0.0451122 -0.0216435 1.009 115 144 183
0.0467255 -0.021665 1.01 121 150 189
0.0482941 -0.021665 1.01 118 147 186
0.0498626 -0.021665 1.01 118 147 186
0.0514312 -0.021665 1.01 120 149 188
0.0529997 -0.021665 1.01 120 149 188
0.0545683 -0.021665 1.01 120 149 188
0.0561369 -0.021665 1.01 117 146 185
0.0576483 -0.0216435 1.009 116 145 184
0.0592153 -0.0216435 1.009 117 146 185
0.0607221 -0.0216221 1.008 117 146 185
0.0623493 -0.0216435 1.009 120 149 188
0.063853 -0.0216221 1.008 122 151 190
0.0653536 -0.0216006 1.007 122 151 190
0.0669175 -0.0216006 1.007 124 153 192
0.0684814 -0.0216006 1.007 121 150 189
0.0699757 -0.0215792 1.006 123 152 191
0.0715381 -0.0215792 1.006 124 153 192
0.0731004 -0.0215792 1.006 125 154 193
0.0746628 -0.0215792 1.006 123 154 193
0.0762251 -0.0215792 1.006 122 153 192
0.0777875 -0.0215792 1.006 121 152 191
0.0793498 -0.0215792 1.006 120 151 190
0.0809122 -0.0215792 1.006 123 154 193
0.0824745 -0.0215792 1.006 128 159 198
0.0840369 -0.0215792 1.006 121 152 191
0.0856843 -0.0216006 1.007 114 145 184
0.0872482 -0.0216006 1.007 118 149 188
0.0889003 -0.0216221 1.008 116 147 186
0.0904658 -0.0216221 1.008 117 146 185
0.0921226 -0.0216435 1.009 116 145 184
0.0937824 -0.021665 1.01 107 136 175
0.095351 -0.021665 1.01 110 139 178
0.0969195 -0.021665 1.01 120 146 186
0.0985856 -0.0216864 1.011 123 149 189
0.100156 -0.0216864 1.011 123 150 188
0.101726 -0.0216864 1.011 118 145 183
0.103296 -0.0216864 1.011 123 152 185
0.104866 -0.0216864 1.011 151 180 213
0.106436 -0.0216864 1.011 199 231 249
0.108006 -0.0216864 1.011 189 221 239
0.109685 -0.0217079 1.012 84 108 108
0.143279 -0.0254403 1.186 58 83 46
0.145121 -0.0254403 1.186 58 83 46
0.146963 -0.0254403 1.186 58 83 46
0.148805 -0.0254403 1.186 57 82 45
0.150773 -0.0254617 1.187 56 82 43
0.152617 -0.0254617 1.187 56 82 43
0.154591 -0.0254832 1.188 58 82 43
0.156436 -0.0254832 1.188 58 82 43
0.158414 -0.0255046 1.189 58 82 41
0.16026 -0.0255046 1.189 59 83 42
0.162243 -0.0255261 1.19 58 82 41
0.164091 -0.0255261 1.19 56 80 39
0.165939 -0.0255261 1.19 57 81 40
0.167929 -0.0255475 1.191 56 80 39
0.169778 -0.0255475 1.191 57 81 40
0.171628 -0.0255475 1.191 58 82 41
0.173332 -0.0255261 1.19 59 83 42
0.17518 -0.0255261 1.19 59 83 42
0.177028 -0.0255261 1.19 59 83 42
0.178876 -0.0255261 1.19 60 84 43
0.180572 -0.0255046 1.189 60 84 43
0.182419 -0.0255046 1.189 59 83 42
0.184266 -0.0255046 1.189 59 83 42
0.185956 -0.0254832 1.188 59 83 42
0.187801 -0.0254832 1.188 60 85 41
0.189646 -0.0254832 1.188 59 84 40
0.191329 -0.0254617 1.187 59 84 40
0.193173 -0.0254617 1.187 58 83 39
0.195016 -0.0254617 1.187 59 85 39
0.19686 -0.0254617 1.187 62 88 42
0.198703 -0.0254617 1.187 59 86 37
0.200547 -0.0254617 1.187 59 86 37
0.202561 -0.0254832 1.188 59 86 37
0.204406 -0.0254832 1.188 59 86 37
0.206251 -0.0254832 1.188 59 86 37
0.208096 -0.0254832 1.188 59 86 37
0.209941 -0.0254832 1.188 59 86 37
0.211964 -0.0255046 1.189 59 86 37
0.21381 -0.0255046 1.189 60 86 40
0.215838 -0.0255261 1.19 60 86 40
0.217687 -0.0255261 1.19 59 85 39
0.219535 -0.0255261 1.19 62 88 42
0.221383 -0.0255261 1.19 59 84 40
0.223231 -0.0255261 1.19 57 82 38
0.225079 -0.0255261 1.19 57 81 40
0.227118 -0.0255475 1.191 56 80 39
0.22916 -0.025569 1.192 57 81 42
0.231011 -0.025569 1.192 56 80 41
0.232862 -0.025569 1.192 56 79 42
0.234713 -0.025569 1.192 56 79 42
0.236565 -0.025569 1.192 51 73 39
0.238416 -0.025569 1.192 52 74 40
0.240267 -0.025569 1.192 48 70 36
0.242118 -0.025569 1.192 42 64 30
0.243765 -0.0255475 1.191 40 60 26
0.245408 -0.0255261 1.19 40 60 26
0.247256 -0.0255261 1.19 38 57 25
0.248895 -0.0255046 1.189 36 55 23
0.250531 -0.0254832 1.188 31 50 18
0.252376 -0.0254832 1.188 30 49 17
0.254007 -0.0254617 1.187 32 47 19
0.255635 -0.0254403 1.186 29 44 16
0.257259 -0.0254188 1.185 29 43 19
0.2591 -0.0254188 1.185 29 43 19
0.26094 -0.0254188 1.185 32 46 22
0.262781 -0.0254188 1.185 33 47 23
0.264621 -0.0254188 1.185 34 48 24
0.266461 -0.0254188 1.185 34 48 24
0.268302 -0.0254188 1.185 32 46 22
0.27037 -0.0254403 1.186 31 45 21
0.274285 -0.0254617 1.187 33 47 23
0.276128 -0.0254617 1.187 32 46 22
0.27844 -0.0255046 1.189 32 46 22
0.280287 -0.0255046 1.189 34 51 26
0.28237 -0.0255261 1.19 40 57 32
0.284219 -0.0255261 1.19 34 51 26
0.286307 -0.0255475 1.191 30 47 22
0.288399 -0.025569 1.192 32 49 24
0.29025 -0.025569 1.192 32 49 24
0.292101 -0.025569 1.192 31 48 23
0.294199 -0.0255904 1.193 30 47 22
0.296052 -0.0255904 1.193 30 47 22
0.297904 -0.0255904 1.193 30 47 22
0.299757 -0.0255904 1.193 30 47 22
0.30161 -0.0255904 1.193 31 48 23
0.303463 -0.0255904 1.193 31 48 23
0.30506 -0.025569 1.192 30 47 22
0.306911 -0.025569 1.192 29 46 21
0.308762 -0.025569 1.192 29 46 21
0.310353 -0.0255475 1.191 29 46 21
0.312202 -0.0255475 1.191 30 47 22
0.314052 -0.0255475 1.191 31 48 23
0.315636 -0.0255261 1.19 30 47 22
0.317484 -0.0255261 1.19 31 48 23
0.319333 -0.0255261 1.19 31 48 23
0.321181 -0.0255261 1.19 32 49 24
0.323029 -0.0255261 1.19 31 48 23
0.324877 -0.0255261 1.19 32 50 23
0.326725 -0.0255261 1.19 33 51 24
0.328849 -0.0255475 1.191 33 51 22
0.330699 -0.0255475 1.191 33 51 22
0.332828 -0.025569 1.192 34 53 21
0.334679 -0.025569 1.192 39 58 26
0.33653 -0.025569 1.192 37 58 26
0.338381 -0.025569 1.192 39 60 28
0.340233 -0.025569 1.192 38 59 27
0.342084 -0.025569 1.192 37 58 26
0.343935 -0.025569 1.192 38 59 27
0.345786 -0.025569 1.192 38 59 27
0.347346 -0.0255475 1.191 37 58 26
0.349196 -0.0255475 1.191 38 59 27
0.35075 -0.0255261 1.19 39 59 30
0.352599 -0.0255261 1.19 42 62 33
0.354447 -0.0255261 1.19 41 60 35
0.355995 -0.0255046 1.189 42 61 36
0.357842 -0.0255046 1.189 38 56 34
0.359386 -0.0254832 1.188 37 55 33
0.361231 -0.0254832 1.188 29 46 26
0.363076 -0.0254832 1.188 23 40 20
0.364614 -0.0254617 1.187 58 74 59
0.366149 -0.0254403 1.186 21 37 22
0.36768 -0.0254188 1.185 25 38 30
0.368273 -0.025333 1.181 25 38 30
0.367287 -0.02514 1.172 28 34 34
0.362493 -0.0246895 1.151 90 96 96
0.362252 -0.0244321 1.139 142 151 150
0.363701 -0.0244107 1.138 145 154 153
0.365469 -0.0244107 1.138 154 163 162
0.368849 -0.0245179 1.143 142 148 148
0.37257 -0.0246466 1.149 88 94 94
-0.167001 -0.0237156 1.192 30 47 22
-0.165427 -0.0237554 1.194 32 49 24
-0.163709 -0.0237753 1.195 33 50 25
-0.161853 -0.0237753 1.195 32 49 24
-0.159997 -0.0237753 1.195 30 47 22
-0.158274 -0.0237951 1.196 32 49 24
-0.156547 -0.023815 1.197 33 51 24
-0.154688 -0.023815 1.197 33 51 24
-0.152829 -0.023815 1.197 31 51 24
-0.151096 -0.0238349 1.198 32 52 25
-0.149236 -0.0238349 1.198 37 57 30
-0.147498 -0.0238548 1.199 36 56 29
-0.145636 -0.0238548 1.199 38 58 29
-0.143774 -0.0238548 1.199 38 58 29
-0.141912 -0.0238548 1.199 39 59 30
-0.140167 -0.0238747 1.2 39 59 30
-0.138303 -0.0238747 1.2 39 59 30
-0.13644 -0.0238747 1.2 39 59 30
-0.134576 -0.0238747 1.2 39 59 30
-0.132823 -0.0238946 1.201 37 57 28
-0.131067 -0.0239145 1.202 35 56 24
-0.129307 -0.0239344 1.203 35 56 24
-0.127439 -0.0239344 1.203 35 56 24
-0.125571 -0.0239344 1.203 35 56 24
-0.123703 -0.0239344 1.203 37 58 26
-0.121834 -0.0239344 1.203 35 56 24
-0.119966 -0.0239344 1.203 35 56 24
-0.118 -0.0239145 1.202 36 57 25
-0.116133 -0.0239145 1.202 37 58 26
-0.114076 -0.0238747 1.2 36 57 25
-0.112212 -0.0238747 1.2 35 56 24
-0.110349 -0.0238747 1.2 36 57 25
-0.108395 -0.0238548 1.199 35 56 24
-0.106444 -0.0238349 1.198 36 57 25
-0.104496 -0.023815 1.197 36 57 25
-0.102637 -0.023815 1.197 36 57 25
-0.100778 -0.023815 1.197 36 57 25
-0.0988362 -0.0237951 1.196 35 56 24
-0.0968977 -0.0237753 1.195 35 56 24
-0.0950418 -0.0237753 1.195 35 56 24
-0.093108 -0.0237554 1.194 35 57 23
-0.0911772 -0.0237355 1.193 36 58 24
-0.0892496 -0.0237156 1.192 36 58 24
-0.0873983 -0.0237156 1.192 36 58 24
-0.0854754 -0.0236957 1.191 35 57 23
-0.0835555 -0.0236758 1.19 38 60 26
-0.0817074 -0.0236758 1.19 35 57 23
-0.0798593 -0.0236758 1.19 35 57 23
-0.07788 -0.023636 1.188 37 59 25
-0.076035 -0.023636 1.188 37 59 25
-0.07419 -0.023636 1.188 37 58 26
-0.0722841 -0.0236161 1.187 36 57 25
-0.0704407 -0.0236161 1.187 36 57 25
-0.0685972 -0.0236161 1.187 34 55 23
-0.0667538 -0.0236161 1.187 36 56 27
-0.064801 -0.0235763 1.185 36 56 27
-0.0629606 -0.0235763 1.185 35 55 26
-0.0611203 -0.0235763 1.185 34 54 25
-0.0592299 -0.0235564 1.184 29 47 18
-0.0573426 -0.0235365 1.183 34 52 23
-0.0554585 -0.0235166 1.182 37 55 26
-0.0536228 -0.0235166 1.182 37 55 26
-0.0517433 -0.0234967 1.181 30 48 21
-0.0498669 -0.0234768 1.18 25 43 16
-0.0479936 -0.0234569 1.179 22 39 14
-0.0461234 -0.023437 1.178 26 43 18
-0.0441812 -0.0233773 1.175 26 43 18
-0.0422842 -0.0233375 1.173 24 41 16
-0.040428 -0.0233177 1.172 23 39 17
-0.0385091 -0.023258 1.169 20 36 14
-0.0365994 -0.0231983 1.166 24 39 19
-0.034699 -0.0231386 1.163 29 44 24
-0.0328363 -0.0230988 1.161 23 37 20
-0.030953 -0.0230391 1.158 22 36 19
-0.0291546 -0.0230391 1.158 20 34 19
-0.0273562 -0.0230391 1.158 20 34 19
-0.0255357 -0.0230192 1.157 20 34 19
-0.0237594 -0.0230391 1.158 23 37 22
-0.021961 -0.0230391 1.158 18 30 20
-0.0183959 -0.0230789 1.16 12 19 15
-0.0165943 -0.0230789 1.16 11 18 14
-0.0147928 -0.0230789 1.16 7 12 15
-0.00661224 -0.0201145 1.011 40 51 69
-0.00504212 -0.0201145 1.011 60 71 89
-0.00347201 -0.0201145 1.011 71 90 113
-0.00190377 -0.0201344 1.012 113 132 155
-0.000331772 -0.0201145 1.011 130 152 184
0.00123957 -0.0201344 1.012 131 153 185
0.00281124 -0.0201344 1.012 128 155 188
0.00438724 -0.0201543 1.013 125 152 185
0.00596047 -0.0201543 1.013 119 146 184
0.00753369 -0.0201543 1.013 115 142 180
0.0091159 -0.0201741 1.014 112 139 177
0.0106801 -0.0201543 1.013 112 139 177
0.0122534 -0.0201543 1.013 112 138 178
0.0138266 -0.0201543 1.013 111 137 177
0.0153998 -0.0201543 1.013 111 137 177
0.0169563 -0.0201344 1.012 108 134 174
