ply
format ascii 1.0
comment Created by Open3D
element vertex 1364
property double x
property double y
property double z
property uchar red
property uchar green
property uchar blue
end_header
0.0601332 0.0591935 1.113 162 211 255
0.0618617 0.0591935 1.113 160 203 255
0.0637045 0.0592999 1.115 163 206 255
0.0654948 0.0593531 1.116 162 202 255
0.0673485 0.0594594 1.118 141 181 235
0.0692084 0.0595658 1.12 144 181 237
0.0711378 0.0597253 1.123 137 174 230
0.0731415 0.0599381 1.127 103 133 190
0.0750247 0.0600444 1.129 38 68 125
0.076982 0.060204 1.132 69 87 138
0.0807826 0.0604167 1.136 8 20 54
0.0827648 0.0605763 1.139 12 24 58
0.0848306 0.060789 1.143 21 38 47
0.0869088 0.0610018 1.147 23 40 49
0.0888447 0.0611081 1.149 28 43 35
0.0907081 0.0611613 1.15 29 44 36
0.0927353 0.0613209 1.153 31 47 32
0.0949359 0.0615868 1.158 30 46 31
0.0970685 0.0617995 1.162 31 48 28
0.0992134 0.0620122 1.166 31 48 28
0.105364 0.0624377 1.174 33 49 27
0.107552 0.0626504 1.178 33 49 27
0.10966 0.06281 1.181 33 49 27
0.111872 0.0630227 1.185 33 49 27
0.113713 0.0630227 1.185 34 50 28
0.115553 0.0630227 1.185 36 52 30
0.117393 0.0630227 1.185 34 50 28
0.119334 0.0630759 1.186 33 49 27
0.121278 0.0631291 1.187 34 50 28
0.123122 0.0631291 1.187 34 50 28
0.12507 0.0631823 1.188 33 49 27
0.127022 0.0632355 1.189 34 50 28
0.128977 0.0632887 1.19 33 49 27
0.130935 0.0633418 1.191 34 50 28
0.132896 0.063395 1.192 34 50 28
0.134748 0.063395 1.192 34 50 28
0.136599 0.063395 1.192 34 50 28
0.138566 0.0634482 1.193 33 49 27
0.140537 0.0635014 1.194 34 50 28
0.142391 0.0635014 1.194 34 50 28
0.144245 0.0635014 1.194 36 52 30
0.1461 0.0635014 1.194 36 52 30
0.147954 0.0635014 1.194 38 55 30
0.149808 0.0635014 1.194 33 50 25
0.151536 0.0634482 1.193 31 48 23
0.153388 0.0634482 1.193 36 53 28
0.155241 0.0634482 1.193 38 56 29
0.157094 0.0634482 1.193 40 58 31
0.158947 0.0634482 1.193 41 59 32
0.160799 0.0634482 1.193 41 59 32
0.162516 0.063395 1.192 43 61 32
0.164367 0.063395 1.192 41 59 30
0.166218 0.063395 1.192 44 62 33
0.16807 0.063395 1.192 46 64 35
0.169778 0.0633418 1.191 45 64 32
0.171484 0.0632887 1.19 46 65 33
0.173332 0.0632887 1.19 46 65 33
0.175033 0.0632355 1.189 45 64 32
0.176731 0.0631823 1.188 47 67 33
0.178576 0.0631823 1.188 47 67 33
0.180269 0.0631291 1.187 50 70 36
0.182112 0.0631291 1.187 52 72 38
0.183956 0.0631291 1.187 52 73 36
0.185799 0.0631291 1.187 52 73 36
0.187484 0.0630759 1.186 54 73 35
0.189326 0.0630759 1.186 54 73 35
0.191168 0.0630759 1.186 54 73 35
0.19301 0.0630759 1.186 54 73 35
0.194852 0.0630759 1.186 55 74 34
0.196528 0.0630227 1.185 55 74 34
0.198368 0.0630227 1.185 57 76 36
0.200209 0.0630227 1.185 62 81 41
0.202049 0.0630227 1.185 61 80 40
0.203889 0.0630227 1.185 59 78 38
0.20573 0.0630227 1.185 61 80 40
0.20757 0.0630227 1.185 61 80 40
0.209411 0.0630227 1.185 66 85 45
0.211429 0.0630759 1.186 69 88 48
0.213271 0.0630759 1.186 68 88 45
0.215113 0.0630759 1.186 67 87 44
0.216955 0.0630759 1.186 62 85 41
0.218797 0.0630759 1.186 64 87 43
0.220825 0.0631291 1.187 68 91 47
0.222668 0.0631291 1.187 68 91 47
0.224512 0.0631291 1.187 67 90 46
0.226355 0.0631291 1.187 66 89 45
0.228198 0.0631291 1.187 64 87 43
0.230236 0.0631823 1.188 64 87 43
0.232081 0.0631823 1.188 61 83 42
0.233926 0.0631823 1.188 52 74 33
0.235771 0.0631823 1.188 57 79 40
0.237616 0.0631823 1.188 58 80 41
0.239461 0.0631823 1.188 59 80 43
0.241103 0.0631291 1.187 58 79 42
0.242946 0.0631291 1.187 56 72 41
0.24479 0.0631291 1.187 50 66 35
0.246425 0.0630759 1.186 45 61 30
0.248267 0.0630759 1.186 48 64 33
0.249898 0.0630227 1.185 43 59 28
0.251738 0.0630227 1.185 41 57 26
0.253579 0.0630227 1.185 40 56 25
0.255419 0.0630227 1.185 39 55 24
0.257259 0.0630227 1.185 39 54 26
0.259318 0.0630759 1.186 39 54 26
0.26116 0.0630759 1.186 41 56 28
0.263002 0.0630759 1.186 40 55 27
0.264844 0.0630759 1.186 37 55 26
0.266686 0.0630759 1.186 39 57 28
0.268528 0.0630759 1.186 39 57 28
0.27037 0.0630759 1.186 39 57 28
0.272212 0.0630759 1.186 39 57 30
0.274285 0.0631291 1.187 38 56 29
0.276128 0.0631291 1.187 39 57 28
0.278206 0.0631823 1.188 40 58 29
0.280051 0.0631823 1.188 40 58 29
0.281896 0.0631823 1.188 39 57 28
0.284219 0.0632887 1.19 40 58 29
0.286067 0.0632887 1.19 39 57 28
0.287915 0.0632887 1.19 39 57 28
0.289763 0.0632887 1.19 40 58 29
0.291611 0.0632887 1.19 40 58 29
0.293459 0.0632887 1.19 41 59 30
0.295307 0.0632887 1.19 40 58 29
0.297155 0.0632887 1.19 40 58 29
0.299003 0.0632887 1.19 39 57 28
0.300599 0.0632355 1.189 39 57 28
0.302445 0.0632355 1.189 40 58 29
0.304292 0.0632355 1.189 40 58 29
0.305881 0.0631823 1.188 38 56 27
0.307467 0.0631291 1.187 37 55 26
0.30931 0.0631291 1.187 37 55 26
0.311154 0.0631291 1.187 33 51 22
0.312997 0.0631291 1.187 40 58 29
0.314841 0.0631291 1.187 41 59 30
0.318796 0.0631823 1.188 44 62 33
0.320641 0.0631823 1.188 44 63 31
0.322486 0.0631823 1.188 41 60 28
0.324604 0.0632355 1.189 39 58 26
0.32645 0.0632355 1.189 57 76 44
0.328573 0.0632887 1.19 53 73 39
0.330421 0.0632887 1.19 54 74 40
0.332269 0.0632887 1.19 54 74 40
0.334398 0.0633418 1.191 55 75 41
0.336248 0.0633418 1.191 54 75 38
0.338098 0.0633418 1.191 53 74 37
0.340233 0.063395 1.192 58 79 42
0.342084 0.063395 1.192 57 78 41
0.343935 0.063395 1.192 58 78 44
0.345786 0.063395 1.192 58 78 44
0.347638 0.063395 1.192 58 77 45
0.349489 0.063395 1.192 53 72 40
0.35134 0.063395 1.192 57 76 44
0.352895 0.0633418 1.191 61 80 48
0.354447 0.0632887 1.19 58 76 47
0.355995 0.0632355 1.189 54 72 43
0.35724 0.0631291 1.187 79 97 68
0.359084 0.0631291 1.187 79 97 68
0.360319 0.0630227 1.185 46 63 38
0.361854 0.0629695 1.184 48 65 40
0.363078 0.0628632 1.182 50 64 40
0.363988 0.0627036 1.179 41 55 31
0.364267 0.0624377 1.174 49 61 42
0.364219 0.0621186 1.168 42 54 35
0.364153 0.0617995 1.162 59 67 60
0.361863 0.0611081 1.149 169 177 170
0.361749 0.060789 1.143 185 193 200
0.362252 0.0605763 1.139 166 174 181
0.363701 0.0605231 1.138 195 205 212
0.364826 0.0604167 1.136 203 213 220
0.366591 0.0604167 1.136 114 123 132
0.370625 0.060789 1.143 92 101 110
-0.150189 0.0586798 1.072 102 127 199
-0.148524 0.0586798 1.072 95 120 192
-0.146859 0.0586798 1.072 71 105 176
-0.145194 0.0586798 1.072 65 99 170
-0.143529 0.0586798 1.072 54 93 163
-0.141864 0.0586798 1.072 52 91 161
-0.140199 0.0586798 1.072 49 87 159
-0.138535 0.0586798 1.072 45 83 155
-0.136997 0.0587345 1.073 37 77 149
-0.135583 0.058844 1.075 30 70 142
-0.133914 0.058844 1.075 26 65 140
-0.132367 0.0588988 1.076 27 66 141
-0.130818 0.0589535 1.077 26 65 140
-0.129385 0.059063 1.079 26 65 140
-0.127709 0.059063 1.079 25 64 139
-0.12615 0.0591177 1.08 24 63 138
-0.124588 0.0591724 1.081 23 62 137
-0.122909 0.0591724 1.081 18 57 132
-0.12123 0.0591724 1.081 15 54 129
-0.119662 0.0592272 1.082 15 54 129
-0.117982 0.0592272 1.082 12 54 128
-0.116301 0.0592272 1.082 10 52 126
-0.114621 0.0592272 1.082 9 51 125
-0.112941 0.0592272 1.082 9 51 125
-0.11126 0.0592272 1.082 8 49 126
-0.10958 0.0592272 1.082 2 43 120
-0.1079 0.0592272 1.082 2 33 113
-0.106219 0.0592272 1.082 0 16 96
-0.104442 0.0591724 1.081 0 0 87
-0.102668 0.0591177 1.08 0 3 92
-0.100991 0.0591177 1.08 0 5 95
-0.0993137 0.0591177 1.08 0 2 92
-0.0975461 0.059063 1.079 0 0 91
-0.0958703 0.059063 1.079 0 0 91
-0.0941946 0.059063 1.079 0 1 91
-0.0925189 0.059063 1.079 0 0 90
-0.0908432 0.059063 1.079 0 6 91
-0.0892501 0.0591177 1.08 0 16 101
-0.0875728 0.0591177 1.08 2 27 104
-0.0860546 0.0592272 1.082 41 66 143
-0.0845302 0.0593367 1.084 84 112 186
-0.0829231 0.0593914 1.085 100 128 202
-0.0813129 0.0594461 1.086 103 136 209
-0.0780115 0.0595009 1.087 53 86 154
-0.0763936 0.0595556 1.088 60 93 161
-0.0747725 0.0596104 1.089 62 102 169
-0.0731484 0.0596651 1.09 64 104 171
-0.0715212 0.0597198 1.091 64 104 171
-0.0698268 0.0597198 1.091 53 93 160
-0.0681324 0.0597198 1.091 45 87 154
-0.0664381 0.0597198 1.091 53 95 162
-0.0647437 0.0597198 1.091 63 108 174
-0.0630494 0.0597198 1.091 67 112 178
-0.0614112 0.0597746 1.092 69 115 177
-0.0597153 0.0597746 1.092 74 120 182
-0.0580194 0.0597746 1.092 86 132 194
-0.0563235 0.0597746 1.092 86 132 194
-0.0545775 0.0597198 1.091 77 122 187
-0.0528832 0.0597198 1.091 58 103 168
-0.0511888 0.0597198 1.091 63 108 173
-0.0495398 0.0597746 1.092 74 119 184
-0.0478439 0.0597746 1.092 81 131 195
-0.046148 0.0597746 1.092 88 138 202
-0.0444521 0.0597746 1.092 86 139 200
-0.0427562 0.0597746 1.092 96 149 210
-0.0411355 0.0598841 1.094 116 169 230
-0.0394365 0.0598841 1.094 113 166 227
-0.0377374 0.0598841 1.094 110 164 222
-0.0360384 0.0598841 1.094 90 144 202
-0.0343394 0.0598841 1.094 93 148 204
-0.0326404 0.0598841 1.094 99 154 210
-0.0309414 0.0598841 1.094 89 138 197
-0.0292156 0.0598293 1.093 67 116 175
-0.027493 0.0597746 1.092 70 117 176
-0.0257971 0.0597746 1.092 76 123 182
-0.0241011 0.0597746 1.092 78 123 188
-0.0207283 0.0598293 1.093 77 121 190
-0.0173492 0.0598841 1.094 86 132 201
-0.0156502 0.0598841 1.094 85 131 200
-0.0139639 0.0599388 1.095 84 130 199
-0.0122745 0.0599935 1.096 86 132 201
-0.0105821 0.0600483 1.097 83 129 198
-0.00888648 0.060103 1.098 84 130 199
-0.00718125 0.060103 1.098 85 131 200
-0.00547602 0.060103 1.098 90 136 205
-0.00377078 0.060103 1.098 93 139 208
-0.00206555 0.060103 1.098 85 131 200
-0.00036065 0.0601577 1.099 86 135 203
0.00134736 0.0602125 1.1 96 145 213
0.0030557 0.0602125 1.1 113 166 227
0.00476403 0.0602125 1.1 129 182 243
0.00647826 0.0602672 1.101 127 185 238
0.00818815 0.0602672 1.101 120 178 231
0.00990703 0.060322 1.102 101 164 216
0.011629 0.0603767 1.103 89 152 204
0.013342 0.0603767 1.103 88 154 205
0.015055 0.0603767 1.103 79 145 196
0.0167832 0.0604314 1.104 80 148 199
0.0184978 0.0604314 1.104 86 154 205
0.0202123 0.0604314 1.104 85 152 206
0.021907 0.0603767 1.103 84 151 205
0.02362 0.0603767 1.103 83 150 204
0.02531 0.060322 1.102 77 144 198
0.0270215 0.060322 1.102 74 142 198
0.0287329 0.060322 1.102 54 122 178
0.0304443 0.060322 1.102 57 122 181
0.0321558 0.060322 1.102 71 136 195
0.033898 0.0603767 1.103 87 154 213
0.035611 0.0603767 1.103 74 141 200
0.037324 0.0603767 1.103 80 148 204
0.039037 0.0603767 1.103 96 164 220
0.0408238 0.0604862 1.105 96 164 220
0.0425399 0.0604862 1.105 113 181 237
0.044256 0.0604862 1.105 115 183 239
0.0460138 0.0605409 1.106 89 157 213
0.0477314 0.0605409 1.106 85 151 207
0.0494938 0.0605957 1.107 86 152 208
0.0512592 0.0606504 1.108 85 149 205
0.0530278 0.0607051 1.109 85 149 205
0.0547995 0.0607599 1.11 110 166 219
0.0565743 0.0608146 1.111 149 205 255
0.0583522 0.0608693 1.112 162 212 255
0.0601332 0.0609241 1.113 148 198 250
0.0619173 0.0609788 1.114 149 189 241
0.0637045 0.0610336 1.115 144 184 236
0.0654948 0.0610883 1.116 155 193 245
0.0673485 0.0611978 1.118 152 190 242
0.0692084 0.0613073 1.12 151 189 243
0.0711378 0.0614715 1.123 126 164 218
0.0731415 0.0616904 1.127 70 99 150
0.0750911 0.0618546 1.13 46 75 126
0.0809248 0.0622926 1.138 16 35 58
0.0829828 0.0625115 1.142 11 30 53
0.0850532 0.0627305 1.146 21 40 42
0.0871361 0.0629494 1.15 22 41 43
0.0890767 0.0630589 1.152 28 44 34
0.0910236 0.0631684 1.154 29 45 35
0.0930571 0.0633326 1.157 31 47 30
0.0951818 0.0635515 1.161 30 46 29
0.0972355 0.0637158 1.164 31 48 28
0.0993836 0.0639347 1.168 32 49 29
0.101457 0.0640989 1.171 32 50 28
0.105454 0.0643179 1.175 34 50 28
0.107552 0.0644821 1.178 33 49 27
0.109568 0.0645916 1.18 33 49 27
0.111683 0.0647558 1.183 33 49 27
0.113521 0.0647558 1.183 36 52 30
0.115455 0.0648105 1.184 36 52 30
0.117393 0.0648653 1.185 36 52 30
0.119234 0.0648653 1.185 34 50 28
0.121074 0.0648653 1.185 32 48 26
0.123122 0.0649747 1.187 33 49 27
0.124965 0.0649747 1.187 32 48 26
0.127022 0.0650842 1.189 34 50 28
0.128977 0.065139 1.19 33 49 27
0.130935 0.0651937 1.191 33 49 27
0.132896 0.0652484 1.192 33 49 27
0.134748 0.0652484 1.192 33 49 27
0.136713 0.0653032 1.193 33 49 27
0.138566 0.0653032 1.193 33 49 27
0.140419 0.0653032 1.193 34 50 28
0.142391 0.0653579 1.194 34 50 28
0.144245 0.0653579 1.194 37 53 31
0.1461 0.0653579 1.194 37 53 31
0.147954 0.0653579 1.194 38 55 30
0.149808 0.0653579 1.194 36 53 28
0.151536 0.0653032 1.193 38 55 30
0.153388 0.0653032 1.193 37 54 29
0.155241 0.0653032 1.193 39 57 30
0.156962 0.0652484 1.192 39 57 30
0.158813 0.0652484 1.192 39 57 30
0.160665 0.0652484 1.192 41 59 32
0.162516 0.0652484 1.192 44 62 33
0.164367 0.0652484 1.192 43 61 32
0.166218 0.0652484 1.192 44 62 33
0.167929 0.0651937 1.191 45 63 34
0.169636 0.065139 1.19 46 65 33
0.171484 0.065139 1.19 45 64 32
0.173186 0.0650842 1.189 45 65 31
0.174886 0.0650295 1.188 47 67 33
0.176731 0.0650295 1.188 50 70 36
0.178425 0.0649747 1.187 48 68 34
0.180269 0.0649747 1.187 51 71 37
0.182112 0.0649747 1.187 51 71 37
0.183956 0.0649747 1.187 50 71 34
0.185643 0.06492 1.186 51 72 35
0.187484 0.06492 1.186 53 71 35
0.189326 0.06492 1.186 54 72 36
0.191168 0.06492 1.186 54 73 35
0.19301 0.06492 1.186 54 73 35
0.194852 0.06492 1.186 54 73 33
0.196528 0.0648653 1.185 56 75 35
0.198368 0.0648653 1.185 59 79 36
0.200209 0.0648653 1.185 64 84 41
0.20222 0.06492 1.186 60 80 37
0.204062 0.06492 1.186 59 79 36
0.205903 0.06492 1.186 62 82 39
0.207745 0.06492 1.186 61 81 38
0.209587 0.06492 1.186 66 86 43
0.211429 0.06492 1.186 70 90 47
0.213271 0.06492 1.186 67 90 46
0.215113 0.06492 1.186 67 90 46
0.217138 0.0649747 1.187 72 94 53
0.218981 0.0649747 1.187 69 91 50
0.220825 0.0649747 1.187 69 91 50
0.222668 0.0649747 1.187 70 92 51
0.224512 0.0649747 1.187 66 88 47
0.226355 0.0649747 1.187 64 86 45
0.228198 0.0649747 1.187 65 87 46
0.230236 0.0650295 1.188 65 87 46
0.232276 0.0650842 1.189 68 90 51
0.234123 0.0650842 1.189 59 81 42
0.235771 0.0650295 1.188 59 81 42
0.237616 0.0650295 1.188 59 81 42
0.239461 0.0650295 1.188 64 85 48
0.241103 0.0649747 1.187 59 80 43
0.242946 0.0649747 1.187 57 73 42
0.244583 0.06492 1.186 49 65 34
0.246425 0.06492 1.186 42 58 27
0.248058 0.0648653 1.185 49 65 34
0.249898 0.0648653 1.185 43 59 28
0.251738 0.0648653 1.185 40 56 25
0.253579 0.0648653 1.185 40 55 27
0.255419 0.0648653 1.185 39 54 26
0.257259 0.0648653 1.185 39 54 26
0.2591 0.0648653 1.185 40 55 27
0.26094 0.0648653 1.185 41 56 28
0.262781 0.0648653 1.185 40 55 27
0.264621 0.0648653 1.185 37 55 26
0.266461 0.0648653 1.185 38 56 27
0.268302 0.0648653 1.185 39 57 30
0.27037 0.06492 1.186 39 57 30
0.272212 0.06492 1.186 39 57 30
0.274285 0.0649747 1.187 38 56 29
0.276128 0.0649747 1.187 38 56 27
0.278206 0.0650295 1.188 41 59 30
0.280051 0.0650295 1.188 40 58 29
0.282133 0.0650842 1.189 40 58 29
0.284219 0.065139 1.19 40 58 29
0.286067 0.065139 1.19 39 57 28
0.287915 0.065139 1.19 39 57 28
0.289763 0.065139 1.19 39 57 28
0.291611 0.065139 1.19 39 57 28
0.293459 0.065139 1.19 39 57 28
0.295307 0.065139 1.19 39 57 28
0.297155 0.065139 1.19 40 58 29
0.298752 0.0650842 1.189 41 59 30
0.300346 0.0650295 1.188 40 58 29
0.302191 0.0650295 1.188 39 57 28
0.30378 0.0649747 1.187 39 57 28
0.305623 0.0649747 1.187 37 55 26
0.307467 0.0649747 1.187 38 56 27
0.30931 0.0649747 1.187 38 56 27
0.311154 0.0649747 1.187 40 58 29
0.312734 0.06492 1.186 41 60 28
0.314575 0.06492 1.186 41 60 28
0.316684 0.0649747 1.187 41 60 28
0.318528 0.0649747 1.187 43 62 30
0.320371 0.0649747 1.187 44 63 31
0.324331 0.0650295 1.188 39 59 25
0.32645 0.0650842 1.189 58 78 44
0.328297 0.0650842 1.189 52 72 38
0.330421 0.065139 1.19 53 73 39
0.332269 0.065139 1.19 53 74 37
0.334117 0.065139 1.19 55 76 39
0.336248 0.0651937 1.191 59 80 43
0.338098 0.0651937 1.191 54 75 38
0.339947 0.0651937 1.191 58 79 42
0.342084 0.0652484 1.192 58 79 42
0.343647 0.0651937 1.191 62 82 48
0.345496 0.0651937 1.191 66 86 52
0.347638 0.0652484 1.192 68 88 54
0.349489 0.0652484 1.192 68 88 54
0.351045 0.0651937 1.191 68 88 54
0.352599 0.065139 1.19 64 84 50
0.354149 0.0650842 1.189 59 78 46
0.355696 0.0650295 1.188 55 74 42
0.35724 0.0649747 1.187 89 107 80
0.358781 0.06492 1.186 96 114 87
0.360319 0.0648653 1.185 77 95 68
0.361854 0.0648105 1.184 50 68 41
0.363078 0.064701 1.182 52 70 43
0.363679 0.0644821 1.178 68 86 59
0.363957 0.0642084 1.173 81 93 74
0.364219 0.0639347 1.168 48 60 41
0.364153 0.0636063 1.162 60 67 63
0.361863 0.0628947 1.149 169 176 172
0.361749 0.0625662 1.143 186 194 201
0.362252 0.0623473 1.139 169 177 184
0.363701 0.0622926 1.138 196 206 213
0.364826 0.0621831 1.136 206 216 223
0.366268 0.0621283 1.135 122 131 140
0.3703 0.0625115 1.142 93 102 111
-0.150189 0.0603466 1.072 64 86 159
-0.148524 0.0603466 1.072 56 78 151
-0.146859 0.0603466 1.072 43 73 142
-0.145194 0.0603466 1.072 41 71 140
-0.143529 0.0603466 1.072 26 61 129
-0.141864 0.0603466 1.072 20 55 123
-0.140199 0.0603466 1.072 18 55 125
-0.138664 0.0604029 1.073 16 53 123
-0.137125 0.0604592 1.074 15 52 122
-0.135583 0.0605155 1.075 15 52 122
-0.134038 0.0605718 1.076 16 55 125
-0.13249 0.0606281 1.077 16 55 125
-0.131061 0.0607407 1.079 18 56 128
-0.129385 0.0607407 1.079 19 57 129
-0.127827 0.060797 1.08 19 57 129
-0.12615 0.060797 1.08 19 57 129
-0.124588 0.0608533 1.081 18 56 128
-0.122909 0.0608533 1.081 16 54 126
-0.12123 0.0608533 1.081 13 51 123
-0.119552 0.0608533 1.081 13 51 123
-0.117873 0.0608533 1.081 11 51 123
-0.116194 0.0608533 1.081 11 51 123
-0.114409 0.060797 1.08 11 51 123
-0.112836 0.0608533 1.081 11 51 123
-0.111158 0.0608533 1.081 11 51 123
-0.109479 0.0608533 1.081 9 49 121
-0.1078 0.0608533 1.081 7 38 118
-0.106023 0.060797 1.08 1 32 112
-0.104346 0.060797 1.08 0 3 87
-0.102668 0.060797 1.08 0 11 95
-0.100991 0.060797 1.08 0 11 96
-0.0992218 0.0607407 1.079 0 13 98
-0.0975461 0.0607407 1.079 6 12 99
-0.0958703 0.0607407 1.079 8 14 101
-0.0941946 0.0607407 1.079 9 15 102
-0.0925189 0.0607407 1.079 9 15 102
-0.0908432 0.0607407 1.079 9 20 106
-0.0891674 0.0607407 1.079 11 22 108
-0.0875728 0.060797 1.08 7 22 109
-0.0860546 0.0609096 1.082 4 19 106
-0.0844522 0.0609659 1.083 0 21 105
-0.0829231 0.0610784 1.085 2 23 107
-0.0813129 0.0611347 1.086 3 25 105
-0.0796263 0.0611347 1.086 4 26 106
-0.0763936 0.0612473 1.088 38 62 136
-0.0747725 0.0613036 1.089 58 85 157
-0.0730813 0.0613036 1.089 76 103 175
-0.0714556 0.0613599 1.09 80 108 177
-0.0697628 0.0613599 1.09 84 112 181
-0.06807 0.0613599 1.09 80 113 186
-0.0663772 0.0613599 1.09 85 118 191
-0.0647437 0.0614162 1.091 87 125 192
-0.0630494 0.0614162 1.091 89 127 194
-0.061355 0.0614162 1.091 87 129 195
-0.0596606 0.0614162 1.091 88 130 196
-0.0579663 0.0614162 1.091 88 130 196
-0.0562719 0.0614162 1.091 87 129 195
-0.0545775 0.0614162 1.091 75 117 183
-0.0528832 0.0614162 1.091 61 103 169
-0.0512357 0.0614725 1.092 65 112 177
-0.0495398 0.0614725 1.092 98 145 210
-0.0478439 0.0614725 1.092 101 151 216
-0.046148 0.0614725 1.092 106 156 221
-0.0444521 0.0614725 1.092 107 159 223
-0.0427953 0.0615288 1.093 110 162 226
-0.0410979 0.0615288 1.093 113 165 229
-0.0394365 0.0615851 1.094 114 166 230
-0.0377374 0.0615851 1.094 104 157 218
-0.0360384 0.0615851 1.094 92 145 206
-0.0343394 0.0615851 1.094 97 149 207
-0.0326105 0.0615288 1.093 99 151 209
-0.0309131 0.0615288 1.093 101 148 207
-0.0291889 0.0614725 1.092 72 119 178
-0.027493 0.0614725 1.092 73 117 177
-0.0257971 0.0614725 1.092 76 120 180
-0.0241011 0.0614725 1.092 74 119 184
-0.0224052 0.0614725 1.092 72 117 182
-0.0207283 0.0615288 1.093 71 115 184
-0.0173492 0.0615851 1.094 88 134 203
-0.0156502 0.0615851 1.094 94 140 209
-0.0139639 0.0616414 1.095 85 132 198
-0.0122745 0.0616977 1.096 111 158 224
-0.0105821 0.061754 1.097 104 154 219
-0.00887839 0.061754 1.097 84 134 199
-0.00718125 0.0618103 1.098 86 135 203
-0.00547602 0.0618103 1.098 84 133 201
-0.00377078 0.0618103 1.098 86 131 202
-0.00206555 0.0618103 1.098 91 136 207
-0.00036065 0.0618666 1.099 100 152 217
0.00134736 0.0619229 1.1 118 170 235
0.0030557 0.0619229 1.1 133 190 246
0.00476403 0.0619229 1.1 130 187 243
0.00647826 0.0619791 1.101 123 184 236
0.00819558 0.0620354 1.102 103 164 216
0.00991602 0.0620917 1.103 90 153 205
0.011629 0.0620917 1.103 88 151 203
0.013342 0.0620917 1.103 82 150 201
0.015055 0.0620917 1.103 78 146 197
0.0167832 0.062148 1.104 78 146 197
0.0184978 0.062148 1.104 83 151 202
0.020194 0.0620917 1.103 78 145 199
0.021907 0.0620917 1.103 71 138 192
0.0235986 0.0620354 1.102 67 134 188
0.02531 0.0620354 1.102 63 130 184
0.0270215 0.0620354 1.102 56 122 178
0.0287068 0.0619791 1.101 53 119 175
0.0304443 0.0620354 1.102 53 119 175
0.0321558 0.0620354 1.102 72 138 194
0.033898 0.0620917 1.103 87 155 211
0.035611 0.0620917 1.103 89 157 213
0.037324 0.0620917 1.103 94 162 218
0.0390724 0.062148 1.104 104 172 228
0.0408238 0.0622043 1.105 117 185 241
0.0425399 0.0622043 1.105 119 187 243
0.044256 0.0622043 1.105 112 180 236
0.0460138 0.0622606 1.106 81 149 205
0.0477314 0.0622606 1.106 85 153 209
0.0494938 0.0623169 1.107 95 163 219
0.0512592 0.0623732 1.108 88 153 207
0.0530278 0.0624295 1.109 91 156 210
0.0547995 0.0624858 1.11 117 173 226
0.0565743 0.0625421 1.111 142 198 251
0.0583522 0.0625984 1.112 148 198 250
0.0600792 0.0625984 1.112 116 166 218
0.0619173 0.062711 1.114 118 161 212
0.0637045 0.0627673 1.115 109 152 203
0.0655535 0.0628798 1.117 131 171 223
0.0674087 0.0629924 1.119 143 183 235
0.0692702 0.063105 1.121 134 172 226
0.0712645 0.0633302 1.125 98 136 190
0.0732713 0.0635554 1.129 50 79 130
0.075224 0.0637242 1.132 56 85 136
0.0790183 0.0639494 1.136 43 67 107
0.0811381 0.0642309 1.141 9 29 47
0.0832008 0.0644561 1.145 10 30 48
0.0853501 0.0647375 1.15 21 42 39
0.0874392 0.0649627 1.154 23 44 41
0.089386 0.0650753 1.156 29 46 33
0.0913391 0.0651879 1.158 29 46 33
0.0933788 0.0653568 1.161 31 48 28
0.0955098 0.0655819 1.165 31 48 28
0.0975697 0.0657508 1.168 32 50 28
0.0996389 0.0659197 1.171 32 50 28
0.103452 0.0660323 1.173 34 52 30
0.105454 0.0661449 1.175 34 50 28
0.107552 0.0663137 1.178 32 48 26
0.109568 0.0664263 1.18 33 49 27
0.111589 0.0665389 1.182 33 49 27
0.113521 0.0665952 1.183 34 50 28
0.115358 0.0665952 1.183 36 52 30
0.117195 0.0665952 1.183 36 52 30
0.119234 0.0667078 1.185 34 50 28
0.121074 0.0667078 1.185 36 52 30
0.123122 0.0668204 1.187 37 53 31
0.124965 0.0668204 1.187 37 53 31
0.126915 0.0668767 1.188 37 53 31
0.128977 0.0669893 1.19 33 49 27
0.130935 0.0670456 1.191 34 50 28
0.132896 0.0671019 1.192 33 49 27
0.134748 0.0671019 1.192 33 49 27
0.136713 0.0671581 1.193 34 50 28
0.138566 0.0671581 1.193 36 52 30
0.140537 0.0672144 1.194 36 52 30
0.142391 0.0672144 1.194 34 50 28
0.144245 0.0672144 1.194 37 53 31
0.145977 0.0671581 1.193 38 54 32
0.14783 0.0671581 1.193 37 54 29
0.149683 0.0671581 1.193 34 51 26
0.151536 0.0671581 1.193 38 55 30
0.153388 0.0671581 1.193 37 54 29
0.155111 0.0671019 1.192 39 56 31
0.156962 0.0671019 1.192 39 56 31
0.158813 0.0671019 1.192 40 58 31
0.160665 0.0671019 1.192 41 59 32
0.162516 0.0671019 1.192 41 59 32
0.164367 0.0671019 1.192 43 61 34
0.166079 0.0670456 1.191 43 61 32
0.167788 0.0669893 1.19 45 63 34
0.169636 0.0669893 1.19 44 63 31
0.17134 0.066933 1.189 44 63 31
0.173186 0.066933 1.189 45 64 32
0.174886 0.0668767 1.188 53 72 40
0.176582 0.0668204 1.187 48 67 35
0.178425 0.0668204 1.187 45 64 32
0.180269 0.0668204 1.187 50 70 36
0.182112 0.0668204 1.187 51 71 37
0.183801 0.0667641 1.186 47 67 33
0.185643 0.0667641 1.186 48 68 34
0.187484 0.0667641 1.186 47 68 31
0.189326 0.0667641 1.186 50 71 34
0.191168 0.0667641 1.186 53 72 34
0.19301 0.0667641 1.186 52 71 33
0.194852 0.0667641 1.186 50 69 29
0.196694 0.0667641 1.186 59 78 38
0.198536 0.0667641 1.186 60 80 37
0.200378 0.0667641 1.186 61 81 38
0.20222 0.0667641 1.186 59 79 36
0.204062 0.0667641 1.186 59 79 36
0.205903 0.0667641 1.186 61 81 38
0.207745 0.0667641 1.186 60 80 37
0.209764 0.0668204 1.187 64 84 41
0.211607 0.0668204 1.187 68 88 45
0.213451 0.0668204 1.187 66 88 47
0.215294 0.0668204 1.187 68 90 49
0.217138 0.0668204 1.187 75 97 56
0.218981 0.0668204 1.187 72 94 53
0.220825 0.0668204 1.187 73 95 54
0.222668 0.0668204 1.187 73 95 54
0.224512 0.0668204 1.187 75 97 56
0.226546 0.0668767 1.188 69 91 50
0.228583 0.066933 1.189 66 88 47
0.23043 0.066933 1.189 66 88 47
0.232276 0.066933 1.189 68 90 51
0.234123 0.066933 1.189 60 82 43
0.235969 0.066933 1.189 60 82 43
0.237616 0.0668767 1.188 60 82 43
0.239461 0.0668767 1.188 57 78 41
0.241103 0.0668204 1.187 53 74 37
0.242946 0.0668204 1.187 60 76 45
0.244583 0.0667641 1.186 49 65 34
0.246217 0.0667078 1.185 47 63 32
0.248058 0.0667078 1.185 49 65 34
0.249687 0.0666515 1.184 43 58 30
0.251526 0.0666515 1.184 36 51 23
0.253365 0.0666515 1.184 39 54 26
0.255204 0.0666515 1.184 38 53 25
0.257042 0.0666515 1.184 39 54 26
0.258881 0.0666515 1.184 40 55 27
0.26072 0.0666515 1.184 41 56 28
0.262559 0.0666515 1.184 39 54 26
0.264621 0.0667078 1.185 40 55 29
0.266461 0.0667078 1.185 39 54 28
0.268302 0.0667078 1.185 39 57 30
0.270142 0.0667078 1.185 39 57 30
0.272212 0.0667641 1.186 39 57 30
0.274285 0.0668204 1.187 39 57 30
0.276128 0.0668204 1.187 39 57 28
0.278206 0.0668767 1.188 41 59 30
0.280287 0.066933 1.189 40 58 29
0.28237 0.0669893 1.19 39 57 28
0.284219 0.0669893 1.19 40 58 29
0.286067 0.0669893 1.19 40 58 29
0.287915 0.0669893 1.19 39 57 28
0.289763 0.0669893 1.19 39 57 28
0.291611 0.0669893 1.19 39 57 28
0.293459 0.0669893 1.19 39 57 28
0.295307 0.0669893 1.19 39 57 28
0.297155 0.0669893 1.19 39 57 28
0.298752 0.066933 1.189 41 59 30
0.300346 0.0668767 1.188 41 59 30
0.302191 0.0668767 1.188 40 58 29
0.30378 0.0668204 1.187 41 59 30
0.305623 0.0668204 1.187 40 58 29
0.307467 0.0668204 1.187 40 58 29
0.30931 0.0668204 1.187 41 60 28
0.311154 0.0668204 1.187 43 62 30
0.312734 0.0667641 1.186 43 62 30
0.314575 0.0667641 1.186 43 62 30
0.316684 0.0668204 1.187 43 62 30
0.318528 0.0668204 1.187 43 62 30
0.320371 0.0668204 1.187 44 63 31
0.324331 0.0668767 1.188 41 61 27
0.32645 0.066933 1.189 57 77 43
0.328297 0.066933 1.189 52 72 38
0.330144 0.066933 1.189 52 72 38
0.332269 0.0669893 1.19 57 78 41
0.334117 0.0669893 1.19 59 80 43
0.335966 0.0669893 1.19 58 79 42
0.337814 0.0669893 1.19 50 71 34
0.339947 0.0670456 1.191 57 78 41
0.341797 0.0670456 1.191 58 79 42
0.343647 0.0670456 1.191 60 81 44
0.345496 0.0670456 1.191 62 83 46
0.347346 0.0670456 1.191 61 81 47
0.349196 0.0670456 1.191 61 81 47
0.351045 0.0670456 1.191 61 81 47
0.352599 0.0669893 1.19 61 81 47
0.354149 0.066933 1.189 57 76 44
0.355696 0.0668767 1.188 55 74 42
0.35724 0.0668204 1.187 94 112 83
0.358781 0.0667641 1.186 108 126 97
0.360319 0.0667078 1.185 102 120 91
0.361548 0.0665952 1.183 77 95 66
0.363078 0.0665389 1.182 69 87 60
0.363679 0.0663137 1.178 79 97 70
0.363957 0.0660323 1.173 75 91 69
0.364219 0.0657508 1.168 48 64 42
0.36384 0.0653568 1.161 62 71 62
0.361863 0.0646812 1.149 170 179 170
0.361749 0.0643435 1.143 186 196 203
0.361934 0.064062 1.138 172 182 189
0.363701 0.064062 1.138 199 209 216
0.364826 0.0639494 1.136 210 220 227
0.366268 0.0638931 1.135 122 134 142
0.3703 0.0642872 1.142 91 103 111
-0.150189 0.0620135 1.072 68 90 163
-0.148524 0.0620135 1.072 61 83 156
-0.146859 0.0620135 1.072 44 77 144
-0.145194 0.0620135 1.072 38 71 138
-0.143395 0.0619556 1.071 30 65 132
-0.141864 0.0620135 1.072 32 67 134
-0.140199 0.0620135 1.072 33 70 140
-0.138664 0.0620713 1.073 33 70 140
-0.137125 0.0621292 1.074 29 68 138
-0.135583 0.062187 1.075 31 70 140
-0.134038 0.0622449 1.076 32 71 141
-0.13249 0.0623027 1.077 33 72 142
-0.130939 0.0623606 1.078 31 72 142
-0.129385 0.0624184 1.079 32 73 143
-0.127709 0.0624184 1.079 33 74 144
-0.12615 0.0624763 1.08 33 74 144
-0.124473 0.0624763 1.08 33 74 144
-0.122796 0.0624763 1.08 32 73 143
-0.121118 0.0624763 1.08 31 71 143
-0.119441 0.0624763 1.08 36 76 148
-0.117764 0.0624763 1.08 36 80 149
-0.116087 0.0624763 1.08 37 81 150
-0.114409 0.0624763 1.08 41 86 152
-0.112732 0.0624763 1.08 37 82 148
-0.111055 0.0624763 1.08 37 82 148
-0.109377 0.0624763 1.08 55 100 166
-0.1077 0.0624763 1.08 70 104 183
-0.106023 0.0624763 1.08 41 75 154
-0.104346 0.0624763 1.08 0 7 91
-0.102668 0.0624763 1.08 0 15 99
-0.100898 0.0624184 1.079 7 21 106
-0.0992218 0.0624184 1.079 9 23 108
-0.0975461 0.0624184 1.079 18 21 110
-0.0958703 0.0624184 1.079 19 22 111
-0.0941946 0.0624184 1.079 21 25 112
-0.0924331 0.0623606 1.078 24 28 115
-0.090759 0.0623606 1.078 28 37 123
-0.0891674 0.0624184 1.079 25 34 120
-0.0875728 0.0624763 1.08 22 33 119
-0.0859751 0.0625341 1.081 16 27 113
-0.0844522 0.0626498 1.083 11 22 108
-0.0828467 0.0627076 1.084 3 14 100
-0.0813129 0.0628233 1.086 1 12 98
-0.0796263 0.0628233 1.086 0 10 96
-0.0763936 0.062939 1.088 0 9 95
-0.0747039 0.062939 1.088 1 13 95
-0.0730813 0.0629969 1.089 16 28 110
-0.0714556 0.0630547 1.09 31 50 132
-0.0697628 0.0630547 1.09 52 71 153
-0.06807 0.0630547 1.09 65 88 165
-0.0663772 0.0630547 1.09 89 112 189
-0.0646844 0.0630547 1.09 98 127 206
-0.0629916 0.0630547 1.09 103 132 211
-0.061355 0.0631126 1.091 103 137 208
-0.0596606 0.0631126 1.091 100 134 205
-0.0579663 0.0631126 1.091 92 132 199
-0.0562719 0.0631126 1.091 89 129 196
-0.0545775 0.0631126 1.091 78 120 186
-0.0528832 0.0631126 1.091 71 113 179
-0.0512357 0.0631704 1.092 86 131 196
-0.0495398 0.0631704 1.092 103 148 213
-0.0478439 0.0631704 1.092 104 154 218
-0.0461903 0.0632283 1.093 103 153 217
-0.0444928 0.0632283 1.093 99 149 213
-0.0427953 0.0632283 1.093 108 158 222
-0.0410979 0.0632283 1.093 111 163 227
-0.0394004 0.0632283 1.093 107 159 223
-0.0377029 0.0632283 1.093 88 141 202
-0.0360055 0.0632283 1.093 88 141 202
-0.034308 0.0632283 1.093 105 156 217
-0.0326105 0.0632283 1.093 105 156 217
-0.0308848 0.0631704 1.092 105 154 213
-0.0291889 0.0631704 1.092 82 131 190
-0.027493 0.0631704 1.092 72 118 180
-0.0257971 0.0631704 1.092 70 116 178
-0.0241011 0.0631704 1.092 65 111 173
-0.0224052 0.0631704 1.092 67 113 175
-0.0207283 0.0632283 1.093 70 113 184
-0.0173492 0.0632861 1.094 83 129 198
-0.0156502 0.0632861 1.094 86 132 201
-0.0139639 0.063344 1.095 85 132 198
-0.0122633 0.063344 1.095 125 172 238
-0.0105821 0.0634597 1.097 125 175 240
-0.00887839 0.0634597 1.097 108 158 223
-0.00718125 0.0635175 1.098 89 138 206
-0.00547602 0.0635175 1.098 87 136 204
-0.00377078 0.0635175 1.098 92 141 209
-0.00206743 0.0635754 1.099 113 162 230
-0.00036065 0.0635754 1.099 131 184 245
0.00134736 0.0636332 1.1 139 192 253
0.0030557 0.0636332 1.1 136 193 244
0.00476837 0.0636911 1.101 129 186 237
0.00647826 0.0636911 1.101 119 177 230
0.00819558 0.0637489 1.102 107 165 218
0.00991602 0.0638068 1.103 90 151 203
0.011629 0.0638068 1.103 77 138 190
0.013342 0.0638068 1.103 77 143 194
0.015055 0.0638068 1.103 77 143 194
0.016768 0.0638068 1.103 70 137 191
0.018481 0.0638068 1.103 72 139 193
0.020194 0.0638068 1.103 70 139 193
0.0218871 0.0637489 1.102 61 130 184
0.0235772 0.0636911 1.101 53 121 177
0.0252871 0.0636911 1.101 49 117 173
0.0269969 0.0636911 1.101 47 115 171
0.0287068 0.0636911 1.101 46 114 170
0.0304167 0.0636911 1.101 56 124 180
0.0321558 0.0637489 1.102 85 153 209
0.033898 0.0638068 1.103 101 168 227
0.035611 0.0638068 1.103 110 177 236
0.0373578 0.0638646 1.104 110 181 236
0.0391077 0.0639225 1.105 121 192 247
0.0408238 0.0639225 1.105 122 195 250
0.0425399 0.0639225 1.105 116 189 244
0.0442961 0.0639803 1.106 110 178 234
0.0460138 0.0639803 1.106 81 149 205
0.0477314 0.0639803 1.106 88 156 212
0.0494938 0.0640382 1.107 95 163 219
0.0512592 0.064096 1.108 95 157 212
0.0530278 0.0641539 1.109 97 159 214
0.0547995 0.0642117 1.11 130 185 236
0.0565234 0.0642117 1.11 150 205 255
0.0582997 0.0642696 1.111 153 198 249
0.0600792 0.0643274 1.112 134 179 230
0.0619173 0.0644431 1.114 121 162 211
0.0637045 0.0645009 1.115 103 144 193
0.0656122 0.0646745 1.118 96 135 184
0.067469 0.0647902 1.12 105 144 193
0.0693938 0.0649637 1.123 115 148 201
0.0713912 0.0651951 1.127 72 105 158
0.0733362 0.0653687 1.13 40 71 117
0.0753569 0.0656001 1.134 71 102 148
0.0792965 0.0659472 1.14 1 27 62
0.0813514 0.0661785 1.144 6 27 43
0.0834914 0.0664678 1.149 9 30 46
0.0857212 0.0668149 1.155 24 42 39
0.0877422 0.0669884 1.158 25 43 40
0.0896953 0.0671041 1.16 28 46 31
0.0917335 0.0672777 1.163 29 47 32
0.0937005 0.0673934 1.165 31 48 28
0.0957557 0.0675669 1.168 31 48 28
0.0978203 0.0677405 1.171 32 50 28
0.101631 0.0678561 1.173 32 50 28
0.103541 0.067914 1.174 35 53 31
0.105543 0.0680297 1.176 34 50 28
0.107552 0.0681454 1.178 33 49 27
0.109475 0.0682032 1.179 32 48 26
0.111495 0.0683189 1.181 33 49 27
0.113425 0.0683768 1.182 33 49 27
0.11526 0.0683768 1.182 34 50 28
0.117195 0.0684346 1.183 36 52 30
0.119133 0.0684925 1.184 36 52 30
0.121074 0.0685503 1.185 36 52 30
0.123018 0.0686082 1.186 36 52 30
0.124965 0.068666 1.187 34 50 28
0.126915 0.0687239 1.188 38 54 32
0.128977 0.0688396 1.19 33 49 27
0.130935 0.0688974 1.191 34 50 28
0.132896 0.0689553 1.192 34 50 28
0.134748 0.0689553 1.192 34 50 28
0.136599 0.0689553 1.192 36 52 30
0.138566 0.0690131 1.193 36 52 30
0.140419 0.0690131 1.193 36 52 30
0.142272 0.0690131 1.193 36 52 30
0.144125 0.0690131 1.193 36 52 30
0.145855 0.0689553 1.192 36 52 30
0.147706 0.0689553 1.192 37 54 29
0.149557 0.0689553 1.192 34 51 26
0.151409 0.0689553 1.192 38 55 30
0.15326 0.0689553 1.192 38 55 30
0.155111 0.0689553 1.192 40 57 32
0.156962 0.0689553 1.192 40 57 32
0.15868 0.0688974 1.191 41 59 32
0.16053 0.0688974 1.191 41 59 32
0.16238 0.0688974 1.191 40 58 31
0.164091 0.0688396 1.19 40 58 31
0.165939 0.0688396 1.19 39 57 28
0.167788 0.0688396 1.19 40 58 29
0.169493 0.0687817 1.189 41 60 28
0.17134 0.0687817 1.189 43 62 30
0.173041 0.0687239 1.188 41 60 28
0.174886 0.0687239 1.188 38 57 25
0.176582 0.068666 1.187 39 59 25
0.178425 0.068666 1.187 44 64 30
0.180269 0.068666 1.187 44 64 30
0.182112 0.068666 1.187 45 65 31
0.183956 0.068666 1.187 45 65 31
0.185643 0.0686082 1.186 46 66 32
0.187484 0.0686082 1.186 46 67 30
0.189326 0.0686082 1.186 48 69 32
0.191168 0.0686082 1.186 50 68 32
0.19301 0.0686082 1.186 52 70 34
0.194852 0.0686082 1.186 52 71 33
0.196694 0.0686082 1.186 53 72 34
0.198536 0.0686082 1.186 55 74 34
0.200378 0.0686082 1.186 56 75 35
0.20222 0.0686082 1.186 57 77 34
0.204062 0.0686082 1.186 59 79 36
0.206077 0.068666 1.187 60 80 37
0.20792 0.068666 1.187 62 82 39
0.209764 0.068666 1.187 63 82 42
0.211607 0.068666 1.187 66 85 45
0.213451 0.068666 1.187 65 87 46
0.215294 0.068666 1.187 66 88 47
0.217138 0.068666 1.187 69 91 50
0.219166 0.0687239 1.188 72 94 53
0.221011 0.0687239 1.188 68 90 49
0.222856 0.0687239 1.188 75 97 56
0.22489 0.0687817 1.189 77 99 58
0.226736 0.0687817 1.189 69 91 50
0.228583 0.0687817 1.189 66 88 49
0.230623 0.0688396 1.19 65 87 48
0.232471 0.0688396 1.19 65 87 48
0.23432 0.0688396 1.19 61 83 44
0.235969 0.0687817 1.189 62 84 45
0.237816 0.0687817 1.189 59 81 42
0.239461 0.0687239 1.188 52 73 36
0.241103 0.068666 1.187 53 74 37
0.242946 0.068666 1.187 61 78 45
0.244583 0.0686082 1.186 57 74 41
0.246217 0.0685503 1.185 52 68 37
0.248058 0.0685503 1.185 48 64 33
0.249687 0.0684925 1.184 42 58 27
0.251314 0.0684346 1.183 41 57 26
0.253151 0.0684346 1.183 40 55 27
0.254988 0.0684346 1.183 41 56 28
0.256825 0.0684346 1.183 41 56 28
0.258663 0.0684346 1.183 41 56 28
0.262559 0.0684925 1.184 41 56 28
0.266461 0.0685503 1.185 40 55 29
0.268302 0.0685503 1.185 38 56 29
0.270142 0.0685503 1.185 39 57 30
0.272212 0.0686082 1.186 40 58 31
0.274285 0.068666 1.187 40 58 31
0.276361 0.0687239 1.188 39 57 28
0.27844 0.0687817 1.189 40 58 29
0.280522 0.0688396 1.19 41 59 30
0.28237 0.0688396 1.19 39 57 28
0.284457 0.0688974 1.191 39 58 26
0.286307 0.0688974 1.191 40 59 27
0.288157 0.0688974 1.191 40 59 27
0.289763 0.0688396 1.19 39 58 26
0.291611 0.0688396 1.19 39 58 26
0.293459 0.0688396 1.19 39 58 26
0.295307 0.0688396 1.19 39 58 26
0.297155 0.0688396 1.19 40 59 27
0.298501 0.0687239 1.188 41 60 28
0.300346 0.0687239 1.188 40 59 27
0.301937 0.068666 1.187 39 58 26
0.30378 0.068666 1.187 40 59 27
0.305623 0.068666 1.187 41 60 28
0.307467 0.068666 1.187 41 60 28
0.30931 0.068666 1.187 43 62 30
0.311154 0.068666 1.187 43 62 30
0.312997 0.068666 1.187 41 60 28
0.314841 0.068666 1.187 43 62 30
0.316684 0.068666 1.187 43 62 30
0.318528 0.068666 1.187 43 62 30
0.320371 0.068666 1.187 41 61 27
0.324331 0.0687239 1.188 45 65 31
0.32645 0.0687817 1.189 52 72 38
0.328297 0.0687817 1.189 51 72 35
0.330144 0.0687817 1.189 55 76 39
0.332269 0.0688396 1.19 65 86 49
0.334117 0.0688396 1.19 65 86 49
0.335966 0.0688396 1.19 62 83 46
0.337814 0.0688396 1.19 59 80 43
0.339662 0.0688396 1.19 59 80 43
0.34151 0.0688396 1.19 58 79 42
0.343358 0.0688396 1.19 59 80 43
0.345206 0.0688396 1.19 59 80 43
0.347346 0.0688974 1.191 59 79 45
0.349196 0.0688974 1.191 59 79 45
0.35075 0.0688396 1.19 59 79 45
0.352599 0.0688396 1.19 60 80 46
0.353851 0.0687239 1.188 55 75 41
0.355397 0.068666 1.187 55 75 41
0.35724 0.068666 1.187 96 111 83
0.358478 0.0685503 1.185 104 119 91
0.360015 0.0684925 1.184 109 124 96
0.361242 0.0683768 1.182 91 106 78
0.362771 0.0683189 1.181 72 87 61
0.36337 0.0680875 1.177 81 96 70
0.363647 0.0677983 1.172 78 90 71
0.363596 0.0674512 1.166 47 59 40
0.361646 0.066757 1.154 63 72 63
0.361234 0.0663521 1.147 174 183 174
0.361432 0.0660629 1.142 189 199 206
0.36257 0.0659472 1.14 176 186 193
0.363701 0.0658315 1.138 199 209 216
0.364826 0.0657158 1.136 210 220 227
0.365945 0.0656001 1.134 121 130 139
0.369976 0.066005 1.141 94 103 112
-0.150048 0.0636209 1.071 80 103 173
-0.148385 0.0636209 1.071 78 101 171
-0.146722 0.0636209 1.071 67 97 166
-0.145059 0.0636209 1.071 67 97 166
-0.143395 0.0636209 1.071 59 97 164
-0.141732 0.0636209 1.071 64 102 169
-0.140199 0.0636803 1.072 70 108 175
-0.138664 0.0637397 1.073 69 107 174
-0.137125 0.0637991 1.074 63 103 170
-0.135583 0.0638585 1.075 60 100 167
-0.134038 0.0639179 1.076 66 106 173
-0.13249 0.0639773 1.077 73 113 180
-0.130818 0.0639773 1.077 71 113 180
-0.129265 0.0640367 1.078 72 114 181
-0.127709 0.0640961 1.079 71 113 180
-0.126033 0.0640961 1.079 67 109 176
-0.124358 0.0640961 1.079 68 110 177
-0.122682 0.0640961 1.079 68 110 177
-0.121006 0.0640961 1.079 83 128 194
-0.11933 0.0640961 1.079 94 139 205
-0.117655 0.0640961 1.079 94 141 207
-0.115979 0.0640961 1.079 96 143 209
-0.114303 0.0640961 1.079 98 145 211
-0.112628 0.0640961 1.079 101 148 214
-0.110952 0.0640961 1.079 103 148 214
-0.109276 0.0640961 1.079 105 150 216
-0.1077 0.0641555 1.08 93 129 201
-0.106023 0.0641555 1.08 68 104 176
-0.104346 0.0641555 1.08 0 11 92
-0.102668 0.0641555 1.08 0 20 101
-0.100991 0.0641555 1.08 15 30 112
-0.0993137 0.0641555 1.08 16 31 113
-0.0975461 0.0640961 1.079 27 29 116
-0.0958703 0.0640961 1.079 25 27 114
-0.0941946 0.0640961 1.079 26 29 113
-0.0925189 0.0640961 1.079 31 34 118
-0.0908432 0.0640961 1.079 28 33 117
-0.0891674 0.0640961 1.079 29 34 118
-0.0875728 0.0641555 1.08 28 33 117
-0.0859751 0.0642149 1.081 29 34 118
-0.0844522 0.0643337 1.083 22 28 115
-0.0828467 0.0643931 1.084 14 20 107
-0.0812381 0.0644525 1.085 10 16 103
-0.0796263 0.0645119 1.086 8 14 101
-0.0763234 0.0645713 1.087 7 13 100
-0.0747039 0.0646307 1.088 8 15 99
-0.0730813 0.0646901 1.089 8 15 99
-0.07139 0.0646901 1.089 7 16 102
-0.0696988 0.0646901 1.089 4 13 99
-0.06807 0.0647496 1.09 3 14 100
-0.0663772 0.0647496 1.09 10 21 107
-0.0646844 0.0647496 1.09 43 62 144
-0.0629916 0.0647496 1.09 73 92 174
-0.061355 0.064809 1.091 93 117 198
-0.0596606 0.064809 1.091 107 131 212
-0.0579663 0.064809 1.091 101 131 207
-0.0562719 0.064809 1.091 98 128 204
-0.0545775 0.064809 1.091 97 134 204
-0.0528832 0.064809 1.091 99 136 206
-0.0512357 0.0648684 1.092 100 140 207
-0.0495398 0.0648684 1.092 103 143 210
-0.0478439 0.0648684 1.092 100 146 215
-0.0461903 0.0649278 1.093 98 144 213
-0.0444928 0.0649278 1.093 96 146 211
-0.0427953 0.0649278 1.093 96 146 211
-0.0410979 0.0649278 1.093 94 145 213
-0.0394004 0.0649278 1.093 92 143 211
-0.0377029 0.0649278 1.093 86 137 205
-0.0360055 0.0649278 1.093 87 138 206
-0.034308 0.0649278 1.093 106 156 221
-0.0325807 0.0648684 1.092 109 159 224
-0.0308848 0.0648684 1.092 102 149 208
-0.0291889 0.0648684 1.092 78 125 184
-0.027493 0.0648684 1.092 80 126 188
-0.0257971 0.0648684 1.092 92 138 200
-0.0241011 0.0648684 1.092 69 115 177
-0.0224052 0.0648684 1.092 65 111 173
-0.0207283 0.0649278 1.093 71 115 184
-0.0173492 0.0649872 1.094 90 136 205
-0.0156645 0.0650466 1.095 84 130 199
-0.0139639 0.0650466 1.095 103 153 218
-0.0122745 0.065106 1.096 129 179 244
-0.0105821 0.0651654 1.097 119 173 238
-0.00887839 0.0651654 1.097 98 152 217
-0.00718125 0.0652248 1.098 93 147 212
-0.00547602 0.0652248 1.098 93 147 212
-0.00377078 0.0652248 1.098 116 168 233
-0.00206743 0.0652842 1.099 130 182 247
-0.000360978 0.0653436 1.1 137 193 251
0.00134736 0.0653436 1.1 137 193 251
0.0030557 0.0653436 1.1 127 186 237
0.00476837 0.065403 1.101 106 165 216
0.00647826 0.065403 1.101 93 149 202
0.00818815 0.065403 1.101 79 135 188
0.00990703 0.0654624 1.102 63 124 176
0.0116185 0.0654624 1.102 57 118 170
0.0133299 0.0654624 1.102 64 130 181
0.0150414 0.0654624 1.102 69 135 186
0.0167528 0.0654624 1.102 63 128 182
0.0184642 0.0654624 1.102 56 121 175
0.0201574 0.065403 1.101 51 118 172
0.0218673 0.065403 1.101 49 116 170
0.0235772 0.065403 1.101 49 116 170
0.0252871 0.065403 1.101 48 115 169
0.0269969 0.065403 1.101 52 120 176
0.0287068 0.065403 1.101 56 124 180
0.0304167 0.065403 1.101 79 150 205
0.0321558 0.0654624 1.102 108 179 234
0.033898 0.0655218 1.103 118 189 244
0.035611 0.0655218 1.103 122 193 248
0.0373578 0.0655812 1.104 122 195 250
0.0391077 0.0656406 1.105 125 198 253
0.0408238 0.0656406 1.105 122 195 250
0.0425399 0.0656406 1.105 118 191 246
0.0442961 0.0657 1.106 90 161 216
0.0460138 0.0657 1.106 79 150 205
0.0477314 0.0657 1.106 88 156 212
0.0494938 0.0657594 1.107 94 162 218
0.0512592 0.0658188 1.108 97 159 214
0.05298 0.0658188 1.108 102 164 219
0.0547501 0.0658782 1.109 140 195 246
0.0565234 0.0659376 1.11 153 208 255
0.0582997 0.065997 1.111 151 198 249
0.0600792 0.0660564 1.112 124 171 222
0.0619173 0.0661752 1.114 109 151 198
0.0637045 0.0662346 1.115 95 137 184
0.0656122 0.0664128 1.118 95 135 182
0.0675895 0.0666505 1.122 100 140 187
0.0695174 0.0668287 1.125 93 128 176
0.0715179 0.0670663 1.129 48 83 131
0.0735309 0.0673039 1.133 54 82 124
0.0773901 0.0676009 1.138 35 60 89
0.0795052 0.0678979 1.143 0 18 47
0.0816359 0.0681949 1.148 9 29 41
0.0838548 0.0685514 1.154 9 29 41
0.0859438 0.068789 1.158 19 38 32
0.0880453 0.0690266 1.162 25 44 38
0.0900819 0.0692048 1.165 28 46 31
0.0921278 0.069383 1.168 29 47 32
0.0941026 0.0695018 1.17 31 49 27
0.0979873 0.06968 1.173 32 50 28
0.0998941 0.0697394 1.174 32 50 28
0.101804 0.0697988 1.175 32 50 28
0.103805 0.0699176 1.177 35 53 31
0.105723 0.069977 1.178 36 52 30
0.107644 0.0700364 1.179 36 52 30
0.109568 0.0700958 1.18 36 52 30
0.111589 0.0702147 1.182 34 50 28
0.113425 0.0702147 1.182 34 50 28
0.11526 0.0702147 1.182 34 50 28
0.117096 0.0702147 1.182 34 50 28
0.119032 0.0702741 1.183 34 50 28
0.121074 0.0703929 1.185 34 50 28
0.122914 0.0703929 1.185 34 50 28
0.124965 0.0705117 1.187 36 52 30
0.126915 0.0705711 1.188 38 54 32
0.128869 0.0706305 1.189 33 49 27
0.130825 0.0706899 1.19 34 50 28
0.132896 0.0708087 1.192 36 52 30
0.134748 0.0708087 1.192 36 52 30
0.136599 0.0708087 1.192 36 52 30
0.13845 0.0708087 1.192 36 52 30
0.140301 0.0708087 1.192 36 52 30
0.142153 0.0708087 1.192 36 52 30
0.144004 0.0708087 1.192 36 52 30
0.145855 0.0708087 1.192 34 50 28
0.147706 0.0708087 1.192 36 52 30
0.149557 0.0708087 1.192 34 50 28
0.151282 0.0707493 1.191 38 55 30
0.153131 0.0707493 1.191 38 55 30
0.154851 0.0706899 1.19 40 57 32
0.156699 0.0706899 1.19 37 54 29
0.158547 0.0706899 1.19 40 58 31
0.160395 0.0706899 1.19 40 58 31
0.162243 0.0706899 1.19 39 57 30
0.164091 0.0706899 1.19 40 58 31
0.1658 0.0706305 1.189 39 57 28
0.167647 0.0706305 1.189 39 57 28
0.169493 0.0706305 1.189 40 58 29
0.171196 0.0705711 1.188 43 61 32
0.173041 0.0705711 1.188 43 62 30
0.174738 0.0705117 1.187 43 62 30
0.176582 0.0705117 1.187 43 62 30
0.178425 0.0705117 1.187 46 65 33
0.180269 0.0705117 1.187 46 65 33
0.182112 0.0705117 1.187 46 65 33
0.183956 0.0705117 1.187 47 67 33
0.185799 0.0705117 1.187 47 67 33
0.187643 0.0705117 1.187 47 67 33
0.189486 0.0705117 1.187 48 68 34
0.191329 0.0705117 1.187 52 70 34
0.193173 0.0705117 1.187 53 71 35
0.195016 0.0705117 1.187 53 72 34
0.19686 0.0705117 1.187 52 71 33
0.198703 0.0705117 1.187 53 72 32
0.200547 0.0705117 1.187 54 73 33
0.20239 0.0705117 1.187 53 73 30
0.204234 0.0705117 1.187 54 74 31
0.206077 0.0705117 1.187 60 80 37
0.20792 0.0705117 1.187 66 86 43
0.209941 0.0705711 1.188 63 83 40
0.211786 0.0705711 1.188 64 84 41
0.213631 0.0705711 1.188 64 87 43
0.215476 0.0705711 1.188 65 88 44
0.217321 0.0705711 1.188 66 88 47
0.21935 0.0706305 1.189 67 89 48
0.221197 0.0706305 1.189 67 89 48
0.223043 0.0706305 1.189 68 90 49
0.22489 0.0706305 1.189 69 91 52
0.226736 0.0706305 1.189 62 84 45
0.228775 0.0706899 1.19 65 87 48
0.230623 0.0706899 1.19 65 87 48
0.232471 0.0706899 1.19 66 88 49
0.23432 0.0706899 1.19 58 80 41
0.236168 0.0706899 1.19 59 81 42
0.237816 0.0706305 1.189 57 79 40
0.239461 0.0705711 1.188 53 74 37
0.241306 0.0705711 1.188 53 74 37
0.242946 0.0705117 1.187 53 73 39
0.244583 0.0704523 1.186 44 64 30
0.246217 0.0703929 1.185 47 63 32
0.247848 0.0703335 1.184 45 61 30
0.249476 0.0702741 1.183 45 61 30
0.251314 0.0702741 1.183 43 59 28
0.253151 0.0702741 1.183 42 57 29
0.254773 0.0702147 1.182 42 57 29
0.256825 0.0702741 1.183 42 57 29
0.258663 0.0702741 1.183 42 57 29
0.2605 0.0702741 1.183 42 57 29
0.262559 0.0703335 1.184 41 56 28
0.264398 0.0703335 1.184 41 56 28
0.268302 0.0703929 1.185 39 54 28
0.270142 0.0703929 1.185 39 54 28
0.272441 0.0705117 1.187 40 58 31
0.274285 0.0705117 1.187 41 59 32
0.276361 0.0705711 1.188 40 58 29
0.27844 0.0706305 1.189 39 57 28
0.280522 0.0706899 1.19 39 57 28
0.282608 0.0707493 1.191 39 57 28
0.284457 0.0707493 1.191 39 58 26
0.286307 0.0707493 1.191 40 59 27
0.288157 0.0707493 1.191 39 58 26
0.290006 0.0707493 1.191 39 58 26
0.291611 0.0706899 1.19 39 58 26
0.293459 0.0706899 1.19 39 58 26
0.295307 0.0706899 1.19 40 59 27
0.296906 0.0706305 1.189 41 60 28
0.298501 0.0705711 1.188 41 60 28
0.300093 0.0705117 1.187 40 59 27
0.301937 0.0705117 1.187 40 59 27
0.30378 0.0705117 1.187 39 58 26
0.305623 0.0705117 1.187 41 60 28
0.307467 0.0705117 1.187 40 59 27
0.30931 0.0705117 1.187 41 61 27
0.311154 0.0705117 1.187 41 61 27
0.312997 0.0705117 1.187 41 61 27
0.314841 0.0705117 1.187 43 63 29
0.316684 0.0705117 1.187 43 63 29
0.320641 0.0705711 1.188 47 67 33
0.322486 0.0705711 1.188 54 74 40
0.324331 0.0705711 1.188 53 73 39
0.32645 0.0706305 1.189 53 73 39
0.328297 0.0706305 1.189 54 74 40
0.330421 0.0706899 1.19 55 75 41
0.332269 0.0706899 1.19 60 81 44
0.334117 0.0706899 1.19 62 83 46
0.335966 0.0706899 1.19 62 83 46
0.337814 0.0706899 1.19 62 83 46
0.339662 0.0706899 1.19 60 81 44
0.34151 0.0706899 1.19 59 80 43
0.343358 0.0706899 1.19 60 81 44
0.345206 0.0706899 1.19 60 81 44
0.347054 0.0706899 1.19 61 81 47
0.348902 0.0706899 1.19 60 80 46
0.35075 0.0706899 1.19 60 80 46
0.352302 0.0706305 1.189 60 80 46
0.353851 0.0705711 1.188 62 82 48
0.355397 0.0705117 1.187 55 75 41
0.356939 0.0704523 1.186 57 76 44
0.358478 0.0703929 1.185 61 80 48
0.360015 0.0703335 1.184 107 123 92
0.361242 0.0702147 1.182 78 94 63
0.362464 0.0700958 1.18 72 87 59
0.363061 0.0698582 1.176 79 94 66
0.363647 0.0696206 1.172 52 68 46
0.363596 0.0692642 1.166 39 55 33
0.361646 0.0685514 1.154 64 74 62
0.361234 0.0681355 1.147 176 186 174
0.361432 0.0678385 1.142 190 200 207
0.362252 0.0676603 1.139 178 188 195
0.363382 0.0675415 1.137 199 209 216
0.364505 0.0674227 1.135 210 220 227
0.365945 0.0673633 1.134 117 129 137
0.369976 0.0677791 1.141 95 107 115
-0.149908 0.0652252 1.07 88 111 181
-0.148385 0.0652862 1.071 87 110 180
-0.146722 0.0652862 1.071 82 115 182
-0.145059 0.0652862 1.071 82 115 182
-0.143395 0.0652862 1.071 77 115 181
-0.141732 0.0652862 1.071 82 120 186
-0.140199 0.0653471 1.072 82 122 188
-0.138664 0.0654081 1.073 81 121 187
-0.136997 0.0654081 1.073 80 120 186
-0.135583 0.06553 1.075 82 122 188
-0.133914 0.06553 1.075 85 127 193
-0.132367 0.065591 1.076 85 127 193
-0.130818 0.0656519 1.077 86 128 194
-0.129145 0.0656519 1.077 86 128 194
-0.127472 0.0656519 1.077 85 127 193
-0.125917 0.0657129 1.078 87 129 195
-0.124242 0.0657129 1.078 92 134 200
-0.122568 0.0657129 1.078 98 140 206
