ply
format ascii 1.0
comment Created by Open3D
element vertex 1366
property double x
property double y
property double z
property uchar red
property uchar green
property uchar blue
end_header
-0.151553 -0.215563 1.187 30 50 23
-0.149961 -0.215926 1.189 30 50 23
-0.148364 -0.216289 1.191 30 50 21
-0.146637 -0.216471 1.192 32 52 23
-0.14515 -0.217016 1.195 32 52 23
-0.143414 -0.217197 1.196 35 55 26
-0.141675 -0.217379 1.197 35 55 26
-0.140167 -0.217924 1.2 35 55 26
-0.138303 -0.217924 1.2 32 52 23
-0.136667 -0.218287 1.202 32 52 23
-0.134912 -0.218469 1.203 32 52 23
-0.133044 -0.218469 1.203 34 54 25
-0.131176 -0.218469 1.203 34 54 25
-0.129307 -0.218469 1.203 34 54 25
-0.127333 -0.218287 1.202 34 54 25
-0.125258 -0.217924 1.2 34 54 25
-0.123291 -0.217742 1.199 34 54 25
-0.121227 -0.217379 1.197 34 54 25
-0.119068 -0.216834 1.194 35 55 28
-0.11692 -0.216289 1.191 34 54 27
-0.11478 -0.215744 1.188 34 52 25
-0.112175 -0.214292 1.18 37 55 28
-0.109968 -0.213565 1.176 36 53 28
-0.107774 -0.212839 1.172 30 47 22
-0.105592 -0.212112 1.168 24 40 18
-0.103423 -0.211386 1.164 18 34 12
-0.101353 -0.210841 1.161 13 28 15
-0.0992928 -0.210296 1.158 16 31 18
-0.097326 -0.209933 1.156 0 19 21
-0.0952827 -0.209388 1.153 20 41 43
-0.0931677 -0.208662 1.149 103 128 145
-0.0912242 -0.208299 1.147 109 134 151
-0.0893649 -0.208117 1.146 77 104 137
-0.0875087 -0.207936 1.145 58 85 118
-0.0855807 -0.207572 1.143 59 85 125
-0.0837323 -0.207391 1.142 66 92 132
-0.0818152 -0.207028 1.14 75 100 143
-0.0799745 -0.206846 1.139 72 97 140
-0.078137 -0.206664 1.138 62 87 132
-0.0763025 -0.206483 1.137 59 84 129
-0.0744712 -0.206301 1.136 59 83 130
-0.0726429 -0.20612 1.135 67 91 138
-0.0708178 -0.205938 1.134 72 96 143
-0.0689957 -0.205756 1.133 73 97 144
-0.0671768 -0.205575 1.132 79 98 139
-0.0653032 -0.205212 1.13 62 81 122
-0.063492 -0.20503 1.129 79 86 116
-0.0616293 -0.204667 1.127 106 113 143
-0.0597727 -0.204303 1.125 181 187 201
-0.0579224 -0.20394 1.123 173 179 193
-0.0560783 -0.203577 1.121 155 159 164
-0.0542889 -0.203395 1.12 187 191 196
-0.0525495 -0.203395 1.12 163 167 166
-0.0507194 -0.203032 1.118 168 172 171
-0.0489831 -0.203032 1.118 183 187 186
-0.0472468 -0.203032 1.118 163 167 166
-0.0455105 -0.203032 1.118 179 183 183
-0.0438133 -0.203214 1.119 191 195 195
-0.0421131 -0.203395 1.12 189 193 193
-0.0403737 -0.203395 1.12 180 184 184
-0.0386343 -0.203395 1.12 185 187 192
-0.0368949 -0.203395 1.12 185 187 192
-0.0351555 -0.203395 1.12 137 133 144
-0.0333863 -0.203214 1.119 116 112 123
-0.0316484 -0.203214 1.119 112 111 126
-0.0299106 -0.203214 1.119 128 127 142
-0.0281476 -0.203032 1.118 142 141 156
-0.026364 -0.202669 1.116 123 122 137
-0.0246088 -0.202487 1.115 109 108 123
-0.0228361 -0.202124 1.113 115 114 129
-0.0210507 -0.201579 1.11 130 126 137
-0.0193094 -0.201398 1.109 153 149 160
-0.0175712 -0.201216 1.108 173 170 179
-0.0158362 -0.201035 1.107 188 185 194
-0.0141297 -0.201216 1.108 203 200 209
-0.0124089 -0.201216 1.108 202 199 208
-0.0107075 -0.201579 1.11 199 196 205
-0.00899169 -0.201761 1.111 181 178 187
-0.00727935 -0.202124 1.113 199 196 205
-0.00556579 -0.202669 1.116 215 212 221
-0.00383947 -0.203032 1.118 213 210 219
-0.00210318 -0.203032 1.118 185 182 191
-0.000367213 -0.203214 1.119 183 180 189
0.00136941 -0.203032 1.118 201 198 207
0.00310292 -0.202851 1.117 196 193 202
0.00483333 -0.202669 1.116 189 186 195
0.00656652 -0.202669 1.116 194 191 211
0.0082997 -0.202669 1.116 211 208 228
0.0100329 -0.202669 1.116 158 156 199
0.0117555 -0.202487 1.115 94 92 135
0.0134872 -0.202487 1.115 72 72 142
0.0152051 -0.202306 1.114 77 77 147
0.0169504 -0.202487 1.115 83 85 172
0.0186821 -0.202487 1.115 92 94 181
0.0204137 -0.202487 1.115 85 90 188
0.0221255 -0.202306 1.114 56 61 159
0.0238555 -0.202306 1.114 27 34 132
0.0255627 -0.202124 1.113 56 63 161
0.0272912 -0.202124 1.113 101 108 213
0.0290197 -0.202124 1.113 82 89 194
0.0307482 -0.202124 1.113 41 54 148
0.0324768 -0.202124 1.113 55 68 162
0.0341746 -0.201943 1.112 72 85 178
0.0359015 -0.201943 1.112 71 84 177
0.0375947 -0.201761 1.111 76 89 182
0.0393201 -0.201761 1.111 79 92 185
0.0410455 -0.201761 1.111 82 93 187
0.0427709 -0.201761 1.111 79 90 184
0.0445364 -0.201943 1.112 77 83 178
0.0463466 -0.202306 1.114 53 59 154
0.0481198 -0.202487 1.115 35 40 129
0.0498962 -0.202669 1.116 38 43 132
0.0666184 -0.211749 1.166 23 46 28
0.0724216 -0.212839 1.172 27 52 24
0.0743685 -0.213202 1.174 25 50 22
0.0762566 -0.213384 1.175 24 49 21
0.0784802 -0.214473 1.181 24 49 21
0.0804503 -0.214836 1.183 26 48 21
0.0824267 -0.2152 1.185 27 49 22
0.0841959 -0.215018 1.184 26 48 21
0.0861074 -0.2152 1.185 26 48 21
0.0878735 -0.215018 1.184 26 48 19
0.0897123 -0.215018 1.184 25 47 18
0.0915511 -0.215018 1.184 19 42 10
0.0933899 -0.215018 1.184 27 50 18
0.0951482 -0.214836 1.183 27 51 17
0.0969855 -0.214836 1.183 28 52 18
0.0988227 -0.214836 1.183 29 53 19
0.100745 -0.215018 1.184 28 52 18
0.10267 -0.2152 1.185 27 51 17
0.104511 -0.2152 1.185 27 51 17
0.106441 -0.215381 1.186 26 50 16
0.108283 -0.215381 1.186 26 50 16
0.11031 -0.215744 1.188 26 50 16
0.112344 -0.216108 1.19 26 50 16
0.114288 -0.216289 1.191 28 50 16
0.116235 -0.216471 1.192 29 51 17
0.118285 -0.216834 1.194 29 51 17
0.120139 -0.216834 1.194 30 52 18
0.121993 -0.216834 1.194 29 50 18
0.123952 -0.217016 1.195 30 51 19
0.125807 -0.217016 1.195 31 52 20
0.127663 -0.217016 1.195 31 52 20
0.129519 -0.217016 1.195 32 53 21
0.131265 -0.216834 1.194 30 51 19
0.133119 -0.216834 1.194 30 51 19
0.134974 -0.216834 1.194 29 50 18
0.136713 -0.216653 1.193 28 49 17
0.138566 -0.216653 1.193 29 50 18
0.140537 -0.216834 1.194 31 52 20
0.142391 -0.216834 1.194 32 53 21
0.144125 -0.216653 1.193 32 53 21
0.145977 -0.216653 1.193 31 52 20
0.147954 -0.216834 1.194 30 51 19
0.149808 -0.216834 1.194 30 51 19
0.151663 -0.216834 1.194 31 52 20
0.153517 -0.216834 1.194 31 52 20
0.155371 -0.216834 1.194 30 51 19
0.157226 -0.216834 1.194 30 51 19
0.158947 -0.216653 1.193 31 52 20
0.160799 -0.216653 1.193 31 52 20
0.162516 -0.216471 1.192 34 55 23
0.164367 -0.216471 1.192 34 55 23
0.166079 -0.216289 1.191 35 56 24
0.167929 -0.216289 1.191 34 55 23
0.169778 -0.216289 1.191 35 56 24
0.171628 -0.216289 1.191 35 56 24
0.173478 -0.216289 1.191 37 58 26
0.17518 -0.216108 1.19 36 57 25
0.177028 -0.216108 1.19 36 57 25
0.178876 -0.216108 1.19 35 56 24
0.180724 -0.216108 1.19 35 56 24
0.182572 -0.216108 1.19 34 55 23
0.184421 -0.216108 1.19 32 53 21
0.186269 -0.216108 1.19 32 53 21
0.188117 -0.216108 1.19 31 52 20
0.189965 -0.216108 1.19 32 53 21
0.191813 -0.216108 1.19 32 53 21
0.193661 -0.216108 1.19 34 55 23
0.195509 -0.216108 1.19 35 56 24
0.197357 -0.216108 1.19 34 55 23
0.199205 -0.216108 1.19 35 56 24
0.201054 -0.216108 1.19 34 55 23
0.203072 -0.216289 1.191 37 58 26
0.204922 -0.216289 1.191 37 58 26
0.206771 -0.216289 1.191 35 56 24
0.208621 -0.216289 1.191 35 56 24
0.210648 -0.216471 1.192 36 57 25
0.212499 -0.216471 1.192 35 56 24
0.21435 -0.216471 1.192 35 56 24
0.216201 -0.216471 1.192 34 55 23
0.218235 -0.216653 1.193 34 55 23
0.220088 -0.216653 1.193 32 53 21
0.221941 -0.216653 1.193 34 55 23
0.223794 -0.216653 1.193 30 51 19
0.225646 -0.216653 1.193 31 52 20
0.227499 -0.216653 1.193 30 51 19
0.229352 -0.216653 1.193 30 51 19
0.231205 -0.216653 1.193 29 50 18
0.233057 -0.216653 1.193 28 49 17
0.23491 -0.216653 1.193 27 48 16
0.236763 -0.216653 1.193 30 49 17
0.238616 -0.216653 1.193 27 46 14
0.240469 -0.216653 1.193 25 43 14
0.242321 -0.216653 1.193 25 43 14
0.243969 -0.216471 1.192 23 41 12
0.245821 -0.216471 1.192 23 41 12
0.247672 -0.216471 1.192 22 40 13
0.249732 -0.216653 1.193 19 37 10
0.251585 -0.216653 1.193 20 37 12
0.253438 -0.216653 1.193 16 33 8
0.255077 -0.216471 1.192 16 33 8
0.256928 -0.216471 1.192 16 33 8
0.258779 -0.216471 1.192 17 34 9
0.26063 -0.216471 1.192 17 34 9
0.262482 -0.216471 1.192 17 34 9
0.264111 -0.216289 1.191 16 33 8
0.265961 -0.216289 1.191 16 33 8
0.267586 -0.216108 1.19 16 33 8
0.269207 -0.215926 1.189 15 31 9
0.270826 -0.215744 1.188 17 33 11
0.272441 -0.215563 1.187 18 34 12
0.274285 -0.215563 1.187 18 34 12
0.276128 -0.215563 1.187 19 35 13
0.277972 -0.215563 1.187 18 34 12
0.279579 -0.215381 1.186 18 34 12
0.281421 -0.215381 1.186 17 33 11
0.283024 -0.2152 1.185 17 33 11
0.284865 -0.2152 1.185 18 34 12
0.286705 -0.2152 1.185 16 34 12
0.288302 -0.215018 1.184 17 35 13
0.290141 -0.215018 1.184 17 34 14
0.291733 -0.214836 1.183 16 33 13
0.29357 -0.214836 1.183 15 32 12
0.295407 -0.214836 1.183 16 33 13
0.297245 -0.214836 1.183 15 32 12
0.299082 -0.214836 1.183 15 32 12
0.300919 -0.214836 1.183 14 31 11
0.302756 -0.214836 1.183 15 32 12
0.304594 -0.214836 1.183 15 32 12
0.306431 -0.214836 1.183 16 33 13
0.308529 -0.215018 1.184 16 33 13
0.310629 -0.2152 1.185 15 32 12
0.31247 -0.2152 1.185 14 31 11
0.31431 -0.2152 1.185 16 33 13
0.316151 -0.2152 1.185 16 33 13
0.318259 -0.215381 1.186 17 34 14
0.320371 -0.215563 1.187 17 34 14
0.322214 -0.215563 1.187 16 33 13
0.324058 -0.215563 1.187 16 33 13
0.32645 -0.215926 1.189 17 34 14
0.328573 -0.216108 1.19 18 35 15
0.330144 -0.215926 1.189 16 33 13
0.33199 -0.215926 1.189 17 34 14
0.333837 -0.215926 1.189 20 37 17
0.335683 -0.215926 1.189 18 35 15
0.337246 -0.215744 1.188 18 35 15
0.338806 -0.215563 1.187 20 37 17
0.340649 -0.215563 1.187 20 37 17
0.342204 -0.215381 1.186 21 38 18
0.343756 -0.2152 1.185 20 37 17
0.345596 -0.2152 1.185 20 37 17
0.347436 -0.2152 1.185 20 37 17
0.348982 -0.215018 1.184 17 34 14
0.350821 -0.215018 1.184 17 34 14
0.352064 -0.214655 1.182 17 34 14
0.3539 -0.214655 1.182 18 35 15
0.355434 -0.214473 1.181 18 34 17
0.356966 -0.214292 1.18 20 36 19
0.358798 -0.214292 1.18 18 34 19
0.36002 -0.213928 1.178 10 26 11
0.361849 -0.213928 1.178 9 22 14
0.362753 -0.213384 1.175 42 55 47
0.364267 -0.213202 1.174 22 34 29
0.365155 -0.212657 1.171 8 20 15
0.366347 -0.212294 1.169 13 25 20
0.367847 -0.212112 1.168 9 21 16
0.365863 -0.209933 1.156 11 21 23
0.366068 -0.209025 1.151 77 87 89
0.366111 -0.207028 1.14 85 95 97
0.366591 -0.206301 1.136 88 98 100
0.367058 -0.205575 1.132 91 101 103
-0.163071 -0.211917 1.177 29 46 21
-0.161517 -0.212277 1.179 27 45 23
-0.159822 -0.212457 1.18 27 45 23
-0.158123 -0.212637 1.181 28 47 22
-0.156421 -0.212817 1.182 28 47 22
-0.154847 -0.213177 1.184 29 48 23
-0.153138 -0.213357 1.185 30 49 24
-0.151553 -0.213717 1.187 30 50 23
-0.149835 -0.213897 1.188 29 49 22
-0.148239 -0.214257 1.19 31 51 22
-0.146637 -0.214617 1.192 35 55 26
-0.145029 -0.214978 1.194 34 54 25
-0.143414 -0.215338 1.196 35 55 26
-0.141675 -0.215518 1.197 35 55 26
-0.14005 -0.215878 1.199 36 56 27
-0.138303 -0.216058 1.2 35 55 26
-0.136553 -0.216238 1.201 34 54 25
-0.134912 -0.216598 1.203 34 54 25
-0.133044 -0.216598 1.203 34 54 25
-0.131176 -0.216598 1.203 35 55 26
-0.129307 -0.216598 1.203 36 56 27
-0.127439 -0.216598 1.203 35 55 26
-0.125362 -0.216238 1.201 36 56 27
-0.123291 -0.215878 1.199 35 55 26
-0.121227 -0.215518 1.197 35 55 26
-0.119068 -0.214978 1.194 34 54 25
-0.11692 -0.214437 1.191 34 54 25
-0.11478 -0.213897 1.188 39 57 30
-0.112365 -0.212817 1.182 40 58 31
-0.110155 -0.212097 1.178 39 57 30
-0.10805 -0.211557 1.175 37 55 28
-0.105863 -0.210836 1.171 38 55 30
-0.103778 -0.210296 1.168 38 55 30
-0.10179 -0.209936 1.166 33 48 28
-0.0997215 -0.209396 1.163 27 42 22
-0.0976627 -0.208856 1.16 16 30 25
-0.0956959 -0.208496 1.158 12 26 21
-0.0937353 -0.208136 1.156 75 97 102
-0.091781 -0.207776 1.154 122 144 149
-0.0898328 -0.207416 1.152 105 132 156
-0.0878144 -0.206875 1.149 50 77 101
-0.0858802 -0.206515 1.147 49 78 109
-0.0840256 -0.206335 1.146 62 91 122
-0.082174 -0.206155 1.145 74 101 139
-0.0803256 -0.205975 1.144 74 101 139
-0.0785489 -0.205975 1.144 73 100 138
-0.0767052 -0.205795 1.143 68 95 133
-0.0748645 -0.205615 1.142 68 94 134
-0.0730909 -0.205615 1.142 67 93 133
-0.0713174 -0.205615 1.142 73 99 139
-0.069422 -0.205255 1.14 75 101 141
-0.0676515 -0.205255 1.14 78 101 137
-0.0657655 -0.204895 1.138 72 95 131
-0.0639419 -0.204715 1.137 79 91 120
-0.0601447 -0.203815 1.132 175 183 197
-0.0582835 -0.203454 1.13 190 198 212
-0.0564785 -0.203274 1.129 188 196 198
-0.0546282 -0.202914 1.127 186 194 196
-0.052831 -0.202734 1.126 175 181 180
-0.0510369 -0.202554 1.125 164 170 169
-0.0492459 -0.202374 1.124 176 182 181
-0.0474581 -0.202194 1.123 163 169 168
-0.045714 -0.202194 1.123 162 166 165
-0.04397 -0.202194 1.123 194 198 197
-0.0422635 -0.202374 1.124 191 194 197
-0.0405539 -0.202554 1.125 190 193 196
-0.0388068 -0.202554 1.125 185 188 196
-0.0370596 -0.202554 1.125 181 184 192
-0.0353124 -0.202554 1.125 147 147 159
-0.0335653 -0.202554 1.125 111 111 123
-0.0318181 -0.202554 1.125 104 103 118
-0.030071 -0.202554 1.125 102 101 116
-0.0282734 -0.202194 1.123 111 106 122
-0.0265058 -0.202014 1.122 116 111 127
-0.0247412 -0.201834 1.121 115 115 127
-0.0229387 -0.201294 1.118 119 119 131
-0.0211645 -0.200934 1.116 162 158 171
-0.0194139 -0.200754 1.115 193 189 202
-0.0176664 -0.200574 1.114 188 184 195
-0.015922 -0.200394 1.113 179 175 186
-0.0141935 -0.200394 1.113 195 192 201
-0.0124649 -0.200394 1.113 202 199 208
-0.0107364 -0.200394 1.113 192 193 201
-0.00902407 -0.200754 1.115 179 180 188
-0.00730551 -0.201114 1.117 185 182 191
-0.00558075 -0.201474 1.119 211 208 217
-0.00384977 -0.201834 1.121 208 209 217
-0.00210882 -0.201834 1.121 173 174 182
-0.000368526 -0.202194 1.123 179 180 188
0.00137431 -0.202014 1.122 194 195 203
0.00311681 -0.202014 1.122 194 195 203
0.00485932 -0.202014 1.122 184 185 193
0.0066077 -0.202194 1.123 191 191 203
0.00835176 -0.202194 1.123 208 208 220
0.0100958 -0.202194 1.123 176 177 210
0.0118399 -0.202194 1.123 69 70 103
0.0135839 -0.202194 1.123 66 71 126
0.0153007 -0.201834 1.121 56 61 116
0.0170568 -0.202014 1.122 42 52 134
0.0187993 -0.202014 1.122 42 52 134
0.0205419 -0.202014 1.122 25 42 138
0.0222645 -0.201834 1.121 19 36 132
0.0240054 -0.201834 1.121 19 35 133
0.0257234 -0.201654 1.12 22 38 136
0.0274628 -0.201654 1.12 27 41 138
0.0292022 -0.201654 1.12 32 46 143
0.0309416 -0.201654 1.12 36 51 144
0.0326518 -0.201474 1.119 41 56 149
0.0343897 -0.201474 1.119 48 64 154
0.0360952 -0.201294 1.118 54 70 160
0.0378315 -0.201294 1.118 55 71 161
0.0395324 -0.201114 1.117 54 70 160
0.0413041 -0.201294 1.118 47 63 153
0.0430404 -0.201294 1.118 40 56 146
0.0448568 -0.201654 1.12 32 47 134
0.0466378 -0.201834 1.121 22 37 124
0.0485082 -0.202374 1.124 27 41 111
0.050388 -0.202914 1.127 33 47 117
0.052277 -0.203454 1.13 74 90 136
0.0542232 -0.204175 1.134 37 53 99
0.0621322 -0.207055 1.15 22 47 37
0.0645296 -0.209036 1.161 25 49 28
0.0667898 -0.210476 1.169 22 46 25
0.0725452 -0.211377 1.174 26 51 23
0.0744318 -0.211557 1.175 24 49 21
0.0764513 -0.212097 1.178 25 50 22
0.0786131 -0.212997 1.183 25 50 22
0.0805863 -0.213357 1.185 28 50 23
0.0824267 -0.213357 1.185 28 50 23
0.0843381 -0.213537 1.186 27 49 22
0.0861074 -0.213357 1.185 25 47 20
0.0880219 -0.213537 1.186 26 48 19
0.0897881 -0.213357 1.185 23 45 16
0.0916284 -0.213357 1.185 23 46 14
0.0934687 -0.213357 1.185 28 51 19
0.0953091 -0.213357 1.185 28 52 18
0.0971494 -0.213357 1.185 28 52 18
0.0989062 -0.213177 1.184 28 52 18
0.10083 -0.213357 1.185 28 52 18
0.10267 -0.213357 1.185 27 51 17
0.104599 -0.213537 1.186 27 51 17
0.106531 -0.213717 1.187 27 51 17
0.108465 -0.213897 1.188 28 52 18
0.110496 -0.214257 1.19 28 52 18
0.112439 -0.214437 1.191 28 52 18
0.114384 -0.214617 1.192 28 52 18
0.116431 -0.214978 1.194 29 53 19
0.118384 -0.215158 1.195 29 53 19
0.12024 -0.215158 1.195 29 53 19
0.122096 -0.215158 1.195 28 51 19
0.123952 -0.215158 1.195 28 51 19
0.125807 -0.215158 1.195 29 52 20
0.127556 -0.214978 1.194 29 52 20
0.129411 -0.214978 1.194 31 52 20
0.131155 -0.214798 1.193 31 52 20
0.133008 -0.214798 1.193 30 51 19
0.134748 -0.214617 1.192 31 52 20
0.136599 -0.214617 1.192 30 51 19
0.13845 -0.214617 1.192 30 51 19
0.140301 -0.214617 1.192 30 51 19
0.142153 -0.214617 1.192 30 51 19
0.144004 -0.214617 1.192 31 52 20
0.145855 -0.214617 1.192 30 51 19
0.14783 -0.214798 1.193 30 51 19
0.149683 -0.214798 1.193 30 51 19
0.151663 -0.214978 1.194 31 52 20
0.153517 -0.214978 1.194 32 53 21
0.155371 -0.214978 1.194 32 53 21
0.157226 -0.214978 1.194 32 53 21
0.15908 -0.214978 1.194 31 52 20
0.160799 -0.214798 1.193 31 52 20
0.162516 -0.214617 1.192 34 53 21
0.164367 -0.214617 1.192 36 55 23
0.166218 -0.214617 1.192 37 56 24
0.167929 -0.214437 1.191 37 56 24
0.169778 -0.214437 1.191 37 56 24
0.171628 -0.214437 1.191 37 56 24
0.173478 -0.214437 1.191 38 57 25
0.175327 -0.214437 1.191 37 56 24
0.177028 -0.214257 1.19 37 56 24
0.178876 -0.214257 1.19 36 55 23
0.180724 -0.214257 1.19 36 55 23
0.182572 -0.214257 1.19 34 53 21
0.184421 -0.214257 1.19 34 54 20
0.186269 -0.214257 1.19 34 54 20
0.187959 -0.214077 1.189 34 54 20
0.189805 -0.214077 1.189 34 54 20
0.191652 -0.214077 1.189 36 56 22
0.193498 -0.214077 1.189 36 56 22
0.195509 -0.214257 1.19 37 57 23
0.197357 -0.214257 1.19 36 56 22
0.199205 -0.214257 1.19 36 56 22
0.201054 -0.214257 1.19 34 54 20
0.202902 -0.214257 1.19 39 59 25
0.204922 -0.214437 1.191 38 58 24
0.206771 -0.214437 1.191 37 57 23
0.208621 -0.214437 1.191 38 58 24
0.210648 -0.214617 1.192 35 57 23
0.212499 -0.214617 1.192 32 54 20
0.21453 -0.214798 1.193 34 56 22
0.216383 -0.214798 1.193 32 54 20
0.218418 -0.214978 1.194 32 54 20
0.220273 -0.214978 1.194 32 54 20
0.222127 -0.214978 1.194 32 54 20
0.223981 -0.214978 1.194 30 52 18
0.225836 -0.214978 1.194 31 52 20
0.22769 -0.214978 1.194 28 49 17
0.229352 -0.214798 1.193 29 50 18
0.231205 -0.214798 1.193 30 51 19
0.233057 -0.214798 1.193 28 49 17
0.234713 -0.214617 1.192 27 48 16
0.236565 -0.214617 1.192 27 48 16
0.238416 -0.214617 1.192 24 45 13
0.240267 -0.214617 1.192 25 44 12
0.242118 -0.214617 1.192 25 44 12
0.243969 -0.214617 1.192 24 42 13
0.245821 -0.214617 1.192 24 42 13
0.247672 -0.214617 1.192 24 42 15
0.249523 -0.214617 1.192 16 34 7
0.251374 -0.214617 1.192 18 35 10
0.253226 -0.214617 1.192 16 33 8
0.255077 -0.214617 1.192 16 33 8
0.256928 -0.214617 1.192 16 33 8
0.258562 -0.214437 1.191 17 34 9
0.260412 -0.214437 1.191 17 34 9
0.262261 -0.214437 1.191 17 34 9
0.263889 -0.214257 1.19 18 35 10
0.265737 -0.214257 1.19 18 34 12
0.267586 -0.214257 1.19 18 34 12
0.269207 -0.214077 1.189 16 32 10
0.271054 -0.214077 1.189 16 32 10
0.272671 -0.213897 1.188 17 33 11
0.274516 -0.213897 1.188 17 33 11
0.276128 -0.213717 1.187 18 34 12
0.277972 -0.213717 1.187 19 35 13
0.279815 -0.213717 1.187 18 34 12
0.281659 -0.213717 1.187 18 34 12
0.283263 -0.213537 1.186 16 32 10
0.285105 -0.213537 1.186 18 34 12
0.286705 -0.213357 1.185 18 33 13
0.288545 -0.213357 1.185 18 33 13
0.290386 -0.213357 1.185 18 33 13
0.291979 -0.213177 1.184 19 34 14
0.293818 -0.213177 1.184 17 32 12
0.295407 -0.212997 1.183 17 32 12
0.296993 -0.212817 1.182 17 32 12
0.298829 -0.212817 1.182 16 31 11
0.300665 -0.212817 1.182 17 32 12
0.3025 -0.212817 1.182 18 33 13
0.304594 -0.212997 1.183 18 33 13
0.306172 -0.212817 1.182 18 33 13
0.308007 -0.212817 1.182 18 33 13
0.310105 -0.212997 1.183 18 33 13
0.311942 -0.212997 1.183 17 32 12
0.314045 -0.213177 1.184 18 33 13
0.316151 -0.213357 1.185 18 33 13
0.317991 -0.213357 1.185 19 34 14
0.320101 -0.213537 1.186 19 34 14
0.322214 -0.213717 1.187 19 34 14
0.324058 -0.213717 1.187 16 33 13
0.326176 -0.213897 1.188 17 34 14
0.328021 -0.213897 1.188 17 34 14
0.329866 -0.213897 1.188 15 32 12
0.331711 -0.213897 1.188 17 34 14
0.333556 -0.213897 1.188 20 37 17
0.335401 -0.213897 1.188 20 37 17
0.336962 -0.213717 1.187 18 35 15
0.338806 -0.213717 1.187 20 37 17
0.340649 -0.213717 1.187 21 38 18
0.342204 -0.213537 1.186 21 38 18
0.343756 -0.213357 1.185 20 37 17
0.345596 -0.213357 1.185 20 37 17
0.347436 -0.213357 1.185 20 37 17
0.348982 -0.213177 1.184 18 35 15
0.350821 -0.213177 1.184 20 37 17
0.352064 -0.212817 1.182 18 35 15
0.3539 -0.212817 1.182 18 35 15
0.355434 -0.212637 1.181 18 34 17
0.356966 -0.212457 1.18 18 34 17
0.358798 -0.212457 1.18 18 34 19
0.36002 -0.212097 1.178 11 27 12
0.361849 -0.212097 1.178 8 21 13
0.362753 -0.211557 1.175 42 55 47
0.364267 -0.211377 1.174 24 36 31
0.365155 -0.210836 1.171 7 19 14
0.366033 -0.210296 1.168 9 20 18
0.367532 -0.210116 1.167 7 18 16
0.365863 -0.208136 1.156 15 25 27
0.365432 -0.206875 1.149 77 87 89
0.366111 -0.205255 1.14 79 88 92
0.366591 -0.204535 1.136 89 98 102
0.367058 -0.203815 1.132 91 100 104
-0.16321 -0.210265 1.178 28 47 22
-0.161517 -0.210444 1.179 27 46 21
-0.159822 -0.210622 1.18 28 47 22
-0.158123 -0.210801 1.181 29 48 23
-0.156421 -0.210979 1.182 29 48 23
-0.154716 -0.211158 1.183 30 49 24
-0.153138 -0.211515 1.185 30 49 24
-0.151553 -0.211872 1.187 29 49 22
-0.149835 -0.21205 1.188 29 49 22
-0.148239 -0.212407 1.19 31 51 22
-0.146637 -0.212764 1.192 34 54 25
-0.144908 -0.212943 1.193 32 52 23
-0.143295 -0.2133 1.195 35 55 26
-0.141675 -0.213657 1.197 34 55 23
-0.14005 -0.214014 1.199 35 56 24
-0.138303 -0.214192 1.2 35 56 24
-0.136553 -0.214371 1.201 35 56 24
-0.1348 -0.214549 1.202 34 55 23
-0.133044 -0.214727 1.203 35 56 24
-0.131176 -0.214727 1.203 36 57 25
-0.129307 -0.214727 1.203 36 57 25
-0.127333 -0.214549 1.202 35 56 24
-0.125362 -0.214371 1.201 36 57 25
-0.123291 -0.214014 1.199 36 57 25
-0.121227 -0.213657 1.197 34 55 23
-0.119068 -0.213121 1.194 34 54 25
-0.11692 -0.212586 1.191 34 54 25
-0.114877 -0.212229 1.189 36 54 25
-0.112365 -0.210979 1.182 34 52 23
-0.110342 -0.210622 1.18 33 51 24
-0.108234 -0.210087 1.177 34 52 25
-0.106044 -0.209373 1.173 41 59 32
-0.104045 -0.209016 1.171 40 58 31
-0.102051 -0.208659 1.169 39 56 31
-0.0999787 -0.208123 1.166 36 53 28
-0.0979995 -0.207766 1.164 28 44 34
-0.0960265 -0.207409 1.162 19 35 25
-0.0940597 -0.207052 1.16 17 39 39
-0.0920991 -0.206695 1.158 103 125 125
-0.0901447 -0.206338 1.156 120 149 166
-0.0883494 -0.206338 1.156 101 130 147
-0.0864044 -0.205981 1.154 51 81 104
-0.0843922 -0.205446 1.151 62 92 115
-0.0824611 -0.205089 1.149 67 97 125
-0.0806767 -0.205089 1.149 67 97 125
-0.0788236 -0.20491 1.148 67 96 127
-0.0770407 -0.20491 1.148 66 95 126
-0.0751923 -0.204732 1.147 65 94 127
-0.0734109 -0.204732 1.147 66 95 128
-0.0716296 -0.204732 1.147 67 95 130
-0.0698483 -0.204732 1.147 70 98 133
-0.0680076 -0.204553 1.146 71 98 131
-0.06617 -0.204375 1.145 75 102 135
-0.0643356 -0.204196 1.144 80 97 125
-0.0625042 -0.204018 1.143 77 94 122
-0.060676 -0.203839 1.142 168 179 197
-0.0587477 -0.203304 1.139 188 199 217
-0.0568787 -0.202947 1.137 189 196 200
-0.0550644 -0.202768 1.136 188 195 199
-0.0532064 -0.202411 1.134 189 198 197
-0.0514452 -0.202411 1.134 186 195 194
-0.0495964 -0.202054 1.132 188 194 194
-0.0477539 -0.201697 1.13 175 181 181
-0.045999 -0.201697 1.13 152 158 158
-0.044244 -0.201697 1.13 187 193 193
-0.0424891 -0.201697 1.13 192 197 200
-0.0407342 -0.201697 1.13 188 193 196
-0.0389792 -0.201697 1.13 185 187 197
-0.0372243 -0.201697 1.13 181 183 193
-0.0354694 -0.201697 1.13 157 156 171
-0.0337145 -0.201697 1.13 105 104 119
-0.0319595 -0.201697 1.13 97 96 116
-0.0302046 -0.201697 1.13 96 95 115
-0.0284497 -0.201697 1.13 91 92 107
-0.0266711 -0.201519 1.129 124 125 140
-0.0248957 -0.20134 1.128 167 167 184
-0.0230618 -0.200627 1.124 189 189 206
-0.0212782 -0.20027 1.122 190 190 202
-0.0195009 -0.199913 1.12 186 186 198
-0.0177298 -0.199556 1.118 185 185 195
-0.0159792 -0.199377 1.117 179 179 189
-0.0142317 -0.199199 1.116 180 180 190
-0.0124985 -0.199199 1.116 193 193 203
-0.010775 -0.199377 1.117 186 186 196
-0.00904835 -0.199556 1.118 178 178 188
-0.00732513 -0.199913 1.12 177 177 187
-0.00559571 -0.20027 1.122 206 206 216
-0.00385664 -0.200448 1.123 206 206 216
-0.00211635 -0.200805 1.125 184 184 194
-0.00036951 -0.200984 1.126 180 181 189
0.00137921 -0.200984 1.126 201 202 210
0.0031307 -0.201162 1.127 206 207 215
0.0048853 -0.20134 1.128 185 186 194
0.00663712 -0.20134 1.128 191 192 200
0.00839638 -0.201519 1.129 204 205 213
0.0101498 -0.201519 1.129 189 193 219
0.0119031 -0.201519 1.129 86 90 116
0.0136565 -0.201519 1.129 82 90 136
0.0153962 -0.20134 1.128 97 105 151
0.0171633 -0.201519 1.129 85 101 165
0.0188999 -0.20134 1.128 84 100 164
0.0206517 -0.20134 1.128 70 97 169
0.0223837 -0.201162 1.127 63 90 162
0.0241339 -0.201162 1.127 58 83 160
0.0258612 -0.200984 1.126 52 77 154
0.02761 -0.200984 1.126 45 68 145
0.0293326 -0.200805 1.125 52 75 152
0.0310798 -0.200805 1.125 68 91 168
0.0328269 -0.200805 1.125 74 97 174
0.0345434 -0.200627 1.124 75 98 175
0.0362567 -0.200448 1.123 71 94 171
0.0380007 -0.200448 1.123 68 91 168
0.0397448 -0.200448 1.123 54 77 154
0.0415258 -0.200627 1.124 47 70 147
0.0433099 -0.200805 1.125 45 68 145
0.0451372 -0.201162 1.127 46 65 146
0.0470122 -0.201697 1.13 42 61 142
0.0507009 -0.202411 1.134 72 95 153
0.0526009 -0.202947 1.137 85 106 142
0.0546058 -0.203839 1.142 25 46 82
0.0565274 -0.204375 1.145 13 38 42
0.0584584 -0.20491 1.148 16 41 45
0.0649187 -0.20848 1.168 25 50 27
0.0688987 -0.209551 1.174 25 49 23
0.0727924 -0.210265 1.178 26 51 23
0.0746852 -0.210444 1.179 26 51 23
0.0765811 -0.210622 1.18 26 51 23
0.078746 -0.211515 1.185 26 51 23
0.0807223 -0.211872 1.187 28 50 23
0.0825658 -0.211872 1.187 28 50 23
0.0844092 -0.211872 1.187 28 50 23
0.0862527 -0.211872 1.187 27 49 22
0.0880961 -0.211872 1.187 27 49 22
0.0899396 -0.211872 1.187 27 49 22
0.0917057 -0.211693 1.186 28 50 21
0.0935476 -0.211693 1.186 29 51 22
0.0953895 -0.211693 1.186 28 51 19
0.0971494 -0.211515 1.185 28 51 19
0.0989898 -0.211515 1.185 27 51 17
0.10083 -0.211515 1.185 27 51 17
0.102844 -0.211872 1.187 27 51 17
0.104687 -0.211872 1.187 28 52 18
0.10662 -0.21205 1.188 28 52 18
0.108648 -0.212407 1.19 28 52 18
0.110589 -0.212586 1.191 28 52 18
0.112533 -0.212764 1.192 28 52 18
0.114576 -0.213121 1.194 28 52 18
0.116528 -0.2133 1.195 28 52 18
0.118384 -0.2133 1.195 27 51 17
0.12024 -0.2133 1.195 27 51 17
0.122096 -0.2133 1.195 27 50 18
0.123952 -0.2133 1.195 27 50 18
0.125597 -0.212943 1.193 29 50 18
0.12745 -0.212943 1.193 30 51 19
0.129194 -0.212764 1.192 31 52 20
0.131045 -0.212764 1.192 31 52 20
0.132785 -0.212586 1.191 30 51 19
0.134635 -0.212586 1.191 31 52 20
0.13637 -0.212407 1.19 31 52 20
0.138218 -0.212407 1.19 30 51 19
0.140066 -0.212407 1.19 30 51 19
0.141914 -0.212407 1.19 31 52 20
0.143883 -0.212586 1.191 32 53 21
0.145855 -0.212764 1.192 31 52 20
0.147706 -0.212764 1.192 31 52 20
0.149557 -0.212764 1.192 30 51 19
0.151536 -0.212943 1.193 30 51 19
0.153517 -0.213121 1.194 32 53 21
0.155371 -0.213121 1.194 34 55 23
0.157226 -0.213121 1.194 32 53 21
0.15908 -0.213121 1.194 32 53 21
0.160799 -0.212943 1.193 32 53 21
0.162652 -0.212943 1.193 32 53 21
0.164367 -0.212764 1.192 34 55 23
0.166218 -0.212764 1.192 35 56 24
0.16807 -0.212764 1.192 35 56 24
0.169778 -0.212586 1.191 36 57 25
0.171628 -0.212586 1.191 35 56 24
0.173478 -0.212586 1.191 36 57 25
0.17518 -0.212407 1.19 35 56 24
0.177028 -0.212407 1.19 35 56 24
0.178876 -0.212407 1.19 34 55 23
0.180724 -0.212407 1.19 35 56 24
0.182419 -0.212229 1.189 34 55 23
0.184266 -0.212229 1.189 35 56 24
0.186112 -0.212229 1.189 34 55 23
0.187801 -0.21205 1.188 34 56 22
0.189646 -0.21205 1.188 35 57 23
0.191491 -0.21205 1.188 42 64 30
0.193336 -0.21205 1.188 37 59 25
0.195345 -0.212229 1.189 38 60 26
0.197191 -0.212229 1.189 35 57 23
0.199038 -0.212229 1.189 32 54 20
0.200885 -0.212229 1.189 32 54 20
0.202902 -0.212407 1.19 37 59 25
0.20475 -0.212407 1.19 36 58 24
0.206771 -0.212586 1.191 35 57 23
0.208621 -0.212586 1.191 34 56 22
0.210648 -0.212764 1.192 31 53 19
0.212499 -0.212764 1.192 31 53 19
0.21453 -0.212943 1.193 31 53 19
0.216564 -0.213121 1.194 31 53 19
0.218418 -0.213121 1.194 31 53 19
0.220457 -0.2133 1.195 32 54 20
0.222313 -0.2133 1.195 31 53 19
0.223981 -0.213121 1.194 32 54 20
0.225836 -0.213121 1.194 37 58 26
0.22769 -0.213121 1.194 29 50 18
0.229544 -0.213121 1.194 28 49 17
0.231205 -0.212943 1.193 28 49 17
0.233057 -0.212943 1.193 27 48 16
0.234713 -0.212764 1.192 27 48 16
0.236565 -0.212764 1.192 28 49 17
0.238416 -0.212764 1.192 24 45 13
0.240267 -0.212764 1.192 23 44 12
0.241915 -0.212586 1.191 23 44 12
0.243765 -0.212586 1.191 23 43 14
0.245408 -0.212407 1.19 23 43 14
0.247256 -0.212407 1.19 23 43 16
0.249104 -0.212407 1.19 18 38 11
0.251163 -0.212586 1.191 19 36 11
0.253013 -0.212586 1.191 17 34 9
0.254863 -0.212586 1.191 16 33 8
0.256497 -0.212407 1.19 16 33 8
0.258345 -0.212407 1.19 17 34 9
0.260193 -0.212407 1.19 16 33 8
0.262041 -0.212407 1.19 16 33 8
0.263889 -0.212407 1.19 16 33 8
0.265737 -0.212407 1.19 17 33 11
0.267586 -0.212407 1.19 18 34 12
0.269434 -0.212407 1.19 18 34 12
0.271054 -0.212229 1.189 16 32 10
0.2729 -0.212229 1.189 16 32 10
0.274747 -0.212229 1.189 16 32 10
0.276593 -0.212229 1.189 15 31 9
0.278206 -0.21205 1.188 17 33 11
0.280051 -0.21205 1.188 15 31 9
0.281659 -0.211872 1.187 15 31 9
0.283502 -0.211872 1.187 15 31 9
0.285345 -0.211872 1.187 18 34 12
0.287189 -0.211872 1.187 18 34 12
0.288789 -0.211693 1.186 17 33 11
0.290631 -0.211693 1.186 16 33 13
0.292226 -0.211515 1.185 15 32 12
0.294066 -0.211515 1.185 13 30 10
0.295657 -0.211336 1.184 15 32 12
0.297245 -0.211158 1.183 15 32 12
0.299082 -0.211158 1.183 15 32 12
0.300665 -0.210979 1.182 14 31 11
0.3025 -0.210979 1.182 15 32 12
0.304336 -0.210979 1.182 16 33 13
0.306172 -0.210979 1.182 15 32 12
0.308007 -0.210979 1.182 17 32 12
0.309843 -0.210979 1.182 16 31 11
0.311679 -0.210979 1.182 16 31 11
0.31378 -0.211158 1.183 17 32 12
0.315617 -0.211158 1.183 18 33 13
0.317723 -0.211336 1.184 19 34 14
0.319831 -0.211515 1.185 18 35 15
0.321672 -0.211515 1.185 17 34 14
0.323512 -0.211515 1.185 15 32 12
0.325901 -0.211872 1.187 17 34 14
0.327745 -0.211872 1.187 17 34 14
0.329588 -0.211872 1.187 17 34 14
0.331432 -0.211872 1.187 20 37 17
0.333275 -0.211872 1.187 20 37 17
0.335119 -0.211872 1.187 21 38 18
0.336962 -0.211872 1.187 20 37 17
0.338806 -0.211872 1.187 20 37 17
0.340649 -0.211872 1.187 21 38 18
0.342204 -0.211693 1.186 21 38 18
0.343756 -0.211515 1.185 20 37 17
0.345596 -0.211515 1.185 20 37 17
0.347436 -0.211515 1.185 20 37 17
0.349277 -0.211515 1.185 18 35 15
0.350821 -0.211336 1.184 20 37 17
0.352362 -0.211158 1.183 17 33 16
0.3539 -0.210979 1.182 18 34 17
0.355735 -0.210979 1.182 17 33 16
0.356966 -0.210622 1.18 18 34 17
0.358798 -0.210622 1.18 18 34 19
0.36002 -0.210265 1.178 11 27 12
0.361542 -0.210087 1.177 8 20 15
0.362753 -0.20973 1.175 43 55 50
0.364267 -0.209551 1.174 22 34 29
0.365155 -0.209016 1.171 7 19 14
0.366033 -0.20848 1.168 8 19 17
0.365643 -0.207231 1.161 6 17 15
0.365547 -0.20616 1.155 17 27 29
0.365432 -0.205089 1.149 77 87 89
0.366111 -0.203482 1.14 77 86 90
0.366591 -0.202768 1.136 89 98 102
0.367382 -0.202233 1.133 94 103 107
-0.164899 -0.208257 1.177 32 49 24
-0.16321 -0.208434 1.178 32 49 24
-0.161654 -0.208787 1.18 29 46 21
-0.159822 -0.208787 1.18 27 44 19
-0.158123 -0.208964 1.181 29 46 21
-0.156421 -0.209141 1.182 30 47 22
-0.154847 -0.209495 1.184 31 49 22
-0.153138 -0.209672 1.185 32 50 23
-0.151553 -0.210026 1.187 31 49 22
-0.149835 -0.210203 1.188 31 49 22
-0.148239 -0.210557 1.19 33 51 22
-0.146514 -0.210734 1.191 36 54 25
-0.144908 -0.211088 1.193 34 54 25
-0.143295 -0.211441 1.195 36 56 27
-0.141675 -0.211795 1.197 32 53 21
-0.139933 -0.211972 1.198 36 57 25
-0.138188 -0.212149 1.199 36 57 25
-0.13644 -0.212326 1.2 37 58 26
-0.134688 -0.212503 1.201 36 57 25
-0.132933 -0.21268 1.202 36 57 25
-0.131067 -0.21268 1.202 36 57 25
-0.1292 -0.21268 1.202 36 57 25
-0.127227 -0.212503 1.201 35 56 24
-0.125258 -0.212326 1.2 36 57 25
-0.123188 -0.211972 1.198 36 57 25
-0.121227 -0.211795 1.197 34 55 23
-0.119068 -0.211265 1.194 35 56 24
-0.117018 -0.210911 1.192 31 52 20
-0.114877 -0.21038 1.189 31 51 22
-0.112745 -0.209849 1.186 31 51 22
-0.110436 -0.208964 1.181 32 52 23
-0.108326 -0.208434 1.178 34 54 25
-0.106315 -0.20808 1.176 34 54 27
-0.104311 -0.207726 1.174 32 52 25
-0.102313 -0.207372 1.172 32 52 25
-0.100407 -0.207195 1.171 32 52 25
-0.0983363 -0.206664 1.168 34 51 31
-0.096357 -0.20631 1.166 29 46 26
-0.094384 -0.205956 1.164 19 36 30
-0.0924172 -0.205602 1.162 34 51 45
-0.0905346 -0.205426 1.161 103 124 133
-0.0886551 -0.205249 1.16 124 145 154
-0.0867039 -0.204895 1.158 89 117 132
-0.0847588 -0.204541 1.156 81 109 124
-0.0828917 -0.204364 1.155 78 107 126
-0.0810278 -0.204187 1.154 78 107 126
-0.0792356 -0.204187 1.154 72 103 129
-0.0774434 -0.204187 1.154 69 100 126
-0.0755856 -0.20401 1.153 66 96 124
-0.073795 -0.20401 1.153 65 95 123
-0.0720043 -0.20401 1.153 65 94 125
-0.068423 -0.20401 1.153 75 103 131
-0.0665746 -0.203833 1.152 76 104 132
-0.0647292 -0.203656 1.151 77 99 126
-0.0629417 -0.203656 1.151 68 90 117
-0.0610479 -0.203302 1.149 131 146 167
-0.0592119 -0.203125 1.148 170 185 206
-0.0573289 -0.202771 1.146 181 193 203
-0.0555007 -0.202595 1.145 180 192 202
-0.0536755 -0.202418 1.144 183 197 200
-0.0518989 -0.202418 1.144 184 198 201
-0.0500346 -0.202064 1.142 185 196 200
-0.0482188 -0.201887 1.141 182 193 197
-0.046406 -0.20171 1.14 168 179 183
-0.0446356 -0.20171 1.14 175 186 190
-0.0428651 -0.20171 1.14 181 188 197
-0.0410947 -0.20171 1.14 184 191 200
-0.0392552 -0.201356 1.138 180 182 201
-0.0374879 -0.201356 1.138 172 174 193
-0.0357205 -0.201356 1.138 131 132 155
-0.0339532 -0.201356 1.138 98 99 122
-0.0321575 -0.201179 1.137 102 103 126
-0.030365 -0.201002 1.136 108 109 132
-0.0286007 -0.201002 1.136 114 115 138
-0.0268129 -0.200825 1.135 167 168 191
-0.0250281 -0.200648 1.134 185 186 209
-0.023267 -0.200648 1.134 192 193 216
-0.0214679 -0.200294 1.132 185 186 207
-0.019675 -0.19994 1.13 175 176 197
-0.0178567 -0.199233 1.126 179 181 200
-0.016065 -0.198702 1.123 182 184 203
-0.0143082 -0.198525 1.122 185 184 204
-0.0125545 -0.198348 1.121 187 186 206
-0.0108136 -0.198348 1.121 187 187 204
-0.00907263 -0.198348 1.121 188 188 205
-0.00734475 -0.198702 1.123 197 197 214
-0.00561067 -0.199056 1.125 204 204 221
-0.00387038 -0.19941 1.127 203 203 220
-0.000370167 -0.199587 1.128 203 205 215
0.00138288 -0.199764 1.129 203 205 215
0.00313903 -0.19994 1.13 203 205 215
0.00489829 -0.200117 1.131 197 199 209
0.00666066 -0.200294 1.132 188 194 201
0.00843357 -0.200648 1.134 195 201 208
0.0101947 -0.200648 1.134 186 195 213
0.0119558 -0.200648 1.134 108 117 135
0.013717 -0.200648 1.134 80 95 130
0.0154781 -0.200648 1.134 99 114 149
0.0172393 -0.200648 1.134 84 113 152
0.0190004 -0.200648 1.134 84 113 152
0.0207616 -0.200648 1.134 74 107 160
0.0225028 -0.200471 1.133 74 107 160
0.024241 -0.200294 1.132 70 102 159
0.025999 -0.200294 1.132 66 98 155
0.0277326 -0.200117 1.131 66 98 155
0.029463 -0.19994 1.13 70 102 159
0.0312179 -0.19994 1.13 78 107 167
0.0329728 -0.19994 1.13 82 111 171
0.034697 -0.199764 1.129 81 110 170
0.0364504 -0.199764 1.129 81 110 170
0.0382038 -0.199764 1.129 81 110 170
0.0399571 -0.199764 1.129 82 111 171
0.0417844 -0.200117 1.131 82 111 171
0.0436179 -0.200471 1.133 83 112 172
0.0472619 -0.201002 1.136 82 113 168
0.0491987 -0.20171 1.14 86 115 161
0.051148 -0.202418 1.144 87 116 162
0.053156 -0.203302 1.149 92 116 143
0.0550839 -0.203833 1.152 18 42 69
0.0570705 -0.204541 1.156 12 36 36
0.0590186 -0.205072 1.159 16 40 40
0.0671326 -0.207903 1.175 25 51 25
0.072916 -0.208787 1.18 25 50 22
0.0748119 -0.208964 1.181 26 51 23
0.0767758 -0.209318 1.183 26 51 23
0.0788789 -0.210026 1.187 25 50 22
0.0807903 -0.210203 1.188 27 49 22
0.0826353 -0.210203 1.188 27 49 22
0.0844803 -0.210203 1.188 27 49 22
0.0863254 -0.210203 1.188 27 49 22
0.0881704 -0.210203 1.188 27 49 22
0.0899396 -0.210026 1.187 27 49 22
0.091783 -0.210026 1.187 28 50 21
0.0936265 -0.210026 1.187 29 51 22
0.0954699 -0.210026 1.187 28 51 19
0.0973134 -0.210026 1.187 27 50 18
0.0991568 -0.210026 1.187 27 51 17
0.101 -0.210026 1.187 27 51 17
0.10293 -0.210203 1.188 27 51 17
0.104864 -0.21038 1.189 29 53 19
0.1068 -0.210557 1.19 28 52 18
0.108739 -0.210734 1.191 29 53 19
0.110682 -0.210911 1.192 27 51 17
0.112722 -0.211265 1.194 25 49 15
0.114672 -0.211441 1.195 26 50 16
0.116528 -0.211441 1.195 26 50 16
0.118384 -0.211441 1.195 27 51 17
0.12024 -0.211441 1.195 27 51 17
0.121993 -0.211265 1.194 28 51 19
0.123848 -0.211265 1.194 27 50 18
0.125597 -0.211088 1.193 29 50 18
0.127343 -0.210911 1.192 30 51 19
0.129194 -0.210911 1.192 31 52 20
0.130935 -0.210734 1.191 32 53 21
0.132673 -0.210557 1.19 31 52 20
0.134522 -0.210557 1.19 31 52 20
0.136255 -0.21038 1.189 32 53 21
0.138102 -0.21038 1.189 32 53 21
0.140066 -0.210557 1.19 31 52 20
0.141914 -0.210557 1.19 32 53 21
0.143762 -0.210557 1.19 32 53 21
0.14561 -0.210557 1.19 31 52 20
0.147706 -0.210911 1.192 31 52 20
0.149557 -0.210911 1.192 32 53 21
0.151409 -0.210911 1.192 32 53 21
0.153388 -0.211088 1.193 32 53 21
0.155241 -0.211088 1.193 34 55 23
0.157094 -0.211088 1.193 31 52 20
0.15908 -0.211265 1.194 32 53 21
0.160934 -0.211265 1.194 34 55 23
0.162652 -0.211088 1.193 34 55 23
0.164367 -0.210911 1.192 35 56 24
0.166218 -0.210911 1.192 35 56 24
0.16807 -0.210911 1.192 35 56 24
0.169921 -0.210911 1.192 35 56 24
0.171628 -0.210734 1.191 34 55 23
0.173478 -0.210734 1.191 35 56 24
0.17518 -0.210557 1.19 34 55 23
0.177028 -0.210557 1.19 34 55 23
0.178876 -0.210557 1.19 32 53 21
0.180724 -0.210557 1.19 34 55 23
0.182419 -0.21038 1.189 34 55 23
0.184111 -0.210203 1.188 34 56 22
0.185956 -0.210203 1.188 32 54 20
0.187801 -0.210203 1.188 34 56 22
0.189486 -0.210026 1.187 35 57 23
0.191329 -0.210026 1.187 38 60 26
0.193336 -0.210203 1.188 36 58 24
0.195181 -0.210203 1.188 36 58 24
0.197191 -0.21038 1.189 36 58 24
0.199038 -0.21038 1.189 34 56 22
0.200885 -0.21038 1.189 32 54 20
0.202902 -0.210557 1.19 34 56 22
0.20475 -0.210557 1.19 32 54 20
0.206771 -0.210734 1.191 34 56 22
0.208621 -0.210734 1.191 35 57 23
0.210648 -0.210911 1.192 32 54 20
0.212499 -0.210911 1.192 34 56 22
0.21453 -0.211088 1.193 32 54 20
0.216564 -0.211265 1.194 30 52 18
0.218418 -0.211265 1.194 31 53 19
0.220457 -0.211441 1.195 32 54 20
0.222313 -0.211441 1.195 34 56 22
0.224169 -0.211441 1.195 35 57 23
0.226025 -0.211441 1.195 37 59 25
0.22769 -0.211265 1.194 29 51 17
0.229544 -0.211265 1.194 29 51 17
0.231205 -0.211088 1.193 28 50 16
0.233057 -0.211088 1.193 28 49 17
0.234713 -0.210911 1.192 27 48 16
0.236565 -0.210911 1.192 27 48 16
0.238416 -0.210911 1.192 25 46 14
0.240065 -0.210734 1.191 23 44 12
0.241712 -0.210557 1.19 23 44 12
0.24356 -0.210557 1.19 23 43 14
0.245408 -0.210557 1.19 23 43 14
0.247256 -0.210557 1.19 22 42 15
0.249104 -0.210557 1.19 18 38 11
0.250953 -0.210557 1.19 22 39 14
0.252801 -0.210557 1.19 17 34 9
0.254649 -0.210557 1.19 17 34 9
0.256497 -0.210557 1.19 17 34 9
0.258345 -0.210557 1.19 17 34 9
0.260193 -0.210557 1.19 16 33 8
0.262041 -0.210557 1.19 15 31 9
0.263889 -0.210557 1.19 16 32 10
0.265737 -0.210557 1.19 16 32 10
0.267586 -0.210557 1.19 16 32 10
0.269434 -0.210557 1.19 17 33 11
0.271282 -0.210557 1.19 15 31 9
0.27313 -0.210557 1.19 15 31 9
0.274978 -0.210557 1.19 15 31 9
0.276826 -0.210557 1.19 16 32 10
0.278674 -0.210557 1.19 18 34 12
0.280522 -0.210557 1.19 16 32 10
0.282133 -0.21038 1.189 15 31 9
0.28398 -0.21038 1.189 16 32 10
0.285586 -0.210203 1.188 17 33 11
0.287431 -0.210203 1.188 17 32 12
0.289032 -0.210026 1.187 16 31 11
0.290876 -0.210026 1.187 17 32 12
0.292473 -0.209849 1.186 15 30 10
0.294066 -0.209672 1.185 15 30 10
0.295907 -0.209672 1.185 15 30 10
0.297496 -0.209495 1.184 16 31 11
0.299082 -0.209318 1.183 16 31 11
0.300919 -0.209318 1.183 17 32 12
0.3025 -0.209141 1.182 18 33 13
0.304336 -0.209141 1.182 18 33 13
0.305654 -0.208787 1.18 16 31 11
0.307486 -0.208787 1.18 16 31 11
0.309581 -0.208964 1.181 15 30 10
0.311151 -0.208787 1.18 16 31 11
0.313249 -0.208964 1.181 17 32 12
0.31535 -0.209141 1.182 17 32 12
0.317186 -0.209141 1.182 17 32 12
0.319291 -0.209318 1.183 20 35 15
0.3214 -0.209495 1.184 18 33 13
0.323512 -0.209672 1.185 15 32 12
0.325352 -0.209672 1.185 18 35 15
0.327469 -0.209849 1.186 18 35 15
0.329588 -0.210026 1.187 20 37 17
0.331432 -0.210026 1.187 20 37 17
0.333275 -0.210026 1.187 21 38 18
0.335119 -0.210026 1.187 21 38 18
0.336962 -0.210026 1.187 20 37 17
0.338806 -0.210026 1.187 20 37 17
0.340649 -0.210026 1.187 21 38 18
0.342492 -0.210026 1.187 21 38 18
0.344046 -0.209849 1.186 20 37 17
0.345888 -0.209849 1.186 20 37 17
0.347436 -0.209672 1.185 18 35 15
0.349277 -0.209672 1.185 18 35 15
0.351117 -0.209672 1.185 20 37 17
0.35266 -0.209495 1.184 18 35 15
0.3539 -0.209141 1.182 18 35 15
0.355735 -0.209141 1.182 18 34 17
0.357268 -0.208964 1.181 17 33 16
0.358798 -0.208787 1.18 17 33 18
0.36002 -0.208434 1.178 13 29 14
0.361542 -0.208257 1.177 8 20 15
0.362753 -0.207903 1.175 43 55 50
0.363957 -0.207549 1.173 23 32 30
0.365155 -0.207195 1.171 9 18 16
0.366033 -0.206664 1.168 8 19 17
0.365328 -0.205249 1.16 7 18 16
0.365547 -0.204364 1.155 20 28 30
0.365432 -0.203302 1.149 79 87 89
0.366111 -0.20171 1.14 78 87 91
0.366591 -0.201002 1.136 95 104 108
0.367706 -0.200648 1.134 98 107 111
-0.165039 -0.206602 1.178 28 48 21
-0.163348 -0.206777 1.179 29 49 22
-0.161654 -0.206953 1.18 28 47 22
-0.159957 -0.207128 1.181 27 46 21
-0.158257 -0.207303 1.182 25 44 19
-0.156554 -0.207479 1.183 28 47 22
-0.154847 -0.207654 1.184 28 47 22
-0.153138 -0.20783 1.185 28 47 22
-0.151553 -0.20818 1.187 30 48 21
-0.149835 -0.208356 1.188 27 45 18
-0.148239 -0.208706 1.19 32 52 23
-0.146514 -0.208882 1.191 34 54 25
-0.144786 -0.209057 1.192 31 52 20
-0.143295 -0.209583 1.195 34 55 23
-0.141557 -0.209759 1.196 32 53 21
-0.139816 -0.209934 1.197 35 56 24
-0.138073 -0.21011 1.198 34 55 23
-0.136326 -0.210285 1.199 36 57 25
-0.134576 -0.21046 1.2 36 57 25
-0.132712 -0.21046 1.2 36 57 25
-0.130849 -0.21046 1.2 34 55 23
-0.128985 -0.21046 1.2 36 57 25
-0.127121 -0.21046 1.2 36 57 25
-0.125153 -0.210285 1.199 36 57 25
-0.123086 -0.209934 1.197 37 58 26
-0.121024 -0.209583 1.195 34 55 23
-0.119068 -0.209408 1.194 35 56 24
-0.11692 -0.208882 1.191 32 53 21
-0.114877 -0.208531 1.189 32 52 23
-0.11284 -0.20818 1.187 32 52 23
-0.110529 -0.207303 1.182 32 52 23
-0.108509 -0.206953 1.18 34 54 25
-0.106496 -0.206602 1.178 32 52 23
-0.104578 -0.206426 1.177 32 52 23
-0.102575 -0.206076 1.175 31 51 24
-0.100665 -0.2059 1.174 34 54 27
-0.098673 -0.20555 1.172 36 55 30
-0.0966876 -0.205199 1.17 35 54 29
-0.0947084 -0.204848 1.168 26 41 33
-0.0927354 -0.204497 1.166 11 26 18
-0.0908465 -0.204322 1.165 31 51 56
-0.0889608 -0.204146 1.164 93 113 118
-0.0870034 -0.203796 1.162 87 113 121
-0.0851254 -0.20362 1.161 87 113 121
-0.0832506 -0.203445 1.16 85 113 128
-0.0813788 -0.20327 1.159 81 109 124
-0.0795102 -0.203094 1.158 74 103 122
-0.0777118 -0.203094 1.158 76 105 124
-0.0759134 -0.203094 1.158 75 104 130
-0.074115 -0.203094 1.158 75 104 130
-0.0723165 -0.203094 1.158 72 100 128
-0.0705181 -0.203094 1.158 71 99 127
-0.0687791 -0.20327 1.159 74 102 130
-0.0669791 -0.20327 1.159 81 109 137
-0.0652354 -0.203445 1.16 80 106 133
-0.0633792 -0.20327 1.159 65 91 118
-0.0615261 -0.203094 1.158 79 99 124
-0.0596761 -0.202919 1.157 101 121 146
-0.0577792 -0.202568 1.155 117 133 150
-0.0559369 -0.202393 1.154 121 137 154
-0.0540978 -0.202217 1.153 134 148 156
-0.0522618 -0.202042 1.152 140 154 162
-0.0504289 -0.201867 1.151 148 160 168
-0.0485991 -0.201691 1.15 146 158 166
-0.0467724 -0.201516 1.149 150 159 168
-0.044988 -0.201516 1.149 168 177 186
-0.0432035 -0.201516 1.149 174 182 196
-0.0414191 -0.201516 1.149 171 179 193
-0.0395657 -0.201165 1.147 167 169 195
-0.0377843 -0.201165 1.147 155 157 183
-0.036003 -0.201165 1.147 121 120 153
-0.0341918 -0.20099 1.146 95 94 127
-0.0323838 -0.200814 1.145 128 127 160
-0.0306056 -0.200814 1.145 134 133 166
-0.0288273 -0.200814 1.145 157 155 186
-0.0270255 -0.200639 1.144 175 173 204
-0.0252488 -0.200639 1.144 188 186 217
-0.0234516 -0.200463 1.143 183 181 212
-0.0216575 -0.200288 1.142 181 180 208
-0.0198492 -0.199937 1.14 182 181 209
-0.018047 -0.199587 1.138 183 180 213
-0.0162653 -0.199411 1.137 187 184 217
-0.014474 -0.19906 1.135 189 186 219
-0.0127001 -0.198885 1.134 187 184 217
-0.0109293 -0.19871 1.133 187 184 217
-0.00916165 -0.198534 1.132 190 187 220
-0.00741016 -0.19871 1.133 196 190 224
-0.00565556 -0.198885 1.134 203 197 231
-0.00389785 -0.19906 1.135 209 204 236
-0.00213704 -0.199236 1.136 203 198 230
-0.000372792 -0.199236 1.136 202 203 218
0.00139145 -0.199236 1.136 206 207 222
0.0031557 -0.199236 1.136 211 213 223
0.00492428 -0.199411 1.137 203 205 215
0.00669596 -0.199587 1.138 192 199 208
0.00846332 -0.199587 1.138 195 202 211
0.0102307 -0.199587 1.138 179 191 206
0.011998 -0.199587 1.138 99 111 126
0.0137775 -0.199762 1.139 78 97 125
0.01556 -0.199937 1.14 83 102 130
0.0173305 -0.199937 1.14 65 97 129
0.0191009 -0.199937 1.14 65 97 129
0.0208714 -0.199937 1.14 62 99 140
0.0226021 -0.199587 1.138 65 102 143
0.0243695 -0.199587 1.138 65 101 146
0.0261139 -0.199411 1.137 60 96 141
0.0278552 -0.199236 1.136 59 94 142
0.0296194 -0.199236 1.136 60 95 143
0.0313836 -0.199236 1.136 64 99 147
0.0331187 -0.19906 1.135 66 101 149
0.0348814 -0.19906 1.135 60 94 144
0.0366441 -0.19906 1.135 64 98 148
0.0384068 -0.19906 1.135 69 101 151
0.0402049 -0.199236 1.136 73 105 155
0.0420061 -0.199411 1.137 75 107 157
0.0438489 -0.199762 1.139 78 110 160
0.0457379 -0.200288 1.142 79 113 158
0.0476363 -0.200814 1.145 80 114 159
0.0495872 -0.201516 1.149 88 120 152
0.0515951 -0.202393 1.154 95 127 159
0.0535724 -0.203094 1.158 99 126 145
0.0555143 -0.20362 1.161 7 34 53
0.0574654 -0.204146 1.164 13 38 35
0.059375 -0.204497 1.166 20 45 42
0.0632668 -0.205374 1.171 25 49 28
0.0653078 -0.206076 1.175 24 50 24
0.0673611 -0.206777 1.179 24 50 24
0.0693682 -0.207303 1.182 26 51 23
0.0712039 -0.207303 1.182 25 50 22
0.0731014 -0.207479 1.183 26 51 23
0.0750019 -0.207654 1.184 26 51 23
0.0769705 -0.208005 1.186 26 51 23
0.0790118 -0.208531 1.189 26 51 23
0.0809264 -0.208706 1.19 28 50 23
0.0827745 -0.208706 1.19 26 48 21
0.0846226 -0.208706 1.19 26 48 21
0.086398 -0.208531 1.189 26 48 21
0.0883188 -0.208706 1.19 26 48 21
0.0900911 -0.208531 1.189 27 49 22
0.0919377 -0.208531 1.189 27 49 20
0.0937842 -0.208531 1.189 27 49 20
0.0955504 -0.208356 1.188 27 50 18
0.0973954 -0.208356 1.188 27 50 18
0.0992404 -0.208356 1.188 28 51 19
0.10117 -0.208531 1.189 28 51 19
0.103104 -0.208706 1.19 28 52 18
0.104952 -0.208706 1.19 28 52 18
0.106979 -0.209057 1.192 27 51 17
0.108831 -0.209057 1.192 28 52 18
0.110775 -0.209233 1.193 28 52 18
0.112722 -0.209408 1.194 26 50 16
0.114672 -0.209583 1.195 25 49 15
0.116528 -0.209583 1.195 26 50 16
0.118285 -0.209408 1.194 27 51 17
0.120139 -0.209408 1.194 27 51 17
0.121993 -0.209408 1.194 31 52 20
0.123744 -0.209233 1.193 31 52 20
0.125492 -0.209057 1.192 30 51 19
0.127343 -0.209057 1.192 31 52 20
0.129086 -0.208882 1.191 31 52 20
0.130825 -0.208706 1.19 32 53 21
0.132562 -0.208531 1.189 32 53 21
0.134295 -0.208356 1.188 32 53 21
0.136026 -0.20818 1.187 32 53 21
0.137869 -0.20818 1.187 31 52 20
0.139713 -0.20818 1.187 30 51 19
0.141675 -0.208356 1.188 30 51 19
0.14352 -0.208356 1.188 28 49 17
0.14561 -0.208706 1.19 30 51 19
0.147458 -0.208706 1.19 31 52 20
0.149557 -0.209057 1.192 32 53 21
0.151409 -0.209057 1.192 34 55 23
0.15326 -0.209057 1.192 34 55 23
0.155241 -0.209233 1.193 34 55 23
0.157094 -0.209233 1.193 31 52 20
0.158947 -0.209233 1.193 32 53 21
0.160799 -0.209233 1.193 34 55 23
0.162652 -0.209233 1.193 35 56 24
0.164367 -0.209057 1.192 35 56 24
0.166218 -0.209057 1.192 32 53 21
0.16807 -0.209057 1.192 32 53 21
0.169921 -0.209057 1.192 34 55 23
0.171628 -0.208882 1.191 34 55 23
0.173332 -0.208706 1.19 35 56 24
0.17518 -0.208706 1.19 35 56 24
0.177028 -0.208706 1.19 34 55 23
0.178876 -0.208706 1.19 34 55 23
0.180572 -0.208531 1.189 32 53 21
0.182266 -0.208356 1.188 32 53 21
0.184111 -0.208356 1.188 32 53 21
0.185956 -0.208356 1.188 32 53 21
0.187801 -0.208356 1.188 32 54 20
0.189486 -0.20818 1.187 32 54 20
0.191329 -0.20818 1.187 31 53 19
0.193336 -0.208356 1.188 32 54 20
0.195181 -0.208356 1.188 32 54 20
0.197191 -0.208531 1.189 35 57 23
0.199038 -0.208531 1.189 35 57 23
0.200885 -0.208531 1.189 34 56 22
0.202902 -0.208706 1.19 34 56 22
0.20475 -0.208706 1.19 34 56 22
0.206598 -0.208706 1.19 34 56 22
0.208621 -0.208882 1.191 32 54 20
0.210648 -0.209057 1.192 31 53 19
0.212499 -0.209057 1.192 32 54 20
0.21453 -0.209233 1.193 35 57 23
0.216564 -0.209408 1.194 34 56 22
0.218601 -0.209583 1.195 32 54 20
