ply
format ascii 1.0
comment Created by Open3D
element vertex 1432
property double x
property double y
property double z
property uchar red
property uchar green
property uchar blue
end_header
0.127343 0.131971 1.192 47 65 36
0.129194 0.131971 1.192 48 66 37
0.131045 0.131971 1.192 47 65 36
0.132896 0.131971 1.192 47 65 36
0.134635 0.131861 1.191 47 65 36
0.136484 0.131861 1.191 48 66 37
0.138218 0.13175 1.19 48 66 37
0.140066 0.13175 1.19 48 66 37
0.141914 0.13175 1.19 48 66 37
0.143762 0.13175 1.19 48 66 37
0.14561 0.13175 1.19 48 66 37
0.147458 0.13175 1.19 48 67 35
0.149306 0.13175 1.19 48 67 35
0.150901 0.131529 1.188 50 66 35
0.152617 0.131418 1.187 50 66 35
0.15433 0.131307 1.186 50 66 35
0.15604 0.131196 1.185 49 65 34
0.157881 0.131196 1.185 50 66 35
0.159721 0.131196 1.185 49 65 34
0.161562 0.131196 1.185 50 66 35
0.163402 0.131196 1.185 52 68 37
0.165242 0.131196 1.185 52 68 37
0.167083 0.131196 1.185 52 68 37
0.169065 0.131307 1.186 53 69 38
0.170907 0.131307 1.186 53 69 38
0.172895 0.131418 1.187 53 69 38
0.174738 0.131418 1.187 53 69 38
0.176582 0.131418 1.187 53 70 37
0.178576 0.131529 1.188 53 70 37
0.180572 0.131639 1.189 53 70 37
0.182419 0.131639 1.189 53 70 37
0.184421 0.13175 1.19 52 69 36
0.186269 0.13175 1.19 49 66 33
0.188275 0.131861 1.191 56 73 40
0.190125 0.131861 1.191 54 71 38
0.191974 0.131861 1.191 54 71 38
0.193661 0.13175 1.19 54 71 38
0.195509 0.13175 1.19 54 71 38
0.197191 0.131639 1.189 53 70 37
0.199038 0.131639 1.189 53 70 37
0.200547 0.131418 1.187 53 70 37
0.20239 0.131418 1.187 52 69 36
0.204062 0.131307 1.186 52 69 36
0.20573 0.131196 1.185 50 67 34
0.20757 0.131196 1.185 50 67 34
0.209234 0.131086 1.184 50 67 34
0.210894 0.130975 1.183 50 67 34
0.212552 0.130864 1.182 52 69 36
0.214387 0.130864 1.182 52 69 36
0.216223 0.130864 1.182 52 69 36
0.218059 0.130864 1.182 53 70 37
0.220081 0.130975 1.183 53 70 37
0.221918 0.130975 1.183 52 69 36
0.224133 0.131196 1.185 52 69 36
0.225974 0.131196 1.185 52 69 36
0.228006 0.131307 1.186 53 70 37
0.230042 0.131418 1.187 54 71 38
0.232081 0.131529 1.188 54 71 38
0.234123 0.131639 1.189 54 71 38
0.236168 0.13175 1.19 53 70 37
0.238016 0.13175 1.19 56 73 40
0.239864 0.13175 1.19 56 73 40
0.241915 0.131861 1.191 54 71 38
0.243969 0.131971 1.192 54 71 38
0.245821 0.131971 1.192 53 70 37
0.247672 0.131971 1.192 53 70 37
0.249523 0.131971 1.192 52 69 36
0.251374 0.131971 1.192 54 71 38
0.253438 0.132082 1.193 54 71 38
0.255291 0.132082 1.193 54 71 38
0.257143 0.132082 1.193 52 69 36
0.258996 0.132082 1.193 45 62 29
0.260849 0.132082 1.193 49 66 33
0.262702 0.132082 1.193 54 71 38
0.264776 0.132193 1.194 54 71 38
0.266631 0.132193 1.194 54 72 36
0.26871 0.132304 1.195 54 72 36
0.270566 0.132304 1.195 55 73 37
0.272422 0.132304 1.195 55 73 37
0.274507 0.132414 1.196 56 74 38
0.276364 0.132414 1.196 54 72 36
0.278222 0.132414 1.196 54 72 36
0.280079 0.132414 1.196 53 71 35
0.282172 0.132525 1.197 56 74 38
0.284031 0.132525 1.197 55 73 37
0.28589 0.132525 1.197 54 72 36
0.287749 0.132525 1.197 54 72 36
0.289366 0.132414 1.196 55 73 37
0.291224 0.132414 1.196 55 73 37
0.292836 0.132304 1.195 54 75 38
0.294692 0.132304 1.195 53 74 37
0.2963 0.132193 1.194 53 74 37
0.297904 0.132082 1.193 53 74 37
0.299506 0.131971 1.192 53 73 39
0.301357 0.131971 1.192 54 74 40
0.3027 0.13175 1.19 53 73 39
0.304548 0.13175 1.19 54 74 40
0.306396 0.13175 1.19 54 73 41
0.308244 0.13175 1.19 59 78 46
0.310092 0.13175 1.19 58 77 45
0.31194 0.13175 1.19 53 72 40
0.314052 0.131861 1.191 60 79 47
0.315636 0.13175 1.19 60 79 47
0.317751 0.131861 1.191 58 78 44
0.319601 0.131861 1.191 55 75 41
0.321451 0.131861 1.191 58 80 41
0.323029 0.13175 1.19 64 86 47
0.324877 0.13175 1.19 67 86 46
0.326725 0.13175 1.19 63 82 42
0.328573 0.13175 1.19 81 104 60
0.330421 0.13175 1.19 81 104 60
0.332269 0.13175 1.19 80 103 59
0.333837 0.131639 1.189 80 103 59
0.335683 0.131639 1.189 81 104 60
0.336962 0.131418 1.187 81 104 60
0.338806 0.131418 1.187 81 104 60
0.340649 0.131418 1.187 81 104 60
0.342492 0.131418 1.187 82 104 63
0.344336 0.131418 1.187 83 105 64
0.346179 0.131418 1.187 83 105 64
0.348023 0.131418 1.187 84 106 65
0.350161 0.131529 1.188 86 108 69
0.352006 0.131529 1.188 83 105 66
0.353851 0.131529 1.188 83 104 67
0.355696 0.131529 1.188 83 104 67
0.35724 0.131418 1.187 82 100 73
0.359084 0.131418 1.187 67 85 58
0.360319 0.131196 1.185 78 86 79
0.361242 0.130864 1.182 181 189 182
0.362156 0.130532 1.179 108 117 116
0.363061 0.1302 1.176 54 63 62
0.363957 0.129868 1.173 65 73 75
0.364531 0.129425 1.169 62 70 72
0.364153 0.12865 1.162 85 88 75
0.362493 0.127432 1.151 211 214 201
0.362382 0.126768 1.145 231 238 234
0.363206 0.126436 1.142 183 190 186
0.364021 0.126104 1.139 230 240 235
0.365147 0.125882 1.137 242 252 247
0.366913 0.125882 1.137 160 165 168
0.369328 0.126104 1.139 106 111 114
-0.168542 0.13506 1.203 51 81 52
-0.166673 0.13506 1.203 41 71 42
-0.164668 0.134948 1.202 48 71 39
-0.162801 0.134948 1.202 50 73 41
-0.160801 0.134835 1.201 56 79 47
-0.158936 0.134835 1.201 56 79 47
-0.15694 0.134723 1.2 58 81 49
-0.155076 0.134723 1.2 60 83 51
-0.153212 0.134723 1.2 58 82 48
-0.151349 0.134723 1.2 57 81 47
-0.149485 0.134723 1.2 62 84 50
-0.147621 0.134723 1.2 63 85 51
-0.145758 0.134723 1.2 62 85 48
-0.143894 0.134723 1.2 62 85 48
-0.142031 0.134723 1.2 62 86 47
-0.14005 0.134611 1.199 62 86 47
-0.138188 0.134611 1.199 63 87 48
-0.136212 0.134498 1.198 62 86 47
-0.134239 0.134386 1.197 62 86 47
-0.132381 0.134386 1.197 62 86 47
-0.130303 0.134162 1.195 63 87 46
-0.12834 0.134049 1.194 65 89 48
-0.126274 0.133825 1.192 65 89 48
-0.124318 0.133713 1.191 64 88 47
-0.122366 0.1336 1.19 64 88 47
-0.120416 0.133488 1.189 66 90 49
-0.11847 0.133376 1.188 65 89 48
-0.116527 0.133264 1.187 64 88 47
-0.114684 0.133264 1.187 65 89 48
-0.11284 0.133264 1.187 65 89 48
-0.110997 0.133264 1.187 66 90 49
-0.109337 0.133488 1.189 67 91 50
-0.107491 0.133488 1.189 67 91 50
-0.105733 0.1336 1.19 63 87 46
-0.103885 0.1336 1.19 65 89 48
-0.102037 0.1336 1.19 66 90 49
-0.100273 0.133713 1.191 65 89 48
-0.098423 0.133713 1.191 65 89 48
-0.0965733 0.133713 1.191 66 89 45
-0.0947237 0.133713 1.191 65 88 44
-0.092796 0.1336 1.19 68 91 47
-0.0909479 0.1336 1.19 68 91 47
-0.0890249 0.133488 1.189 67 90 46
-0.0870317 0.133264 1.187 67 90 46
-0.0851883 0.133264 1.187 66 89 45
-0.0833448 0.133264 1.187 66 89 45
-0.0815014 0.133264 1.187 66 89 45
-0.0796579 0.133264 1.187 68 91 47
-0.0778145 0.133264 1.187 66 91 47
-0.076035 0.133376 1.188 64 89 45
-0.0724668 0.1336 1.19 68 92 51
-0.0706187 0.1336 1.19 68 92 51
-0.0688862 0.133825 1.192 68 92 51
-0.067035 0.133825 1.192 67 91 52
-0.0652384 0.133937 1.193 67 91 52
-0.0634388 0.134049 1.194 66 90 51
-0.0616361 0.134162 1.195 65 89 50
-0.0597802 0.134162 1.195 65 88 51
-0.0579243 0.134162 1.195 65 88 51
-0.0560684 0.134162 1.195 65 88 51
-0.0542125 0.134162 1.195 64 87 50
-0.0523567 0.134162 1.195 64 87 50
-0.0504585 0.134049 1.194 63 86 49
-0.0485635 0.133937 1.193 63 86 49
-0.0467107 0.133937 1.193 62 85 48
-0.0448956 0.134049 1.194 60 83 46
-0.0430412 0.134049 1.194 60 83 46
-0.0411869 0.134049 1.194 60 83 46
-0.0393655 0.134162 1.195 62 85 48
-0.0375097 0.134162 1.195 62 83 46
-0.0356538 0.134162 1.195 62 83 46
-0.0338262 0.134274 1.196 60 81 44
-0.0319955 0.134386 1.197 59 80 43
-0.0301365 0.134386 1.197 59 80 43
-0.0282775 0.134386 1.197 58 79 42
-0.0263965 0.134274 1.196 57 78 41
-0.0245391 0.134274 1.196 55 76 39
-0.0226627 0.134162 1.195 55 76 39
-0.0208068 0.134162 1.195 54 75 38
-0.0189351 0.134049 1.194 54 75 38
-0.0170807 0.134049 1.194 55 76 39
-0.0152137 0.133937 1.193 57 78 41
-0.0133497 0.133825 1.192 58 79 42
-0.0114985 0.133825 1.192 58 79 42
-0.00964725 0.133825 1.192 58 79 42
-0.00780258 0.133937 1.193 57 78 41
-0.00594981 0.133937 1.193 57 78 41
-0.00409704 0.133937 1.193 55 76 39
-0.00224427 0.133937 1.193 53 74 37
-0.000391497 0.133937 1.193 55 75 41
0.00146127 0.133937 1.193 60 80 46
0.00331404 0.133937 1.193 58 78 44
0.00516681 0.133937 1.193 53 73 39
0.00701958 0.133937 1.193 50 69 37
0.00887235 0.133937 1.193 52 71 39
0.0107251 0.133937 1.193 50 69 37
0.0125779 0.133937 1.193 52 71 39
0.0144307 0.133937 1.193 48 67 35
0.0162834 0.133937 1.193 46 65 33
0.0181362 0.133937 1.193 45 64 32
0.019989 0.133937 1.193 44 63 31
0.0218234 0.133825 1.192 44 63 31
0.0236746 0.133825 1.192 44 63 31
0.0255259 0.133825 1.192 44 63 31
0.0273541 0.133713 1.191 45 64 32
0.0291793 0.1336 1.19 45 64 32
0.0310013 0.133488 1.189 46 65 33
0.0328202 0.133376 1.188 43 62 30
0.034636 0.133264 1.187 43 62 30
0.0364795 0.133264 1.187 43 62 30
0.0382907 0.133151 1.186 44 63 31
0.0400987 0.133039 1.185 45 61 30
0.0419391 0.133039 1.185 46 62 31
0.0437425 0.132927 1.184 46 62 31
0.0456198 0.133039 1.185 45 61 30
0.0474601 0.133039 1.185 46 62 31
0.0493005 0.133039 1.185 48 64 33
0.051184 0.133151 1.186 47 63 32
0.0530706 0.133264 1.187 45 61 30
0.0550065 0.133488 1.189 47 63 32
0.0568531 0.133488 1.189 46 62 31
0.058749 0.1336 1.19 47 63 32
0.0605462 0.133488 1.189 48 64 33
0.0624452 0.1336 1.19 47 62 34
0.0642934 0.1336 1.19 47 62 34
0.0660303 0.133376 1.188 47 62 34
0.0678182 0.133264 1.187 47 62 34
0.0696616 0.133264 1.187 48 63 35
0.0714448 0.133151 1.186 47 62 34
0.0733485 0.133264 1.187 48 63 35
0.075192 0.133264 1.187 48 63 35
0.0769705 0.133151 1.186 47 62 34
0.0788124 0.133151 1.186 45 60 32
0.0806543 0.133151 1.186 45 60 32
0.0824962 0.133151 1.186 45 60 32
0.0843381 0.133151 1.186 47 62 34
0.08618 0.133151 1.186 48 63 35
0.0880219 0.133151 1.186 47 62 34
0.0899396 0.133264 1.187 40 55 27
0.091783 0.133264 1.187 47 62 34
0.0936265 0.133264 1.187 49 64 36
0.0954699 0.133264 1.187 47 62 34
0.0973134 0.133264 1.187 48 63 35
0.0992404 0.133376 1.188 47 62 34
0.101085 0.133376 1.188 47 62 34
0.10293 0.133376 1.188 47 62 34
0.104864 0.133488 1.189 47 62 34
0.1068 0.1336 1.19 48 63 35
0.108648 0.1336 1.19 46 61 33
0.110496 0.1336 1.19 48 63 35
0.112439 0.133713 1.191 49 64 36
0.114288 0.133713 1.191 48 63 35
0.116235 0.133825 1.192 50 65 37
0.118186 0.133937 1.193 46 64 35
0.120039 0.133937 1.193 44 62 33
0.121891 0.133937 1.193 46 64 35
0.123744 0.133937 1.193 45 63 34
0.125597 0.133937 1.193 46 64 35
0.12745 0.133937 1.193 48 66 37
0.129194 0.133825 1.192 48 66 37
0.131045 0.133825 1.192 47 65 36
0.132896 0.133825 1.192 47 65 36
0.134635 0.133713 1.191 48 66 37
0.136484 0.133713 1.191 50 68 39
0.138334 0.133713 1.191 51 69 40
0.140184 0.133713 1.191 50 68 39
0.141914 0.1336 1.19 50 68 39
0.143883 0.133713 1.191 48 66 37
0.145855 0.133825 1.192 48 66 37
0.147582 0.133713 1.191 50 69 37
0.149306 0.1336 1.19 51 70 38
0.151028 0.133488 1.189 50 69 37
0.152746 0.133376 1.188 50 69 37
0.15446 0.133264 1.187 50 66 35
0.156304 0.133264 1.187 49 65 34
0.158014 0.133151 1.186 50 66 35
0.159856 0.133151 1.186 49 65 34
0.161562 0.133039 1.185 52 68 37
0.163402 0.133039 1.185 52 68 37
0.165242 0.133039 1.185 52 68 37
0.167083 0.133039 1.185 50 66 35
0.168923 0.133039 1.185 53 69 38
0.170763 0.133039 1.185 54 70 39
0.172604 0.133039 1.185 52 68 37
0.174444 0.133039 1.185 54 70 39
0.176433 0.133151 1.186 54 71 38
0.178425 0.133264 1.187 54 71 38
0.180269 0.133264 1.187 54 71 38
0.182266 0.133376 1.188 55 72 39
0.184266 0.133488 1.189 53 70 37
0.186269 0.1336 1.19 52 69 36
0.188117 0.1336 1.19 54 71 38
0.189965 0.1336 1.19 55 72 39
0.191813 0.1336 1.19 55 72 39
0.193661 0.1336 1.19 55 72 39
0.195345 0.133488 1.189 55 72 39
0.197191 0.133488 1.189 55 72 39
0.198703 0.133264 1.187 54 71 38
0.200547 0.133264 1.187 53 70 37
0.20222 0.133151 1.186 53 70 37
0.203889 0.133039 1.185 52 69 36
0.20573 0.133039 1.185 50 67 34
0.20757 0.133039 1.185 52 69 36
0.209234 0.132927 1.184 52 69 36
0.210894 0.132814 1.183 53 70 37
0.212552 0.132702 1.182 53 70 37
0.214387 0.132702 1.182 52 69 36
0.216223 0.132702 1.182 52 69 36
0.218059 0.132702 1.182 52 69 36
0.219894 0.132702 1.182 53 70 37
0.221918 0.132814 1.183 50 67 34
0.223944 0.132927 1.184 50 67 34
0.225974 0.133039 1.185 50 67 34
0.227814 0.133039 1.185 53 70 37
0.230042 0.133264 1.187 54 71 38
0.231885 0.133264 1.187 54 71 38
0.233926 0.133376 1.188 55 72 39
0.235969 0.133488 1.189 56 73 40
0.237816 0.133488 1.189 56 73 40
0.239864 0.1336 1.19 56 73 40
0.241712 0.1336 1.19 53 70 37
0.24356 0.1336 1.19 53 70 37
0.245614 0.133713 1.191 53 70 37
0.247464 0.133713 1.191 53 70 37
0.249523 0.133825 1.192 53 70 37
0.251374 0.133825 1.192 54 71 38
0.253226 0.133825 1.192 54 71 38
0.255077 0.133825 1.192 55 72 39
0.256928 0.133825 1.192 56 73 40
0.258779 0.133825 1.192 56 73 40
0.260849 0.133937 1.193 54 71 38
0.262702 0.133937 1.193 55 72 39
0.264555 0.133937 1.193 55 72 39
0.266631 0.134049 1.194 55 73 37
0.26871 0.134162 1.195 54 72 36
0.270566 0.134162 1.195 55 73 37
0.272422 0.134162 1.195 55 73 37
0.274507 0.134274 1.196 56 74 38
0.276364 0.134274 1.196 54 72 36
0.278222 0.134274 1.196 54 72 36
0.280313 0.134386 1.197 53 71 35
0.282172 0.134386 1.197 56 74 38
0.284031 0.134386 1.197 57 75 39
0.28589 0.134386 1.197 56 74 38
0.287749 0.134386 1.197 54 72 36
0.289608 0.134386 1.197 55 73 37
0.291467 0.134386 1.197 56 74 38
0.293326 0.134386 1.197 54 75 38
0.294692 0.134162 1.195 53 74 37
0.296548 0.134162 1.195 53 74 37
0.298154 0.134049 1.194 53 74 37
0.299757 0.133937 1.193 54 74 40
0.301357 0.133825 1.192 55 75 41
0.302954 0.133713 1.191 54 74 40
0.304548 0.1336 1.19 54 74 40
0.306396 0.1336 1.19 54 73 41
0.308244 0.1336 1.19 64 83 51
0.310092 0.1336 1.19 57 76 44
0.31194 0.1336 1.19 55 74 42
0.313788 0.1336 1.19 69 88 56
0.315636 0.1336 1.19 54 73 41
0.317484 0.1336 1.19 51 71 37
0.319333 0.1336 1.19 55 75 41
0.321181 0.1336 1.19 54 76 37
0.323029 0.1336 1.19 55 77 38
0.324877 0.1336 1.19 64 86 45
0.326725 0.1336 1.19 65 87 46
0.328573 0.1336 1.19 81 104 60
0.330421 0.1336 1.19 81 104 60
0.332269 0.1336 1.19 77 100 56
0.333837 0.133488 1.189 79 102 58
0.335401 0.133376 1.188 83 106 62
0.336962 0.133264 1.187 84 107 63
0.338806 0.133264 1.187 82 105 61
0.340649 0.133264 1.187 82 105 61
0.342492 0.133264 1.187 83 105 64
0.344336 0.133264 1.187 83 105 64
0.346179 0.133264 1.187 84 106 67
0.348023 0.133264 1.187 84 106 67
0.35171 0.133264 1.187 84 106 67
0.353851 0.133376 1.188 83 103 69
0.355696 0.133376 1.188 82 102 68
0.35724 0.133264 1.187 83 101 74
0.359084 0.133264 1.187 68 86 59
0.360319 0.133039 1.185 76 86 81
0.361242 0.132702 1.182 181 191 186
0.362464 0.132478 1.18 96 105 109
0.36337 0.132141 1.177 51 60 64
0.363957 0.131692 1.173 65 74 78
0.364219 0.13113 1.168 63 72 76
0.364153 0.130457 1.162 86 88 77
0.362178 0.12911 1.15 212 214 203
0.362382 0.128548 1.145 239 245 238
0.363206 0.128211 1.142 182 188 181
0.364021 0.127875 1.139 227 234 230
0.365469 0.127762 1.138 241 248 244
0.366913 0.12765 1.137 159 165 165
0.369652 0.127987 1.14 106 112 112
-0.168542 0.13693 1.203 84 113 86
-0.166673 0.13693 1.203 92 121 94
-0.164668 0.136817 1.202 64 92 59
-0.162801 0.136817 1.202 39 67 34
-0.160801 0.136703 1.201 49 75 42
-0.158803 0.136589 1.2 54 80 47
-0.15694 0.136589 1.2 55 82 47
-0.155076 0.136589 1.2 56 83 48
-0.153212 0.136589 1.2 58 82 48
-0.151349 0.136589 1.2 58 82 48
-0.149485 0.136589 1.2 60 85 48
-0.147621 0.136589 1.2 60 85 48
-0.145758 0.136589 1.2 62 85 48
-0.143894 0.136589 1.2 62 85 48
-0.141912 0.136475 1.199 60 84 45
-0.14005 0.136475 1.199 66 90 51
-0.138073 0.136361 1.198 66 90 51
-0.136212 0.136361 1.198 63 87 48
-0.134239 0.136247 1.197 62 86 47
-0.13227 0.136134 1.196 63 87 48
-0.130303 0.13602 1.195 64 88 47
-0.12834 0.135906 1.194 65 89 48
-0.126274 0.135678 1.192 64 88 47
-0.124318 0.135564 1.191 64 88 47
-0.122366 0.135451 1.19 65 89 48
-0.120416 0.135337 1.189 65 89 48
-0.11847 0.135223 1.188 64 88 47
-0.116527 0.135109 1.187 65 89 48
-0.114684 0.135109 1.187 66 90 49
-0.11284 0.135109 1.187 65 89 48
-0.110997 0.135109 1.187 65 89 48
-0.109153 0.135109 1.187 66 90 49
-0.10731 0.135109 1.187 67 91 50
-0.105555 0.135223 1.188 66 90 49
-0.10371 0.135223 1.188 67 91 50
-0.101951 0.135337 1.189 66 90 49
-0.100104 0.135337 1.189 65 90 46
-0.0983404 0.135451 1.19 66 91 47
-0.0964923 0.135451 1.19 66 89 45
-0.0946442 0.135451 1.19 67 90 46
-0.0927181 0.135337 1.189 68 92 46
-0.0908715 0.135337 1.189 68 92 46
-0.0888752 0.135109 1.187 67 91 45
-0.0870317 0.135109 1.187 67 91 45
-0.0851165 0.134995 1.186 70 94 48
-0.0832746 0.134995 1.186 67 91 45
-0.0814327 0.134995 1.186 66 90 44
-0.0795908 0.134995 1.186 67 91 45
-0.0777489 0.134995 1.186 65 90 46
-0.075971 0.135109 1.187 65 90 46
-0.0741276 0.135109 1.187 66 90 49
-0.0706187 0.135451 1.19 67 91 50
-0.0687706 0.135451 1.19 67 91 50
-0.0669787 0.135564 1.191 68 92 53
-0.0651838 0.135678 1.192 67 91 52
-0.0633325 0.135678 1.192 66 90 51
-0.0615329 0.135792 1.193 66 90 51
-0.0596801 0.135792 1.193 67 90 53
-0.0578758 0.135906 1.194 67 90 53
-0.0560215 0.135906 1.194 66 89 52
-0.0541672 0.135906 1.194 65 88 51
-0.0523129 0.135906 1.194 65 88 51
-0.0504585 0.135906 1.194 64 87 50
-0.0486042 0.135906 1.194 65 88 51
-0.0467499 0.135906 1.194 63 86 49
-0.0449332 0.13602 1.195 62 85 48
-0.0430773 0.13602 1.195 62 85 48
-0.0412214 0.13602 1.195 62 85 48
-0.0393655 0.13602 1.195 62 85 48
-0.0375411 0.136134 1.196 60 83 46
-0.0356836 0.136134 1.196 60 83 46
-0.0338545 0.136247 1.197 62 83 46
-0.0319955 0.136247 1.197 60 81 44
-0.0301365 0.136247 1.197 58 79 42
-0.0282775 0.136247 1.197 58 79 42
-0.0263965 0.136134 1.196 58 79 42
-0.0245391 0.136134 1.196 58 79 42
-0.0226627 0.13602 1.195 59 80 43
-0.0207894 0.135906 1.194 57 78 41
-0.0189351 0.135906 1.194 55 76 39
-0.0170664 0.135792 1.193 57 78 41
-0.0152009 0.135678 1.192 58 79 42
-0.0133497 0.135678 1.192 59 80 43
-0.0114985 0.135678 1.192 55 76 39
-0.00964725 0.135678 1.192 55 76 39
-0.00779604 0.135678 1.192 55 76 39
-0.00594482 0.135678 1.192 55 76 39
-0.00409704 0.135792 1.193 57 78 41
-0.00224427 0.135792 1.193 54 75 38
-0.000391497 0.135792 1.193 55 75 41
0.00146127 0.135792 1.193 55 75 41
0.00331404 0.135792 1.193 55 75 41
0.00516681 0.135792 1.193 53 73 39
0.00701958 0.135792 1.193 51 70 38
0.00887235 0.135792 1.193 52 71 39
0.0107251 0.135792 1.193 48 67 35
0.0125779 0.135792 1.193 48 67 35
0.0144307 0.135792 1.193 48 67 35
0.0162834 0.135792 1.193 47 66 34
0.0181362 0.135792 1.193 46 65 33
0.0199722 0.135678 1.192 46 65 33
0.0218234 0.135678 1.192 45 64 32
0.0236746 0.135678 1.192 45 64 32
0.0255259 0.135678 1.192 46 65 33
0.0273541 0.135564 1.191 45 64 32
0.0291793 0.135451 1.19 45 64 32
0.0310274 0.135451 1.19 44 63 31
0.0328479 0.135337 1.189 44 63 31
0.0346652 0.135223 1.188 44 63 31
0.0364795 0.135109 1.187 43 62 30
0.0382907 0.134995 1.186 43 62 30
0.0400987 0.134882 1.185 45 61 30
0.0419391 0.134882 1.185 45 61 30
0.0437794 0.134882 1.185 45 61 30
0.0456198 0.134882 1.185 46 62 31
0.0474601 0.134882 1.185 47 63 32
0.0493005 0.134882 1.185 48 64 33
0.051184 0.134995 1.186 48 64 33
0.0530706 0.135109 1.187 47 63 32
0.054914 0.135109 1.187 48 64 33
0.0568053 0.135223 1.188 48 64 33
0.0586997 0.135337 1.189 48 64 33
0.0605462 0.135337 1.189 48 64 33
0.0624452 0.135451 1.19 48 63 35
0.0642393 0.135337 1.189 48 63 35
0.0660303 0.135223 1.188 48 63 35
0.0678182 0.135109 1.187 48 63 35
0.0696616 0.135109 1.187 49 64 36
0.0715051 0.135109 1.187 48 63 35
0.0733485 0.135109 1.187 46 61 33
0.075192 0.135109 1.187 47 62 34
0.0769705 0.134995 1.186 48 63 35
0.0788124 0.134995 1.186 45 60 32
0.0806543 0.134995 1.186 43 58 30
0.0824962 0.134995 1.186 46 61 33
0.0843381 0.134995 1.186 46 61 33
0.08618 0.134995 1.186 48 63 35
0.0880219 0.134995 1.186 56 71 43
0.0898638 0.134995 1.186 57 72 44
0.0917057 0.134995 1.186 52 67 39
0.0935476 0.134995 1.186 49 64 36
0.0953895 0.134995 1.186 48 63 35
0.0973134 0.135109 1.187 48 63 35
0.0991568 0.135109 1.187 47 62 34
0.101 0.135109 1.187 47 62 34
0.10293 0.135223 1.188 47 62 34
0.104775 0.135223 1.188 47 62 34
0.10671 0.135337 1.189 48 63 35
0.108557 0.135337 1.189 49 64 36
0.110496 0.135451 1.19 50 65 37
0.112344 0.135451 1.19 49 64 36
0.114288 0.135564 1.191 48 63 35
0.116138 0.135564 1.191 50 65 37
0.118087 0.135678 1.192 50 65 37
0.120039 0.135792 1.193 46 61 33
0.121891 0.135792 1.193 48 63 35
0.123848 0.135906 1.194 48 63 35
0.125597 0.135792 1.193 48 63 35
0.12745 0.135792 1.193 50 65 37
0.129194 0.135678 1.192 50 65 37
0.131045 0.135678 1.192 49 64 36
0.132896 0.135678 1.192 49 64 36
0.134635 0.135564 1.191 49 64 36
0.136484 0.135564 1.191 49 64 36
0.138334 0.135564 1.191 50 65 37
0.140184 0.135564 1.191 52 67 39
0.142033 0.135564 1.191 50 65 37
0.143883 0.135564 1.191 50 65 37
0.145733 0.135564 1.191 49 64 36
0.147582 0.135564 1.191 54 69 41
0.149306 0.135451 1.19 54 69 41
0.151155 0.135451 1.19 54 70 39
0.152874 0.135337 1.189 53 69 38
0.154591 0.135223 1.188 52 68 37
0.156436 0.135223 1.188 52 68 37
0.158147 0.135109 1.187 52 68 37
0.159856 0.134995 1.186 52 68 37
0.161698 0.134995 1.186 52 68 37
0.163402 0.134882 1.185 52 68 37
0.165242 0.134882 1.185 50 66 35
0.167083 0.134882 1.185 50 66 35
0.168923 0.134882 1.185 52 68 37
0.170763 0.134882 1.185 52 68 37
0.172458 0.134768 1.184 52 68 37
0.174444 0.134882 1.185 54 70 39
0.176284 0.134882 1.185 55 72 39
0.178125 0.134882 1.185 55 72 39
0.180117 0.134995 1.186 55 72 39
0.182112 0.135109 1.187 54 71 38
0.183956 0.135109 1.187 54 71 38
0.186112 0.135337 1.189 53 70 37
0.187959 0.135337 1.189 54 71 38
0.189805 0.135337 1.189 54 71 38
0.191652 0.135337 1.189 54 71 38
0.193498 0.135337 1.189 55 72 39
0.195181 0.135223 1.188 54 71 38
0.197026 0.135223 1.188 55 72 39
0.198703 0.135109 1.187 54 71 38
0.200547 0.135109 1.187 53 70 37
0.20222 0.134995 1.186 52 69 36
0.203889 0.134882 1.185 52 69 36
0.20573 0.134882 1.185 52 69 36
0.20757 0.134882 1.185 53 70 37
0.209411 0.134882 1.185 55 72 39
0.210894 0.134654 1.183 55 72 39
0.212732 0.134654 1.183 55 72 39
0.214569 0.134654 1.183 54 71 38
0.216223 0.13454 1.182 52 69 36
0.218059 0.13454 1.182 52 69 36
0.219894 0.13454 1.182 54 71 38
0.221918 0.134654 1.183 54 71 38
0.223944 0.134768 1.184 59 76 43
0.225783 0.134768 1.184 55 72 39
0.227814 0.134882 1.185 54 71 38
0.229848 0.134995 1.186 54 71 38
0.231885 0.135109 1.187 54 71 38
0.233729 0.135109 1.187 55 72 39
0.235572 0.135109 1.187 55 72 39
0.237616 0.135223 1.188 56 73 40
0.239662 0.135337 1.189 56 73 40
0.241509 0.135337 1.189 54 71 38
0.24356 0.135451 1.19 54 71 38
0.245408 0.135451 1.19 54 71 38
0.247256 0.135451 1.19 55 72 39
0.249104 0.135451 1.19 55 72 39
0.251163 0.135564 1.191 55 72 39
0.253226 0.135678 1.192 55 72 39
0.255077 0.135678 1.192 55 72 39
0.256928 0.135678 1.192 56 73 40
0.258779 0.135678 1.192 55 72 39
0.26063 0.135678 1.192 55 72 39
0.262482 0.135678 1.192 54 72 36
0.264555 0.135792 1.193 56 74 38
0.266407 0.135792 1.193 56 74 38
0.268485 0.135906 1.194 54 72 36
0.270566 0.13602 1.195 54 72 36
0.272422 0.13602 1.195 55 73 37
0.274507 0.136134 1.196 56 74 38
0.276364 0.136134 1.196 56 74 38
0.278222 0.136134 1.196 56 74 38
0.280313 0.136247 1.197 56 74 38
0.282172 0.136247 1.197 57 75 39
0.284031 0.136247 1.197 57 75 39
0.28589 0.136247 1.197 59 77 41
0.287749 0.136247 1.197 54 72 36
0.289366 0.136134 1.196 55 73 37
0.291467 0.136247 1.197 55 73 37
0.293326 0.136247 1.197 56 74 38
0.294692 0.13602 1.195 56 74 38
0.296548 0.13602 1.195 54 75 38
0.298154 0.135906 1.194 53 74 37
0.299757 0.135792 1.193 55 75 41
0.301357 0.135678 1.192 57 77 43
0.302954 0.135564 1.191 57 77 43
0.304548 0.135451 1.19 57 77 43
0.306396 0.135451 1.19 57 76 44
0.308244 0.135451 1.19 60 79 47
0.310092 0.135451 1.19 58 77 45
0.31194 0.135451 1.19 52 71 39
0.313788 0.135451 1.19 74 93 61
0.315636 0.135451 1.19 68 87 55
0.317484 0.135451 1.19 54 75 38
0.319333 0.135451 1.19 59 80 43
0.321451 0.135564 1.191 60 82 43
0.3233 0.135564 1.191 60 82 43
0.32515 0.135564 1.191 70 89 49
0.326725 0.135451 1.19 64 83 43
0.328573 0.135451 1.19 81 104 60
0.330421 0.135451 1.19 79 102 58
0.33199 0.135337 1.189 77 100 56
0.333837 0.135337 1.189 76 99 55
0.335119 0.135109 1.187 80 102 61
0.336962 0.135109 1.187 84 106 65
0.338806 0.135109 1.187 86 107 70
0.340362 0.134995 1.186 79 100 63
0.342492 0.135109 1.187 75 98 61
0.344336 0.135109 1.187 74 97 60
0.346179 0.135109 1.187 74 96 62
0.348023 0.135109 1.187 78 100 66
0.352006 0.135223 1.188 82 104 70
0.353851 0.135223 1.188 81 102 70
0.355696 0.135223 1.188 81 102 70
0.357541 0.135223 1.188 83 100 75
0.359084 0.135109 1.187 69 86 61
0.360319 0.134882 1.185 76 86 81
0.361242 0.13454 1.182 186 196 191
0.362464 0.134312 1.18 93 102 106
0.363679 0.134085 1.178 52 61 65
0.363957 0.133516 1.173 68 75 79
0.364531 0.13306 1.169 64 71 75
0.364153 0.132264 1.162 88 89 81
0.362178 0.130898 1.15 217 218 210
0.362382 0.130329 1.145 244 250 243
0.363206 0.129987 1.142 179 185 178
0.364021 0.129646 1.139 218 225 221
0.36579 0.129646 1.139 235 242 238
0.367236 0.129532 1.138 160 166 166
0.369652 0.129759 1.14 107 113 113
-0.168542 0.138801 1.203 65 95 66
-0.166535 0.138685 1.202 127 157 128
-0.164668 0.138685 1.202 111 139 106
-0.162666 0.13857 1.201 50 78 45
-0.160801 0.13857 1.201 47 73 40
-0.158803 0.138455 1.2 54 80 47
-0.15694 0.138455 1.2 56 80 46
-0.155076 0.138455 1.2 55 79 45
-0.153212 0.138455 1.2 58 80 46
-0.151349 0.138455 1.2 58 80 46
-0.149485 0.138455 1.2 58 80 46
-0.147621 0.138455 1.2 59 81 47
-0.145636 0.138339 1.199 60 83 46
-0.143774 0.138339 1.199 62 85 48
-0.141912 0.138339 1.199 62 85 48
-0.139933 0.138224 1.198 71 94 57
-0.138073 0.138224 1.198 64 88 49
-0.136098 0.138109 1.197 63 87 48
-0.134239 0.138109 1.197 63 87 48
-0.13227 0.137993 1.196 64 88 49
-0.130303 0.137878 1.195 65 89 48
-0.128233 0.137647 1.193 66 90 49
-0.126274 0.137532 1.192 66 90 49
-0.124318 0.137416 1.191 65 89 48
-0.122366 0.137301 1.19 65 89 48
-0.120518 0.137301 1.19 65 89 48
-0.11857 0.137186 1.189 65 89 48
-0.116625 0.13707 1.188 65 89 48
-0.11478 0.13707 1.188 65 89 48
-0.11284 0.136955 1.187 64 88 47
-0.110997 0.136955 1.187 64 88 47
-0.109245 0.13707 1.188 64 88 47
-0.1074 0.13707 1.188 65 89 48
-0.105644 0.137186 1.189 66 90 49
-0.10371 0.13707 1.188 67 91 50
-0.101951 0.137186 1.189 67 91 50
-0.100104 0.137186 1.189 66 91 47
-0.0983404 0.137301 1.19 66 91 47
-0.0964112 0.137186 1.189 67 90 46
-0.0945646 0.137186 1.189 68 91 47
-0.0927181 0.137186 1.189 68 92 46
-0.0908715 0.137186 1.189 68 92 46
-0.0888752 0.136955 1.187 67 91 45
-0.0870317 0.136955 1.187 67 91 45
-0.0851165 0.136839 1.186 72 96 50
-0.0832746 0.136839 1.186 65 89 43
-0.0813641 0.136724 1.185 62 86 40
-0.0795237 0.136724 1.185 62 86 40
-0.0776834 0.136724 1.185 61 85 39
-0.075907 0.136839 1.186 60 84 38
-0.0741276 0.136955 1.187 66 91 47
-0.0722841 0.136955 1.187 70 95 51
-0.0705 0.13707 1.188 68 92 51
-0.068655 0.13707 1.188 67 91 50
-0.0668663 0.137186 1.189 67 91 50
-0.0650744 0.137301 1.19 66 90 49
-0.0632263 0.137301 1.19 67 91 52
-0.0614813 0.137532 1.192 67 91 52
-0.0595801 0.137416 1.191 68 92 53
-0.0577304 0.137416 1.191 68 92 53
-0.0559277 0.137532 1.192 68 92 53
-0.0540765 0.137532 1.192 68 92 53
-0.0522252 0.137532 1.192 66 89 52
-0.050374 0.137532 1.192 64 87 50
-0.0485635 0.137647 1.193 65 88 51
-0.0467499 0.137762 1.194 66 89 52
-0.0449332 0.137878 1.195 65 88 51
-0.0430773 0.137878 1.195 65 88 51
-0.0412214 0.137878 1.195 63 86 49
-0.0393985 0.137993 1.196 62 85 48
-0.0375724 0.138109 1.197 62 83 46
-0.0357135 0.138109 1.197 61 82 45
-0.0338545 0.138109 1.197 61 82 45
-0.0319955 0.138109 1.197 60 81 44
-0.0301365 0.138109 1.197 59 80 43
-0.0282775 0.138109 1.197 60 81 44
-0.0263965 0.137993 1.196 59 80 43
-0.0245185 0.137878 1.195 59 80 43
-0.0226437 0.137762 1.194 59 80 43
-0.020772 0.137647 1.193 59 80 43
-0.0189192 0.137647 1.193 57 78 41
-0.0170521 0.137532 1.192 58 79 42
-0.0152009 0.137532 1.192 59 80 43
-0.0133497 0.137532 1.192 60 81 44
-0.0114985 0.137532 1.192 55 76 39
-0.00964725 0.137532 1.192 57 78 41
-0.00779604 0.137532 1.192 55 76 39
-0.00594482 0.137532 1.192 55 76 39
-0.0040936 0.137532 1.192 55 76 39
-0.00224427 0.137647 1.193 55 76 39
-0.000391497 0.137647 1.193 54 75 38
0.00146127 0.137647 1.193 53 74 37
0.00331404 0.137647 1.193 52 72 38
0.00516681 0.137647 1.193 52 72 38
0.00701958 0.137647 1.193 52 72 38
0.00887235 0.137647 1.193 53 73 39
0.0107251 0.137647 1.193 50 70 36
0.0125779 0.137647 1.193 48 68 34
0.0144307 0.137647 1.193 50 70 36
0.0162834 0.137647 1.193 51 71 37
0.0181362 0.137647 1.193 48 68 34
0.0199722 0.137532 1.192 46 66 32
0.0218234 0.137532 1.192 44 64 30
0.0236746 0.137532 1.192 41 61 27
0.0255259 0.137532 1.192 46 66 32
0.0273541 0.137416 1.191 46 66 32
0.0291793 0.137301 1.19 46 65 33
0.0310274 0.137301 1.19 45 64 32
0.0328479 0.137186 1.189 44 63 31
0.0346652 0.13707 1.188 45 64 32
0.0364795 0.136955 1.187 46 62 31
0.038323 0.136955 1.187 45 61 30
0.0401326 0.136839 1.186 45 61 30
0.0419391 0.136724 1.185 45 61 30
0.0437794 0.136724 1.185 46 62 31
0.0456198 0.136724 1.185 46 62 31
0.0474601 0.136724 1.185 47 63 32
0.0493005 0.136724 1.185 48 64 33
0.051184 0.136839 1.186 47 63 32
0.0530706 0.136955 1.187 47 63 32
0.054914 0.136955 1.187 47 63 32
0.0568053 0.13707 1.188 47 63 32
0.0586997 0.137186 1.189 47 63 32
0.0605971 0.137301 1.19 46 62 31
0.0624452 0.137301 1.19 47 62 34
0.0642393 0.137186 1.189 46 61 33
0.0660859 0.137186 1.189 47 62 34
0.0678753 0.13707 1.188 47 62 34
0.0696616 0.136955 1.187 48 63 35
0.0715051 0.136955 1.187 48 63 35
0.0733485 0.136955 1.187 47 62 34
0.075192 0.136955 1.187 46 61 33
0.0770354 0.136955 1.187 47 62 34
0.0788124 0.136839 1.186 46 61 33
0.0806543 0.136839 1.186 45 60 32
0.0824962 0.136839 1.186 47 62 34
0.0843381 0.136839 1.186 47 62 34
0.08618 0.136839 1.186 47 62 34
0.0880219 0.136839 1.186 50 65 37
0.0898638 0.136839 1.186 49 64 36
0.0917057 0.136839 1.186 50 65 37
0.0935476 0.136839 1.186 48 63 35
0.0953895 0.136839 1.186 48 63 35
0.0972314 0.136839 1.186 48 63 35
0.0991568 0.136955 1.187 49 64 36
0.101 0.136955 1.187 48 63 35
0.102844 0.136955 1.187 48 63 35
0.104687 0.136955 1.187 47 62 34
0.10671 0.137186 1.189 49 64 36
0.108557 0.137186 1.189 52 67 39
0.110403 0.137186 1.189 50 66 35
0.112344 0.137301 1.19 50 66 35
0.114192 0.137301 1.19 49 65 34
0.116138 0.137416 1.191 50 66 35
0.118087 0.137532 1.192 49 65 34
0.120039 0.137647 1.193 47 63 32
0.121891 0.137647 1.193 48 64 33
0.123744 0.137647 1.193 50 66 35
0.125597 0.137647 1.193 50 66 35
0.12745 0.137647 1.193 50 66 35
0.129194 0.137532 1.192 50 66 35
0.131045 0.137532 1.192 49 65 34
0.132896 0.137532 1.192 49 65 34
0.134748 0.137532 1.192 49 65 34
0.136484 0.137416 1.191 49 64 36
0.138334 0.137416 1.191 48 63 35
0.140184 0.137416 1.191 48 63 35
0.142033 0.137416 1.191 48 63 35
0.144004 0.137532 1.192 49 64 36
0.145855 0.137532 1.192 49 64 36
0.147706 0.137532 1.192 52 67 39
0.149557 0.137532 1.192 53 68 40
0.151155 0.137301 1.19 54 70 39
0.153003 0.137301 1.19 52 68 37
0.154851 0.137301 1.19 52 68 37
0.156567 0.137186 1.189 52 68 37
0.158147 0.136955 1.187 53 69 38
0.159991 0.136955 1.187 53 69 38
0.161834 0.136955 1.187 53 69 38
0.163402 0.136724 1.185 53 69 38
0.165242 0.136724 1.185 52 68 37
0.166942 0.136609 1.184 54 70 39
0.16878 0.136609 1.184 53 69 38
0.170619 0.136609 1.184 53 69 38
0.172312 0.136493 1.183 53 69 38
0.17415 0.136493 1.183 54 70 39
0.176136 0.136609 1.184 54 70 39
0.177974 0.136609 1.184 54 70 39
0.179965 0.136724 1.185 54 71 38
0.181805 0.136724 1.185 54 71 38
0.183801 0.136839 1.186 54 71 38
0.185799 0.136955 1.187 55 72 39
0.187643 0.136955 1.187 54 71 38
0.189646 0.13707 1.188 53 70 37
0.191329 0.136955 1.187 54 71 38
0.193173 0.136955 1.187 55 72 39
0.195016 0.136955 1.187 55 72 39
0.19686 0.136955 1.187 56 73 40
0.198703 0.136955 1.187 55 72 39
0.200547 0.136955 1.187 55 72 39
0.20222 0.136839 1.186 54 71 38
0.204062 0.136839 1.186 53 70 37
0.20573 0.136724 1.185 53 70 37
0.20757 0.136724 1.185 53 70 37
0.209411 0.136724 1.185 54 71 38
0.211251 0.136724 1.185 54 71 38
0.212911 0.136609 1.184 55 72 39
0.214569 0.136493 1.183 55 72 39
0.216406 0.136493 1.183 54 71 38
0.218243 0.136493 1.183 52 69 36
0.220081 0.136493 1.183 55 72 39
0.221918 0.136493 1.183 56 73 40
0.223944 0.136609 1.184 56 73 40
0.225783 0.136609 1.184 57 74 41
0.227814 0.136724 1.185 56 73 40
0.229654 0.136724 1.185 55 72 39
0.231495 0.136724 1.185 55 72 39
0.233729 0.136955 1.187 55 72 39
0.235572 0.136955 1.187 55 72 39
0.237416 0.136955 1.187 55 72 39
0.239259 0.136955 1.187 56 73 40
0.241306 0.13707 1.188 55 72 39
0.243151 0.13707 1.188 54 71 38
0.245202 0.137186 1.189 57 74 41
0.247049 0.137186 1.189 57 74 41
0.249104 0.137301 1.19 57 74 41
0.250953 0.137301 1.19 55 72 39
0.252801 0.137301 1.19 54 71 38
0.254863 0.137416 1.191 55 72 39
0.256712 0.137416 1.191 56 73 40
0.258779 0.137532 1.192 56 73 40
0.26063 0.137532 1.192 56 73 40
0.262482 0.137532 1.192 56 74 38
0.264333 0.137532 1.192 59 77 41
0.266407 0.137647 1.193 56 74 38
0.268485 0.137762 1.194 54 72 36
0.270566 0.137878 1.195 55 73 37
0.272422 0.137878 1.195 55 73 37
0.274277 0.137878 1.195 56 74 38
0.276364 0.137993 1.196 56 74 38
0.278454 0.138109 1.197 56 74 38
0.280313 0.138109 1.197 57 75 39
0.282172 0.138109 1.197 56 74 38
0.284031 0.138109 1.197 56 74 38
0.28589 0.138109 1.197 56 74 38
0.287749 0.138109 1.197 55 73 37
0.289366 0.137993 1.196 55 73 37
0.291224 0.137993 1.196 55 73 37
0.292836 0.137878 1.195 55 73 37
0.294692 0.137878 1.195 56 74 38
0.296548 0.137878 1.195 57 75 39
0.297904 0.137647 1.193 56 74 38
0.299506 0.137532 1.192 55 76 39
0.301104 0.137416 1.191 57 78 41
0.3027 0.137301 1.19 58 78 44
0.304548 0.137301 1.19 58 78 44
0.306396 0.137301 1.19 58 78 44
0.308244 0.137301 1.19 60 80 46
0.310092 0.137301 1.19 59 78 46
0.31194 0.137301 1.19 52 71 39
0.313788 0.137301 1.19 70 89 57
0.315636 0.137301 1.19 74 93 61
0.317751 0.137416 1.191 57 77 43
0.319601 0.137416 1.191 60 80 46
0.321451 0.137416 1.191 59 81 42
0.3233 0.137416 1.191 57 79 40
0.32515 0.137416 1.191 70 89 49
0.327274 0.137532 1.192 68 87 47
0.328849 0.137416 1.191 79 99 56
0.330421 0.137301 1.19 82 102 59
0.332269 0.137301 1.19 75 98 54
0.333837 0.137186 1.189 73 96 52
0.335119 0.136955 1.187 69 91 50
0.336962 0.136955 1.187 76 98 57
0.338806 0.136955 1.187 79 101 67
0.340362 0.136839 1.186 77 99 65
0.342492 0.136955 1.187 71 91 62
0.344336 0.136955 1.187 70 90 61
0.348316 0.13707 1.188 72 94 60
0.350161 0.13707 1.188 75 95 61
0.352302 0.137186 1.189 83 103 69
0.354149 0.137186 1.189 84 103 71
0.355995 0.137186 1.189 86 105 73
0.357541 0.13707 1.188 81 97 75
0.359084 0.136955 1.187 70 86 64
0.360319 0.136724 1.185 87 96 94
0.361548 0.136493 1.183 193 202 200
0.362464 0.136147 1.18 118 124 131
0.363679 0.135916 1.178 58 64 71
0.363957 0.135339 1.173 67 74 78
0.364531 0.134878 1.169 61 68 72
0.364153 0.13407 1.162 90 90 90
0.362493 0.132801 1.151 218 218 218
0.362382 0.132109 1.145 246 252 245
0.363206 0.131763 1.142 175 181 174
0.36434 0.131532 1.14 207 213 206
0.36579 0.131417 1.139 233 239 232
0.367236 0.131301 1.138 165 169 169
0.369976 0.131647 1.141 111 115 115
-0.168542 0.140671 1.203 51 78 50
-0.166535 0.140554 1.202 101 128 100
-0.164531 0.140438 1.201 122 150 117
-0.162666 0.140438 1.201 86 114 81
-0.160667 0.140321 1.2 46 73 38
-0.158803 0.140321 1.2 49 76 41
-0.15694 0.140321 1.2 55 82 47
-0.155076 0.140321 1.2 54 81 46
-0.153085 0.140204 1.199 55 79 45
-0.151223 0.140204 1.199 56 80 46
-0.14936 0.140204 1.199 57 82 45
-0.147498 0.140204 1.199 57 82 45
-0.145636 0.140204 1.199 59 82 45
-0.143654 0.140087 1.198 60 83 46
-0.141794 0.140087 1.198 60 83 46
-0.139933 0.140087 1.198 64 87 50
-0.137957 0.13997 1.197 63 87 48
-0.136098 0.13997 1.197 63 87 48
-0.134127 0.139853 1.196 64 88 49
-0.132159 0.139736 1.195 64 88 49
-0.130194 0.139619 1.194 64 88 49
-0.128233 0.139502 1.193 66 90 51
-0.126274 0.139385 1.192 66 90 49
-0.124423 0.139385 1.192 65 89 48
-0.122366 0.139151 1.19 64 88 47
-0.120518 0.139151 1.19 65 89 48
-0.11867 0.139151 1.19 66 90 49
-0.116723 0.139034 1.189 65 89 48
-0.11478 0.138917 1.188 66 90 49
-0.11303 0.139034 1.189 65 89 48
-0.111184 0.139034 1.189 65 89 48
-0.109429 0.139151 1.19 65 89 48
-0.107491 0.139034 1.189 66 90 49
-0.105733 0.139151 1.19 66 90 49
-0.103885 0.139151 1.19 67 92 48
-0.102037 0.139151 1.19 67 92 48
-0.100188 0.139151 1.19 69 92 48
-0.0983404 0.139151 1.19 69 92 48
-0.0964923 0.139151 1.19 67 91 45
-0.0946442 0.139151 1.19 67 91 45
-0.0927181 0.139034 1.189 66 90 44
-0.0907951 0.138917 1.188 67 91 45
-0.0888752 0.1388 1.187 66 90 44
-0.0870317 0.1388 1.187 69 93 47
-0.0851165 0.138684 1.186 72 96 50
-0.0832044 0.138567 1.185 70 94 48
-0.0813641 0.138567 1.185 73 97 51
-0.0795237 0.138567 1.185 77 101 55
-0.0776834 0.138567 1.185 77 101 55
-0.075843 0.138567 1.185 70 94 48
-0.0740651 0.138684 1.186 69 92 48
-0.0722232 0.138684 1.186 72 95 51
-0.0704407 0.1388 1.187 73 96 52
-0.0685972 0.1388 1.187 69 92 48
-0.06681 0.138917 1.188 70 92 51
-0.064965 0.138917 1.188 70 92 51
-0.0631731 0.139034 1.189 73 95 56
-0.0613782 0.139151 1.19 72 94 55
-0.05953 0.139151 1.19 70 92 53
-0.0576819 0.139151 1.19 70 92 53
-0.0558807 0.139268 1.191 69 91 52
-0.0540311 0.139268 1.191 69 91 52
-0.050374 0.139385 1.192 67 89 50
-0.0485228 0.139385 1.192 66 88 49
-0.0467107 0.139502 1.193 67 89 50
-0.0448956 0.139619 1.194 66 88 49
-0.0430773 0.139736 1.195 65 87 48
-0.0412214 0.139736 1.195 64 86 47
-0.0393655 0.139736 1.195 65 87 48
-0.0375097 0.139736 1.195 65 87 48
-0.0356836 0.139853 1.196 64 86 47
-0.0338262 0.139853 1.196 61 82 45
-0.0319688 0.139853 1.196 61 82 45
-0.0300862 0.139736 1.195 61 82 45
-0.0282303 0.139736 1.195 60 81 44
-0.0263523 0.139619 1.194 59 80 43
-0.0244775 0.139502 1.193 59 80 43
-0.0226247 0.139502 1.193 59 80 43
-0.0207546 0.139385 1.192 59 80 43
-0.0189033 0.139385 1.192 58 79 42
-0.0170378 0.139268 1.191 59 80 43
-0.0151881 0.139268 1.191 60 81 44
-0.0133273 0.139151 1.19 59 80 43
-0.0114792 0.139151 1.19 55 76 39
-0.00963916 0.139268 1.191 57 78 41
-0.0077895 0.139268 1.191 57 78 41
-0.00594482 0.139385 1.192 57 78 41
-0.0040936 0.139385 1.192 55 76 39
-0.00224427 0.139502 1.193 55 76 39
-0.000391497 0.139502 1.193 54 75 38
0.00146127 0.139502 1.193 50 71 34
0.00331404 0.139502 1.193 50 70 36
0.00517114 0.139619 1.194 53 73 39
0.00702547 0.139619 1.194 55 75 41
0.00887979 0.139619 1.194 54 74 40
0.0107341 0.139619 1.194 48 68 34
0.0125884 0.139619 1.194 47 67 33
0.0144307 0.139502 1.193 50 70 36
0.0162834 0.139502 1.193 51 71 37
0.0181362 0.139502 1.193 48 68 34
0.0199722 0.139385 1.192 50 70 36
0.0218234 0.139385 1.192 53 73 39
0.0236746 0.139385 1.192 50 70 36
0.0255259 0.139385 1.192 46 66 32
0.0273541 0.139268 1.191 50 70 36
0.0291793 0.139151 1.19 55 74 42
0.0310274 0.139151 1.19 46 65 33
0.0328479 0.139034 1.189 44 63 31
0.0346944 0.139034 1.189 44 63 31
0.0365102 0.138917 1.188 47 63 32
0.038323 0.1388 1.187 46 62 31
0.0401664 0.1388 1.187 47 63 32
0.0419745 0.138684 1.186 47 63 32
0.0437794 0.138567 1.185 46 62 31
0.0456198 0.138567 1.185 47 63 32
0.0474601 0.138567 1.185 47 63 32
0.0493005 0.138567 1.185 46 62 31
0.051184 0.138684 1.186 46 62 31
0.0530706 0.1388 1.187 46 62 31
0.0549603 0.138917 1.188 46 62 31
0.0568053 0.138917 1.188 47 63 32
0.0586997 0.139034 1.189 47 63 32
0.0605971 0.139151 1.19 47 63 32
0.0624452 0.139151 1.19 47 62 34
0.0642934 0.139151 1.19 47 62 34
0.0661415 0.139151 1.19 47 62 34
0.0678753 0.138917 1.188 47 62 34
0.0697203 0.138917 1.188 48 63 35
0.0715051 0.1388 1.187 49 64 36
0.0733485 0.1388 1.187 52 67 39
0.075192 0.1388 1.187 50 65 37
0.0770354 0.1388 1.187 47 62 34
0.0788789 0.1388 1.187 46 61 33
0.0807223 0.1388 1.187 46 61 33
0.0825658 0.1388 1.187 47 62 34
0.0844092 0.1388 1.187 47 62 34
0.0862527 0.1388 1.187 48 63 35
0.0880961 0.1388 1.187 49 64 36
0.0898638 0.138684 1.186 49 64 36
0.0917057 0.138684 1.186 50 65 37
0.0935476 0.138684 1.186 49 64 36
0.0953895 0.138684 1.186 48 64 33
0.0973134 0.1388 1.187 49 65 34
0.0991568 0.1388 1.187 48 64 33
0.101 0.1388 1.187 49 65 34
0.102844 0.1388 1.187 49 65 34
0.104864 0.139034 1.189 49 65 34
0.10671 0.139034 1.189 48 64 33
0.108557 0.139034 1.189 53 69 38
0.110403 0.139034 1.189 50 66 35
0.112344 0.139151 1.19 50 66 35
0.114192 0.139151 1.19 50 66 35
0.116138 0.139268 1.191 50 66 35
0.118087 0.139385 1.192 49 65 34
0.119938 0.139385 1.192 48 64 33
0.121891 0.139502 1.193 48 64 33
0.123848 0.139619 1.194 52 68 37
0.125597 0.139502 1.193 50 66 35
0.12745 0.139502 1.193 50 66 35
0.129194 0.139385 1.192 49 65 34
0.131045 0.139385 1.192 49 65 34
0.132896 0.139385 1.192 49 65 34
0.134748 0.139385 1.192 49 65 34
0.136599 0.139385 1.192 53 69 38
0.13845 0.139385 1.192 48 64 33
0.140301 0.139385 1.192 48 64 33
0.142153 0.139385 1.192 48 64 33
0.144004 0.139385 1.192 48 64 33
0.145855 0.139385 1.192 47 63 32
0.14783 0.139502 1.193 49 64 36
0.149557 0.139385 1.192 54 69 41
0.151409 0.139385 1.192 54 69 41
0.153131 0.139268 1.191 53 68 40
0.154851 0.139151 1.19 53 69 38
0.156699 0.139151 1.19 53 69 38
0.158414 0.139034 1.189 53 69 38
0.159991 0.1388 1.187 53 69 38
0.161834 0.1388 1.187 53 69 38
0.163402 0.138567 1.185 53 69 38
0.165242 0.138567 1.185 53 69 38
0.166942 0.13845 1.184 55 71 40
0.16878 0.13845 1.184 53 69 38
0.170475 0.138333 1.183 54 70 39
0.172167 0.138216 1.182 54 70 39
0.174002 0.138216 1.182 54 70 39
0.175838 0.138216 1.182 55 71 40
0.177674 0.138216 1.182 54 70 39
0.179661 0.138333 1.183 54 71 38
0.181652 0.13845 1.184 54 71 38
0.183646 0.138567 1.185 55 72 39
0.185486 0.138567 1.185 55 72 39
0.187643 0.1388 1.187 53 70 37
0.189486 0.1388 1.187 54 71 38
0.191329 0.1388 1.187 55 72 39
0.193173 0.1388 1.187 56 73 40
0.195016 0.1388 1.187 56 73 40
0.19686 0.1388 1.187 55 72 39
0.198703 0.1388 1.187 54 71 38
0.200547 0.1388 1.187 54 71 38
0.20239 0.1388 1.187 52 69 36
0.204062 0.138684 1.186 53 70 37
0.205903 0.138684 1.186 53 70 37
0.207745 0.138684 1.186 53 70 37
0.209411 0.138567 1.185 54 71 38
0.211251 0.138567 1.185 54 71 38
0.213091 0.138567 1.185 55 72 39
0.21475 0.13845 1.184 59 76 43
0.216406 0.138333 1.183 62 79 46
0.218243 0.138333 1.183 47 64 31
0.220081 0.138333 1.183 55 72 39
0.221918 0.138333 1.183 57 74 41
0.223944 0.13845 1.184 54 71 38
0.225783 0.13845 1.184 57 74 41
0.227814 0.138567 1.185 56 73 40
0.229654 0.138567 1.185 55 72 39
0.231495 0.138567 1.185 55 72 39
0.233335 0.138567 1.185 55 72 39
0.235374 0.138684 1.186 54 71 38
0.237416 0.1388 1.187 55 72 39
0.239259 0.1388 1.187 56 73 40
0.241103 0.1388 1.187 56 73 40
0.242946 0.1388 1.187 55 72 39
0.244996 0.138917 1.188 56 73 40
0.247049 0.139034 1.189 57 74 41
0.248895 0.139034 1.189 59 76 43
0.250953 0.139151 1.19 56 73 40
0.252801 0.139151 1.19 53 70 37
0.254649 0.139151 1.19 57 74 41
0.256497 0.139151 1.19 57 74 41
0.258562 0.139268 1.191 59 77 41
0.26063 0.139385 1.192 57 75 39
0.262482 0.139385 1.192 59 77 41
0.264333 0.139385 1.192 57 75 39
0.266407 0.139502 1.193 56 74 38
0.268485 0.139619 1.194 55 73 37
0.270566 0.139736 1.195 56 74 38
0.272422 0.139736 1.195 57 75 39
0.274277 0.139736 1.195 59 77 41
0.276364 0.139853 1.196 57 75 39
0.278454 0.13997 1.197 56 74 38
0.280313 0.13997 1.197 57 75 39
0.281937 0.139853 1.196 56 74 38
0.284031 0.13997 1.197 55 73 37
0.285652 0.139853 1.196 55 73 37
0.287509 0.139853 1.196 56 74 38
0.289124 0.139736 1.195 56 74 38
0.29098 0.139736 1.195 55 73 37
0.292836 0.139736 1.195 55 73 37
0.294692 0.139736 1.195 56 74 38
0.2963 0.139619 1.194 57 75 39
0.297904 0.139502 1.193 57 75 39
0.299506 0.139385 1.192 57 78 41
0.301104 0.139268 1.191 58 79 42
0.302954 0.139268 1.191 58 78 44
0.304548 0.139151 1.19 59 79 45
0.306396 0.139151 1.19 58 78 44
0.308244 0.139151 1.19 60 80 46
0.310092 0.139151 1.19 60 80 46
0.31194 0.139151 1.19 55 75 41
0.313788 0.139151 1.19 64 84 50
0.315902 0.139268 1.191 73 93 59
0.317751 0.139268 1.191 58 78 44
0.319601 0.139268 1.191 60 80 46
0.321451 0.139268 1.191 59 81 42
0.323572 0.139385 1.192 55 77 38
0.325423 0.139385 1.192 70 89 49
0.327274 0.139385 1.192 64 83 43
0.329125 0.139385 1.192 82 102 59
0.330699 0.139268 1.191 82 102 59
0.332269 0.139151 1.19 72 95 51
0.333837 0.139034 1.189 76 99 55
0.335683 0.139034 1.189 87 107 73
0.336962 0.1388 1.187 124 144 110
0.338806 0.1388 1.187 91 113 86
0.340649 0.1388 1.187 76 98 71
0.342492 0.1388 1.187 72 90 73
0.346471 0.138917 1.188 155 177 150
0.348316 0.138917 1.188 106 128 101
0.350456 0.139034 1.189 77 98 66
0.352599 0.139151 1.19 80 101 69
0.354447 0.139151 1.19 83 102 70
0.356295 0.139151 1.19 87 106 74
0.358143 0.139151 1.19 79 95 73
0.359386 0.138917 1.188 70 86 64
0.360623 0.138684 1.186 91 102 100
0.361548 0.138333 1.183 195 206 204
0.362464 0.137982 1.18 136 145 149
0.363679 0.137748 1.178 57 66 70
0.364267 0.13728 1.174 68 75 79
0.364531 0.136696 1.169 61 68 72
0.364153 0.135877 1.162 98 97 89
0.362493 0.134591 1.151 222 221 213
0.362382 0.133889 1.145 249 251 245
0.363206 0.133538 1.142 171 173 167
0.36434 0.133305 1.14 201 202 199
0.36579 0.133188 1.139 233 234 231
0.367881 0.133305 1.14 173 172 176
0.3703 0.133538 1.142 112 111 115
-0.168262 0.142305 1.201 60 87 57
-0.166396 0.142305 1.201 44 71 41
-0.164394 0.142186 1.2 87 113 80
-0.162531 0.142186 1.2 83 109 76
-0.160667 0.142186 1.2 51 75 41
-0.158803 0.142186 1.2 53 77 43
-0.156809 0.142068 1.199 58 82 48
-0.154947 0.142068 1.199 57 81 47
-0.153085 0.142068 1.199 57 81 47
-0.151096 0.141949 1.198 57 81 47
-0.14936 0.142068 1.199 58 82 48
-0.147375 0.141949 1.198 60 84 50
-0.145515 0.141949 1.198 60 82 48
-0.143654 0.141949 1.198 62 84 50
-0.141675 0.141831 1.197 63 86 49
-0.139816 0.141831 1.197 64 87 50
-0.137957 0.141831 1.197 63 86 49
-0.136098 0.141831 1.197 63 86 49
-0.134015 0.141594 1.195 64 88 49
-0.132159 0.141594 1.195 64 88 49
-0.130194 0.141475 1.194 65 89 50
-0.128233 0.141357 1.193 66 90 51
-0.126274 0.141239 1.192 65 89 50
-0.124423 0.141239 1.192 65 89 50
-0.122469 0.14112 1.191 65 89 48
-0.120518 0.141002 1.19 66 90 49
-0.11867 0.141002 1.19 66 90 49
-0.116821 0.141002 1.19 65 89 48
-0.114973 0.141002 1.19 66 90 49
-0.113125 0.141002 1.19 66 90 49
-0.111277 0.141002 1.19 65 89 48
-0.109429 0.141002 1.19 64 88 47
-0.107581 0.141002 1.19 64 88 47
-0.105733 0.141002 1.19 64 88 47
-0.103885 0.141002 1.19 66 91 47
-0.102037 0.141002 1.19 66 91 47
-0.100188 0.141002 1.19 69 92 48
-0.098423 0.14112 1.191 69 92 48
-0.0964923 0.141002 1.19 67 91 45
-0.0946442 0.141002 1.19 66 90 44
-0.092796 0.141002 1.19 67 91 45
-0.0908715 0.140883 1.189 70 94 48
-0.0888752 0.140646 1.187 69 93 47
-0.0870317 0.140646 1.187 72 96 50
-0.0851165 0.140528 1.186 72 96 50
-0.0832044 0.140409 1.185 72 96 50
-0.0813641 0.140409 1.185 72 96 50
-0.0795237 0.140409 1.185 72 96 50
-0.0776834 0.140409 1.185 73 97 51
-0.075843 0.140409 1.185 73 97 51
-0.0740027 0.140409 1.185 73 96 52
-0.0721623 0.140409 1.185 72 95 51
-0.0703813 0.140528 1.186 73 96 52
-0.0685972 0.140646 1.187 70 93 49
-0.0667538 0.140646 1.187 70 92 51
-0.0649103 0.140646 1.187 72 94 53
-0.0630669 0.140646 1.187 73 95 56
-0.061275 0.140765 1.188 73 95 56
-0.05943 0.140765 1.188 70 92 53
-0.0576335 0.140883 1.189 69 91 52
-0.0558338 0.141002 1.19 69 91 52
-0.0539857 0.141002 1.19 68 90 51
-0.0521376 0.141002 1.19 68 90 51
-0.0503318 0.14112 1.191 70 92 53
-0.0485228 0.141239 1.192 69 91 52
-0.0466716 0.141239 1.192 69 91 52
-0.0448204 0.141239 1.192 66 88 49
-0.0411524 0.141357 1.193 61 83 44
-0.0393326 0.141475 1.194 65 87 48
-0.0374783 0.141475 1.194 66 88 49
-0.0356538 0.141594 1.195 70 92 53
-0.0337979 0.141594 1.195 66 88 49
-0.031942 0.141594 1.195 59 81 42
-0.0300862 0.141594 1.195 57 79 40
-0.0282067 0.141475 1.194 59 81 42
-0.0263303 0.141357 1.193 59 81 42
-0.0244775 0.141357 1.193 59 81 42
-0.0226058 0.141239 1.192 60 82 43
-0.0207546 0.141239 1.192 60 82 43
-0.0189033 0.141239 1.192 59 81 42
-0.0170378 0.14112 1.191 59 81 42
-0.0151754 0.141002 1.19 59 81 42
-0.0133273 0.141002 1.19 59 81 42
-0.0114888 0.14112 1.191 58 80 41
-0.00963916 0.14112 1.191 58 80 41
-0.00779604 0.141239 1.192 58 80 41
-0.00594482 0.141239 1.192 58 80 41
-0.00409704 0.141357 1.193 57 78 41
-0.00224427 0.141357 1.193 57 78 41
-0.000391497 0.141357 1.193 57 78 41
0.0014625 0.141475 1.194 58 79 42
0.00331682 0.141475 1.194 57 78 41
0.00517114 0.141475 1.194 57 78 41
0.00702547 0.141475 1.194 55 76 39
0.00887979 0.141475 1.194 53 74 37
0.0107341 0.141475 1.194 53 74 37
0.0125884 0.141475 1.194 52 73 36
0.0144428 0.141475 1.194 52 73 36
