ply
format ascii 1.0
comment Created by Open3D
element vertex 1408
property double x
property double y
property double z
property uchar red
property uchar green
property uchar blue
end_header
0.310092 0.148403 1.19 67 87 53
0.31194 0.148403 1.19 64 84 50
0.313788 0.148403 1.19 64 84 50
0.315636 0.148403 1.19 64 84 50
0.317484 0.148403 1.19 64 85 48
0.319601 0.148527 1.191 64 85 48
0.321721 0.148652 1.192 65 87 48
0.323843 0.148777 1.193 61 83 44
0.325969 0.148902 1.194 62 84 43
0.328098 0.149026 1.195 79 101 60
0.329678 0.148902 1.194 90 112 71
0.331532 0.148902 1.194 84 106 65
0.333107 0.148777 1.193 84 107 63
0.334679 0.148652 1.192 84 107 63
0.33653 0.148652 1.192 80 104 63
0.338098 0.148527 1.191 71 95 54
0.339662 0.148403 1.19 106 130 91
0.34151 0.148403 1.19 187 211 172
0.343358 0.148403 1.19 156 177 145
0.345206 0.148403 1.19 75 96 64
0.347054 0.148403 1.19 81 99 70
0.348902 0.148403 1.19 90 108 79
0.35075 0.148403 1.19 90 109 77
0.352599 0.148403 1.19 91 110 78
0.354447 0.148403 1.19 91 107 76
0.355995 0.148278 1.189 89 105 74
0.357541 0.148153 1.188 83 95 76
0.359084 0.148029 1.187 76 88 69
0.360319 0.147779 1.185 100 109 107
0.361242 0.147405 1.182 215 224 222
0.362464 0.147156 1.18 146 153 157
0.363061 0.146657 1.176 61 68 72
0.363957 0.146283 1.173 66 74 76
0.363908 0.145534 1.167 65 73 75
0.363526 0.144662 1.16 96 103 78
0.362178 0.143414 1.15 220 227 202
0.362698 0.142916 1.146 247 251 240
0.363524 0.142541 1.143 149 153 142
0.36498 0.142417 1.142 167 169 163
0.366753 0.142417 1.142 209 211 205
0.368849 0.142541 1.143 185 184 188
0.371597 0.142916 1.146 150 149 153
-0.166861 0.150379 1.191 110 126 104
-0.165149 0.150506 1.192 103 119 97
-0.163298 0.150506 1.192 60 78 49
-0.161447 0.150506 1.192 58 76 47
-0.159462 0.150379 1.191 66 85 53
-0.15748 0.150253 1.19 64 83 51
-0.155632 0.150253 1.19 65 86 54
-0.153784 0.150253 1.19 64 85 53
-0.151936 0.150253 1.19 64 85 53
-0.150087 0.150253 1.19 64 85 53
-0.148364 0.150379 1.191 65 87 53
-0.146637 0.150506 1.192 66 88 54
-0.144786 0.150506 1.192 65 90 53
-0.142935 0.150506 1.192 65 90 53
-0.141084 0.150506 1.192 65 90 53
-0.139349 0.150632 1.193 64 89 52
-0.137612 0.150758 1.194 65 91 52
-0.135757 0.150758 1.194 68 94 55
-0.134015 0.150884 1.195 68 94 55
-0.132159 0.150884 1.195 65 91 52
-0.130303 0.150884 1.195 64 90 51
-0.128555 0.151011 1.196 65 91 52
-0.126804 0.151137 1.197 66 92 53
-0.124945 0.151137 1.197 65 91 52
-0.123188 0.151263 1.198 71 95 56
-0.121429 0.151389 1.199 70 94 55
-0.119667 0.151516 1.2 68 92 53
-0.118 0.151768 1.202 68 92 53
-0.116229 0.151894 1.203 67 91 50
-0.114551 0.152147 1.205 71 95 54
-0.112773 0.152273 1.206 71 95 54
-0.1109 0.152273 1.206 67 91 50
-0.109208 0.152526 1.208 70 93 49
-0.107332 0.152526 1.208 69 92 48
-0.105543 0.152652 1.209 67 90 46
-0.103666 0.152652 1.209 70 93 49
-0.101788 0.152652 1.209 72 95 51
-0.0998279 0.152526 1.208 70 93 49
-0.0979518 0.152526 1.208 70 93 49
-0.0960757 0.152526 1.208 72 95 51
-0.0941217 0.1524 1.207 73 96 52
-0.0920943 0.152147 1.205 73 96 52
-0.0901481 0.152021 1.204 74 97 53
-0.0882049 0.151894 1.203 73 96 52
-0.0863366 0.151894 1.203 72 95 51
-0.0843981 0.151768 1.202 74 97 53
-0.0824627 0.151642 1.201 72 94 53
-0.0805975 0.151642 1.201 75 97 56
-0.0786667 0.151516 1.2 76 98 57
-0.0768031 0.151516 1.2 76 98 57
-0.0749394 0.151516 1.2 76 98 57
-0.0730758 0.151516 1.2 75 97 56
-0.0712121 0.151516 1.2 75 97 56
-0.0693485 0.151516 1.2 76 98 57
-0.0674286 0.151389 1.199 76 98 57
-0.0655119 0.151263 1.198 77 99 58
-0.0635982 0.151137 1.197 79 101 60
-0.0616876 0.151011 1.196 79 101 60
-0.0597802 0.150884 1.195 79 101 60
-0.0578758 0.150758 1.194 75 97 56
-0.0558338 0.150253 1.19 76 98 57
-0.0538496 0.149874 1.187 77 99 58
-0.0518747 0.149495 1.184 77 99 60
-0.0498669 0.14899 1.18 77 99 60
-0.0478308 0.148359 1.175 77 99 60
-0.0438427 0.147223 1.166 76 98 59
-0.0418877 0.146718 1.162 77 99 60
-0.0398071 0.145708 1.154 83 104 67
-0.0378832 0.145203 1.15 84 105 68
-0.036003 0.144824 1.147 86 107 70
-0.0341322 0.144445 1.144 84 105 68
-0.0322706 0.144066 1.141 83 100 67
-0.0304184 0.143687 1.138 64 81 48
-0.0285504 0.143182 1.134 69 73 55
-0.0267184 0.142804 1.131 127 131 113
-0.0248957 0.142425 1.128 192 194 183
-0.0230413 0.141793 1.123 211 213 202
-0.0212593 0.141541 1.121 217 216 213
-0.0195009 0.141415 1.12 208 207 204
-0.0177298 0.141162 1.118 188 189 186
-0.0160078 0.141288 1.119 202 203 200
-0.01427 0.141288 1.119 253 254 251
-0.0125321 0.141288 1.119 254 255 252
-0.0108039 0.141415 1.12 254 255 252
-0.00906453 0.141415 1.12 254 255 252
-0.00733167 0.141541 1.121 254 255 252
-0.00559571 0.141667 1.122 254 255 252
-0.00385664 0.141793 1.123 254 255 252
-0.00211446 0.14192 1.124 254 255 252
-0.000369182 0.142046 1.125 254 255 252
0.00137798 0.142046 1.125 254 255 252
0.00312792 0.142172 1.126 254 255 252
0.00488097 0.142299 1.127 254 255 252
0.00663124 0.142299 1.127 254 255 252
0.00838151 0.142299 1.127 254 255 252
0.0119031 0.142551 1.129 254 255 252
0.0136565 0.142551 1.129 254 255 252
0.0154099 0.142551 1.129 254 255 252
0.0171633 0.142551 1.129 254 255 250
0.0189166 0.142551 1.129 254 255 250
0.02067 0.142551 1.129 254 255 247
0.0224035 0.142425 1.128 254 255 247
0.0241768 0.142551 1.129 253 255 246
0.0259301 0.142551 1.129 233 237 226
0.029463 0.142677 1.13 220 224 213
0.0313284 0.143182 1.134 239 243 232
0.0331479 0.143435 1.136 239 243 232
0.0350658 0.144066 1.141 239 243 232
0.0369347 0.144445 1.144 224 228 217
0.0388805 0.145076 1.149 190 199 185
0.0428927 0.146591 1.161 60 71 57
0.0466991 0.147223 1.166 62 75 54
0.0486764 0.147728 1.17 64 77 56
0.0506661 0.148233 1.174 67 80 59
0.0526235 0.148612 1.177 66 79 58
0.0545902 0.14899 1.18 70 85 59
0.0565184 0.149243 1.182 63 78 52
0.0584034 0.149369 1.183 59 74 46
0.0602916 0.149495 1.184 60 75 47
0.0621829 0.149622 1.185 60 75 47
0.0640232 0.149622 1.185 60 75 47
0.0658636 0.149622 1.185 59 74 46
0.067761 0.149748 1.186 59 74 46
0.0696616 0.149874 1.187 59 74 46
0.0715051 0.149874 1.187 57 72 44
0.0734721 0.150127 1.189 56 71 43
0.075382 0.150253 1.19 56 71 43
0.0772301 0.150253 1.19 56 71 43
0.0791447 0.150379 1.191 57 72 44
0.0810624 0.150506 1.192 57 72 44
0.0829136 0.150506 1.192 57 72 44
0.0848359 0.150632 1.193 57 72 44
0.0866887 0.150632 1.193 56 71 43
0.0885414 0.150632 1.193 57 73 42
0.0903184 0.150506 1.192 57 73 42
0.0921697 0.150506 1.192 57 73 42
0.0940209 0.150506 1.192 57 73 42
0.0958721 0.150506 1.192 56 72 41
0.0977233 0.150506 1.192 55 71 40
0.0995745 0.150506 1.192 54 70 39
0.101426 0.150506 1.192 55 71 40
0.103277 0.150506 1.192 54 70 39
0.105128 0.150506 1.192 56 72 41
0.106979 0.150506 1.192 56 72 41
0.108831 0.150506 1.192 56 72 41
0.110682 0.150506 1.192 57 71 40
0.112627 0.150632 1.193 56 70 39
0.114384 0.150506 1.192 57 71 40
0.116431 0.150758 1.194 58 72 41
0.118285 0.150758 1.194 61 75 44
0.120139 0.150758 1.194 61 75 44
0.122096 0.150884 1.195 59 75 44
0.123952 0.150884 1.195 57 73 42
0.125807 0.150884 1.195 56 72 41
0.127663 0.150884 1.195 57 73 42
0.129519 0.150884 1.195 57 73 42
0.131265 0.150758 1.194 59 75 44
0.133008 0.150632 1.193 56 72 41
0.134861 0.150632 1.193 55 71 40
0.136713 0.150632 1.193 60 76 45
0.13845 0.150506 1.192 60 76 45
0.140301 0.150506 1.192 61 77 46
0.142153 0.150506 1.192 61 77 46
0.143883 0.150379 1.191 61 77 46
0.14561 0.150253 1.19 60 76 45
0.147458 0.150253 1.19 61 77 46
0.149306 0.150253 1.19 60 76 45
0.151028 0.150127 1.189 59 75 44
0.152874 0.150127 1.189 57 73 42
0.154721 0.150127 1.189 56 72 41
0.156436 0.150001 1.188 61 77 46
0.158147 0.149874 1.187 57 73 42
0.159991 0.149874 1.187 57 73 42
0.161834 0.149874 1.187 59 75 44
0.16354 0.149748 1.186 59 75 44
0.165382 0.149748 1.186 59 76 43
0.167224 0.149748 1.186 59 76 43
0.168923 0.149622 1.185 55 72 39
0.170763 0.149622 1.185 60 77 44
0.172604 0.149622 1.185 60 77 44
0.174297 0.149495 1.184 59 76 43
0.175987 0.149369 1.183 56 73 40
0.177824 0.149369 1.183 57 74 41
0.179661 0.149369 1.183 56 73 40
0.181498 0.149369 1.183 57 74 41
0.183491 0.149495 1.184 60 77 44
0.185173 0.149369 1.183 59 76 43
0.187168 0.149495 1.184 59 76 43
0.189167 0.149622 1.185 59 76 43
0.191007 0.149622 1.185 61 78 45
0.192847 0.149622 1.185 61 78 45
0.194852 0.149748 1.186 60 77 44
0.196694 0.149748 1.186 60 77 44
0.198536 0.149748 1.186 61 78 45
0.200378 0.149748 1.186 67 84 51
0.20222 0.149748 1.186 68 85 52
0.204062 0.149748 1.186 66 83 50
0.205903 0.149748 1.186 61 78 45
0.20757 0.149622 1.185 61 78 45
0.209411 0.149622 1.185 60 77 44
0.211251 0.149622 1.185 60 77 44
0.213091 0.149622 1.185 57 75 39
0.214932 0.149622 1.185 57 75 39
0.216772 0.149622 1.185 57 75 39
0.218612 0.149622 1.185 59 77 41
0.220639 0.149748 1.186 60 78 42
0.222668 0.149874 1.187 60 78 42
0.224512 0.149874 1.187 61 80 42
0.226546 0.150001 1.188 60 79 41
0.228583 0.150127 1.189 59 78 40
0.230623 0.150253 1.19 60 79 41
0.232667 0.150379 1.191 60 79 41
0.234516 0.150379 1.191 57 76 38
0.236565 0.150506 1.192 54 72 36
0.238416 0.150506 1.192 59 77 41
0.240267 0.150506 1.192 62 80 44
0.242118 0.150506 1.192 61 79 43
0.243969 0.150506 1.192 61 79 43
0.245614 0.150379 1.191 60 78 42
0.247464 0.150379 1.191 60 78 42
0.249104 0.150253 1.19 61 79 43
0.250953 0.150253 1.19 61 79 43
0.252588 0.150127 1.189 60 78 42
0.254221 0.150001 1.188 59 77 41
0.256066 0.150001 1.188 59 77 41
0.257694 0.149874 1.187 61 79 43
0.259537 0.149874 1.187 60 78 42
0.26116 0.149748 1.186 60 78 42
0.263002 0.149748 1.186 59 77 41
0.264621 0.149622 1.185 59 77 41
0.266461 0.149622 1.185 60 78 42
0.268302 0.149622 1.185 61 79 43
0.270142 0.149622 1.185 61 79 43
0.271982 0.149622 1.185 61 79 43
0.274054 0.149748 1.186 61 79 43
0.275896 0.149748 1.186 61 79 43
0.277972 0.149874 1.187 61 79 43
0.279815 0.149874 1.187 62 80 44
0.282133 0.150127 1.189 62 80 44
0.284219 0.150253 1.19 63 81 45
0.286067 0.150253 1.19 62 80 44
0.287915 0.150253 1.19 62 80 44
0.289763 0.150253 1.19 62 80 44
0.291611 0.150253 1.19 62 80 44
0.293459 0.150253 1.19 63 81 45
0.295307 0.150253 1.19 61 79 43
0.296906 0.150127 1.189 63 81 45
0.298501 0.150001 1.188 63 81 45
0.300346 0.150001 1.188 63 81 45
0.302191 0.150001 1.188 62 80 44
0.304036 0.150001 1.188 63 81 45
0.305881 0.150001 1.188 66 84 48
0.307726 0.150001 1.188 68 86 50
0.309571 0.150001 1.188 67 87 53
0.311678 0.150127 1.189 66 86 52
0.313525 0.150127 1.189 67 87 53
0.315636 0.150253 1.19 67 87 53
0.317484 0.150253 1.19 66 86 52
0.319333 0.150253 1.19 66 86 52
0.321451 0.150379 1.191 66 87 50
0.323572 0.150506 1.192 65 86 49
0.325696 0.150632 1.193 66 88 49
0.327823 0.150758 1.194 76 98 59
0.329954 0.150884 1.195 91 113 72
0.331532 0.150758 1.194 86 108 67
0.333386 0.150758 1.194 86 108 67
0.334679 0.150506 1.192 87 109 68
0.33653 0.150506 1.192 82 104 63
0.338381 0.150506 1.192 77 99 58
0.339947 0.150379 1.191 75 97 58
0.34151 0.150253 1.19 126 148 109
0.343358 0.150253 1.19 110 131 94
0.345206 0.150253 1.19 77 98 61
0.347054 0.150253 1.19 89 109 75
0.348902 0.150253 1.19 91 111 77
0.35075 0.150253 1.19 90 110 76
0.352599 0.150253 1.19 90 110 76
0.354149 0.150127 1.189 91 108 75
0.355995 0.150127 1.189 89 106 73
0.35724 0.149874 1.187 93 109 87
0.359084 0.149874 1.187 74 90 68
0.360319 0.149622 1.185 102 108 108
0.361242 0.149243 1.182 217 223 223
0.362464 0.14899 1.18 150 154 159
0.36337 0.148612 1.177 64 68 73
0.363957 0.148107 1.173 65 73 75
0.363908 0.147349 1.167 66 74 76
0.363526 0.146465 1.16 91 104 76
0.362493 0.145329 1.151 215 228 200
0.362698 0.144698 1.146 243 251 239
0.363524 0.144319 1.143 133 141 129
0.36498 0.144192 1.142 139 145 138
0.366753 0.144192 1.142 191 197 190
0.368849 0.144319 1.143 154 154 155
0.371597 0.144698 1.146 108 108 109
-0.166861 0.152231 1.191 109 124 104
-0.165149 0.152359 1.192 110 125 105
-0.163298 0.152359 1.192 62 80 53
-0.161447 0.152359 1.192 57 75 48
-0.159596 0.152359 1.192 64 84 55
-0.157745 0.152359 1.192 60 80 51
-0.155893 0.152359 1.192 63 84 52
-0.153913 0.152231 1.191 65 86 54
-0.152063 0.152231 1.191 63 86 54
-0.150214 0.152231 1.191 64 87 55
-0.148488 0.152359 1.192 64 88 54
-0.146637 0.152359 1.192 64 88 54
-0.144786 0.152359 1.192 64 88 54
-0.143055 0.152487 1.193 64 88 54
-0.141202 0.152487 1.193 65 90 53
-0.139466 0.152615 1.194 66 91 54
-0.137612 0.152615 1.194 66 92 53
-0.135871 0.152742 1.195 68 94 55
-0.134015 0.152742 1.195 68 94 55
-0.132159 0.152742 1.195 64 90 51
-0.130303 0.152742 1.195 65 91 52
-0.128448 0.152742 1.195 69 95 56
-0.126698 0.15287 1.196 70 94 55
-0.124945 0.152998 1.197 67 91 52
-0.123086 0.152998 1.197 71 95 56
-0.121328 0.153126 1.198 70 94 55
-0.119667 0.153382 1.2 71 95 56
-0.117901 0.153509 1.201 71 95 56
-0.116133 0.153637 1.202 71 95 54
-0.114361 0.153765 1.203 72 96 55
-0.11268 0.154021 1.205 71 95 54
-0.1109 0.154148 1.206 68 92 51
-0.109118 0.154276 1.207 70 93 49
-0.107243 0.154276 1.207 69 92 48
-0.105456 0.154404 1.208 67 90 46
-0.10358 0.154404 1.208 72 95 51
-0.101704 0.154404 1.208 72 95 51
-0.0997452 0.154276 1.207 72 95 51
-0.0978707 0.154276 1.207 72 95 51
-0.0959167 0.154148 1.206 72 95 51
-0.0940437 0.154148 1.206 72 95 51
-0.0920179 0.153893 1.204 72 95 51
-0.0900732 0.153765 1.203 73 96 52
-0.0882049 0.153765 1.203 72 95 51
-0.0862648 0.153637 1.202 73 95 54
-0.0843981 0.153637 1.202 74 96 55
-0.0824627 0.153509 1.201 75 97 56
-0.0805975 0.153509 1.201 76 98 57
-0.0787323 0.153509 1.201 76 98 57
-0.0768671 0.153509 1.201 76 98 57
-0.0750019 0.153509 1.201 76 98 57
-0.0731367 0.153509 1.201 77 99 58
-0.0712715 0.153509 1.201 77 99 58
-0.0694063 0.153509 1.201 77 99 58
-0.0674849 0.153382 1.2 77 99 58
-0.0655665 0.153254 1.199 79 101 60
-0.0636513 0.153126 1.198 79 101 60
-0.0617392 0.152998 1.197 79 101 60
-0.0598302 0.15287 1.196 77 99 58
-0.0579243 0.152742 1.195 74 96 55
-0.0558807 0.152231 1.191 75 97 56
-0.0539857 0.152103 1.19 76 98 57
-0.0520062 0.15172 1.187 74 98 57
-0.0500359 0.151336 1.184 74 98 57
-0.0480343 0.150825 1.18 75 99 58
-0.0460843 0.150442 1.177 74 98 57
-0.0440683 0.149803 1.172 74 98 59
-0.042104 0.149291 1.168 74 98 59
-0.0401866 0.148908 1.165 73 97 58
-0.0382785 0.148524 1.162 73 97 58
-0.0362227 0.147502 1.154 75 98 61
-0.034341 0.147118 1.151 77 100 63
-0.0324686 0.146735 1.148 81 102 65
-0.0306056 0.146352 1.145 73 94 57
-0.0287266 0.14584 1.141 73 80 60
-0.0268365 0.145201 1.136 81 88 68
-0.0231644 0.144306 1.129 213 216 203
-0.0213162 0.143667 1.124 220 220 214
-0.0195183 0.143284 1.121 212 212 206
-0.0177615 0.143156 1.12 191 190 187
-0.0160221 0.143156 1.12 182 181 178
-0.0142827 0.143156 1.12 253 254 251
-0.0125433 0.143156 1.12 254 255 252
-0.0108039 0.143156 1.12 254 255 252
-0.00907263 0.143284 1.121 254 255 252
-0.00733167 0.143284 1.121 251 255 252
-0.00559571 0.143412 1.122 251 255 252
-0.00385664 0.14354 1.123 251 255 252
-0.00211446 0.143667 1.124 251 255 252
-0.000369182 0.143795 1.125 251 255 252
0.00137798 0.143795 1.125 251 255 252
0.00312792 0.143923 1.126 251 255 252
0.00487664 0.143923 1.126 251 255 252
0.00663124 0.144051 1.127 251 255 252
0.0101408 0.144179 1.128 251 255 252
0.0119031 0.144306 1.129 251 255 252
0.0136686 0.144434 1.13 251 255 250
0.0154372 0.144562 1.131 251 255 250
0.0172089 0.14469 1.132 251 255 249
0.0189837 0.144818 1.133 251 255 249
0.0207616 0.144946 1.134 251 255 247
0.0225426 0.145073 1.135 251 255 247
0.0243481 0.145329 1.137 252 255 245
0.0261368 0.145457 1.138 229 233 222
0.0279042 0.145457 1.138 236 239 231
0.0297237 0.145712 1.14 235 238 230
0.031577 0.146096 1.143 239 240 232
0.0334397 0.146479 1.146 228 229 221
0.0353117 0.146863 1.149 204 207 194
0.0372575 0.147502 1.154 161 164 151
0.0411605 0.148652 1.163 65 73 50
0.0449653 0.149291 1.168 69 81 57
0.0469394 0.149803 1.172 74 87 61
0.0488844 0.150186 1.175 70 83 57
0.0508819 0.150697 1.179 67 82 56
0.0527576 0.150825 1.18 68 83 57
0.0546827 0.151081 1.182 66 81 53
0.056614 0.151336 1.184 62 77 49
0.0584528 0.151336 1.184 59 74 46
0.0603425 0.151464 1.185 59 74 46
0.0621829 0.151464 1.185 60 75 47
0.0640772 0.151592 1.186 59 74 46
0.0659191 0.151592 1.186 59 74 46
0.0678182 0.15172 1.187 60 75 47
0.0696616 0.15172 1.187 59 74 46
0.0715051 0.15172 1.187 56 71 43
0.0734721 0.151976 1.189 56 71 43
0.0753187 0.151976 1.189 57 72 44
0.0772301 0.152103 1.19 57 72 44
0.0790782 0.152103 1.19 59 74 46
0.0809944 0.152231 1.191 57 72 44
0.0829136 0.152359 1.192 57 72 44
0.0847648 0.152359 1.192 56 71 43
0.086616 0.152359 1.192 56 71 43
0.0884672 0.152359 1.192 55 71 40
0.0903184 0.152359 1.192 54 70 39
0.0921697 0.152359 1.192 55 71 40
0.0940209 0.152359 1.192 56 72 41
0.0958721 0.152359 1.192 56 72 41
0.0976413 0.152231 1.191 54 70 39
0.099491 0.152231 1.191 55 71 40
0.101341 0.152231 1.191 55 71 40
0.103277 0.152359 1.192 55 71 40
0.105128 0.152359 1.192 50 66 35
0.106979 0.152359 1.192 61 77 46
0.108831 0.152359 1.192 64 80 49
0.110682 0.152359 1.192 56 72 41
0.112533 0.152359 1.192 54 70 39
0.114384 0.152359 1.192 54 70 39
0.116333 0.152487 1.193 55 71 40
0.118285 0.152615 1.194 56 72 41
0.120139 0.152615 1.194 57 73 42
0.122096 0.152742 1.195 57 73 42
0.123952 0.152742 1.195 56 72 41
0.125807 0.152742 1.195 57 73 42
0.127663 0.152742 1.195 59 75 44
0.129519 0.152742 1.195 59 75 44
0.131265 0.152615 1.194 60 76 45
0.133119 0.152615 1.194 57 73 42
0.134861 0.152487 1.193 59 75 44
0.136713 0.152487 1.193 60 76 45
0.138566 0.152487 1.193 61 77 46
0.140301 0.152359 1.192 61 77 46
0.142153 0.152359 1.192 61 77 46
0.144004 0.152359 1.192 62 78 47
0.145855 0.152359 1.192 62 78 47
0.147582 0.152231 1.191 61 77 46
0.149306 0.152103 1.19 60 76 45
0.151155 0.152103 1.19 59 75 44
0.153003 0.152103 1.19 57 73 42
0.154721 0.151976 1.189 56 72 41
0.156567 0.151976 1.189 61 77 46
0.158414 0.151976 1.189 57 73 42
0.16026 0.151976 1.189 57 73 42
0.162107 0.151976 1.189 59 75 44
0.163816 0.151848 1.188 57 73 42
0.165661 0.151848 1.188 59 75 44
0.167506 0.151848 1.188 60 76 45
0.169208 0.15172 1.187 59 76 43
0.171051 0.15172 1.187 60 77 44
0.172895 0.15172 1.187 60 77 44
0.174738 0.15172 1.187 61 78 45
0.176433 0.151592 1.186 60 77 44
0.178275 0.151592 1.186 60 77 44
0.180117 0.151592 1.186 56 73 40
0.181805 0.151464 1.185 59 76 43
0.183491 0.151336 1.184 59 76 43
0.185486 0.151464 1.185 60 77 44
0.187326 0.151464 1.185 59 76 43
0.189167 0.151464 1.185 59 76 43
0.191007 0.151464 1.185 60 77 44
0.192847 0.151464 1.185 61 78 45
0.194688 0.151464 1.185 61 78 45
0.196528 0.151464 1.185 61 78 45
0.198368 0.151464 1.185 61 78 45
0.200209 0.151464 1.185 62 79 46
0.202049 0.151464 1.185 62 79 46
0.203889 0.151464 1.185 61 78 45
0.20573 0.151464 1.185 61 78 45
0.20757 0.151464 1.185 59 76 43
0.209411 0.151464 1.185 61 78 45
0.211251 0.151464 1.185 60 77 44
0.213091 0.151464 1.185 59 77 41
0.214932 0.151464 1.185 59 77 41
0.216772 0.151464 1.185 59 77 41
0.218612 0.151464 1.185 59 77 41
0.220639 0.151592 1.186 60 78 42
0.222668 0.15172 1.187 60 78 42
0.224512 0.15172 1.187 60 79 41
0.226546 0.151848 1.188 61 80 42
0.228583 0.151976 1.189 60 79 41
0.230623 0.152103 1.19 61 80 42
0.232471 0.152103 1.19 61 80 42
0.234516 0.152231 1.191 63 82 44
0.236565 0.152359 1.192 63 81 45
0.238416 0.152359 1.192 60 78 42
0.240267 0.152359 1.192 62 80 44
0.242118 0.152359 1.192 60 78 42
0.243969 0.152359 1.192 60 78 42
0.245821 0.152359 1.192 60 78 42
0.247672 0.152359 1.192 61 79 43
0.249314 0.152231 1.191 61 79 43
0.251163 0.152231 1.191 62 80 44
0.252801 0.152103 1.19 61 79 43
0.254649 0.152103 1.19 60 78 42
0.256281 0.151976 1.189 59 77 41
0.258128 0.151976 1.189 61 79 43
0.259756 0.151848 1.188 61 79 43
0.261381 0.15172 1.187 59 78 40
0.263224 0.15172 1.187 57 76 38
0.265067 0.15172 1.187 59 78 40
0.266686 0.151592 1.186 57 76 38
0.268754 0.15172 1.187 61 80 42
0.27037 0.151592 1.186 62 81 43
0.272212 0.151592 1.186 62 81 43
0.274054 0.151592 1.186 61 80 42
0.276128 0.15172 1.187 61 80 42
0.277972 0.15172 1.187 61 80 42
0.280051 0.151848 1.188 62 81 43
0.282133 0.151976 1.189 62 81 43
0.284219 0.152103 1.19 63 82 44
0.286067 0.152103 1.19 64 83 45
0.288157 0.152231 1.191 63 82 44
0.289763 0.152103 1.19 64 83 45
0.291611 0.152103 1.19 64 83 45
0.293459 0.152103 1.19 66 85 47
0.295307 0.152103 1.19 64 83 45
0.296906 0.151976 1.189 66 85 47
0.298752 0.151976 1.189 64 82 46
0.300599 0.151976 1.189 62 80 44
0.301937 0.15172 1.187 62 80 44
0.30378 0.15172 1.187 63 81 45
0.305623 0.15172 1.187 60 81 44
0.307467 0.15172 1.187 65 86 49
0.30931 0.15172 1.187 66 86 52
0.311154 0.15172 1.187 65 85 51
0.313261 0.151848 1.188 67 87 53
0.315106 0.151848 1.188 65 85 51
0.316951 0.151848 1.188 66 86 52
0.319333 0.152103 1.19 67 87 53
0.321181 0.152103 1.19 67 89 50
0.3233 0.152231 1.191 66 88 49
0.325423 0.152359 1.192 68 87 47
0.327549 0.152487 1.193 72 91 51
0.329678 0.152615 1.194 90 110 67
0.331254 0.152487 1.193 92 112 69
0.333107 0.152487 1.193 87 111 65
0.334679 0.152359 1.192 88 112 66
0.33653 0.152359 1.192 87 111 65
0.338381 0.152359 1.192 82 106 60
0.339947 0.152231 1.191 86 106 63
0.34151 0.152103 1.19 89 109 66
0.343358 0.152103 1.19 86 108 69
0.345206 0.152103 1.19 86 108 69
0.346763 0.151976 1.189 88 105 72
0.348902 0.152103 1.19 92 109 76
0.350456 0.151976 1.189 92 109 76
0.352302 0.151976 1.189 93 110 77
0.354149 0.151976 1.189 86 103 70
0.355397 0.15172 1.187 83 100 67
0.35724 0.15172 1.187 93 106 85
0.358781 0.151592 1.186 76 89 68
0.360319 0.151464 1.185 101 105 105
0.361242 0.151081 1.182 219 223 223
0.362464 0.150825 1.18 142 147 150
0.362753 0.150186 1.175 66 71 74
0.363957 0.14993 1.173 67 72 75
0.363908 0.149164 1.167 68 73 76
0.363526 0.148269 1.16 90 103 75
0.362493 0.147118 1.151 217 230 202
0.362698 0.146479 1.146 241 250 241
0.363524 0.146096 1.143 121 130 121
0.36498 0.145968 1.142 136 138 132
0.366753 0.145968 1.142 175 177 171
0.368527 0.145968 1.142 124 123 127
0.371273 0.146352 1.145 65 64 68
-0.167001 0.154212 1.192 107 122 102
-0.165149 0.154212 1.192 110 125 105
-0.163435 0.154342 1.193 68 85 60
-0.161718 0.154471 1.194 57 74 49
-0.15973 0.154342 1.193 65 83 54
-0.157877 0.154342 1.193 64 82 53
-0.156024 0.154342 1.193 60 80 51
-0.154042 0.154212 1.192 64 84 55
-0.152191 0.154212 1.192 65 86 54
-0.15034 0.154212 1.192 66 87 55
-0.148488 0.154212 1.192 66 87 55
-0.14676 0.154342 1.193 65 86 54
-0.144908 0.154342 1.193 64 86 52
-0.143175 0.154471 1.194 66 88 54
-0.14132 0.154471 1.194 70 93 56
-0.139466 0.154471 1.194 70 93 56
-0.137612 0.154471 1.194 70 94 55
-0.135757 0.154471 1.194 70 94 55
-0.134015 0.154601 1.195 70 94 55
-0.132159 0.154601 1.195 66 90 51
-0.130303 0.154601 1.195 70 94 55
-0.128448 0.154601 1.195 75 99 60
-0.126592 0.154601 1.195 72 96 57
-0.12484 0.15473 1.196 70 94 55
-0.122983 0.15473 1.196 71 95 56
-0.121227 0.154859 1.197 71 95 56
-0.119467 0.154989 1.198 74 98 59
-0.117803 0.155247 1.2 73 97 58
-0.116036 0.155377 1.201 72 96 55
-0.114266 0.155506 1.202 72 96 55
-0.112493 0.155636 1.203 72 96 55
-0.110716 0.155765 1.204 70 94 53
-0.109027 0.156024 1.206 68 93 49
-0.107154 0.156024 1.206 68 93 49
-0.105281 0.156024 1.206 60 85 41
-0.103409 0.156024 1.206 66 91 47
-0.101536 0.156024 1.206 70 93 49
-0.0996626 0.156024 1.206 73 96 52
-0.0977085 0.155894 1.205 73 96 52
-0.0957576 0.155765 1.204 72 95 51
-0.0938878 0.155765 1.204 72 95 51
-0.0919415 0.155636 1.203 72 95 51
-0.0900732 0.155636 1.203 73 96 52
-0.0881316 0.155506 1.202 73 96 52
-0.086193 0.155377 1.201 74 96 55
-0.0843278 0.155377 1.201 75 97 56
-0.0824627 0.155377 1.201 76 98 57
-0.0805975 0.155377 1.201 75 97 56
-0.0787323 0.155377 1.201 74 96 55
-0.0768671 0.155377 1.201 76 98 57
-0.0750643 0.155506 1.202 77 99 58
-0.0731367 0.155377 1.201 76 98 57
-0.0713308 0.155506 1.202 76 98 57
-0.0694063 0.155377 1.201 76 98 57
-0.0674849 0.155247 1.2 76 98 57
-0.0656212 0.155247 1.2 77 99 58
-0.0637045 0.155118 1.199 77 99 58
-0.0617392 0.154859 1.197 77 99 58
-0.0598802 0.154859 1.197 77 99 58
-0.0579243 0.154601 1.195 76 98 57
-0.0559746 0.154342 1.193 75 97 56
-0.0540311 0.154083 1.191 75 97 56
-0.0520938 0.153824 1.189 76 98 57
-0.0500782 0.153307 1.185 77 99 58
-0.0481564 0.153048 1.183 79 101 60
-0.0462017 0.15266 1.18 76 98 57
-0.044294 0.152401 1.178 76 98 57
-0.0422842 0.151754 1.173 76 98 57
-0.0403935 0.151496 1.171 76 98 57
-0.0384761 0.151107 1.168 76 98 57
-0.0365366 0.15059 1.164 76 98 59
-0.0346692 0.150331 1.162 77 99 60
-0.0326666 0.149426 1.155 76 98 59
-0.0307659 0.148908 1.151 76 98 59
-0.0288777 0.148391 1.147 77 90 62
-0.0269782 0.147744 1.142 76 89 61
-0.0251164 0.147226 1.138 108 114 96
-0.023267 0.146709 1.134 194 200 182
-0.02143 0.146191 1.13 222 225 217
-0.0195706 0.145415 1.124 208 211 203
-0.0177932 0.145156 1.122 194 196 190
-0.0160364 0.145027 1.121 200 202 196
-0.0142955 0.145027 1.121 252 251 248
-0.0125545 0.145027 1.121 255 255 252
-0.0108136 0.145027 1.121 254 255 252
-0.00907263 0.145027 1.121 254 255 252
-0.00733821 0.145156 1.122 254 255 252
-0.00559571 0.145156 1.122 254 255 252
-0.00385664 0.145286 1.123 254 255 252
-0.00211635 0.145544 1.125 254 255 252
-0.000369182 0.145544 1.125 254 255 252
0.00137798 0.145544 1.125 254 255 252
0.00312792 0.145674 1.126 254 255 252
0.00488097 0.145803 1.127 254 255 252
0.00838895 0.145933 1.128 254 255 252
0.0101498 0.146062 1.129 254 255 250
0.0119348 0.14645 1.132 254 255 250
0.013717 0.146709 1.134 254 255 247
0.0155054 0.146968 1.136 254 255 247
0.0173001 0.147226 1.138 255 255 246
0.0191009 0.147485 1.14 255 255 246
0.020908 0.147744 1.142 255 255 245
0.0227014 0.147873 1.143 252 255 242
0.0245194 0.148132 1.145 239 242 227
0.0263206 0.148261 1.146 239 242 227
0.0281249 0.148391 1.147 233 238 225
0.0299584 0.148649 1.149 223 228 215
0.0318257 0.149038 1.152 209 214 201
0.0337023 0.149426 1.155 167 172 159
0.0355883 0.149814 1.158 100 105 92
0.0412666 0.150849 1.166 72 78 60
0.0432622 0.151496 1.171 68 82 58
0.0452348 0.152013 1.175 72 86 62
0.0471798 0.152401 1.178 74 89 63
0.0490924 0.15266 1.18 68 83 57
0.0510113 0.152919 1.182 67 82 56
0.0529364 0.153177 1.184 62 77 51
0.0548215 0.153307 1.185 56 71 43
0.0566618 0.153307 1.185 62 77 49
0.0585515 0.153436 1.186 60 76 45
0.0603934 0.153436 1.186 61 77 46
0.0622353 0.153436 1.186 61 77 46
0.0641313 0.153566 1.187 60 76 45
0.0659747 0.153566 1.187 59 75 44
0.0678182 0.153566 1.187 60 76 45
0.0696616 0.153566 1.187 60 76 45
0.0715653 0.153695 1.188 59 75 44
0.0734103 0.153695 1.188 57 73 42
0.0753187 0.153824 1.189 57 73 42
0.0772301 0.153954 1.19 56 72 41
0.0790782 0.153954 1.19 59 75 44
0.0809944 0.154083 1.191 59 75 44
0.082844 0.154083 1.191 57 73 42
0.0847648 0.154212 1.192 56 72 41
0.086616 0.154212 1.192 57 73 42
0.0884672 0.154212 1.192 57 73 42
0.0903184 0.154212 1.192 55 71 40
0.0920923 0.154083 1.191 54 70 39
0.093942 0.154083 1.191 54 70 39
0.0957917 0.154083 1.191 55 71 40
0.0976413 0.154083 1.191 55 71 40
0.0994075 0.153954 1.19 55 71 40
0.101256 0.153954 1.19 57 73 42
0.10319 0.154083 1.191 59 75 44
0.10504 0.154083 1.191 60 76 45
0.1068 0.153954 1.19 60 76 45
0.108831 0.154212 1.192 59 75 44
0.110682 0.154212 1.192 55 71 40
0.112533 0.154212 1.192 55 71 40
0.114384 0.154212 1.192 55 71 40
0.116235 0.154212 1.192 55 71 40
0.118186 0.154342 1.193 55 71 40
0.120139 0.154471 1.194 55 71 40
0.122096 0.154601 1.195 55 71 40
0.123952 0.154601 1.195 57 73 42
0.125807 0.154601 1.195 60 76 45
0.127663 0.154601 1.195 60 76 45
0.129519 0.154601 1.195 61 77 46
0.131375 0.154601 1.195 59 75 44
0.133119 0.154471 1.194 56 72 41
0.135087 0.154601 1.195 57 73 42
0.136828 0.154471 1.194 56 72 41
0.138566 0.154342 1.193 60 76 45
0.140419 0.154342 1.193 62 78 47
0.142272 0.154342 1.193 62 78 47
0.144004 0.154212 1.192 63 79 48
0.145855 0.154212 1.192 62 78 47
0.147706 0.154212 1.192 61 77 46
0.149557 0.154212 1.192 60 76 45
0.151282 0.154083 1.191 59 75 44
0.153003 0.153954 1.19 57 73 42
0.154851 0.153954 1.19 56 72 41
0.156699 0.153954 1.19 60 76 45
0.158547 0.153954 1.19 57 73 42
0.160395 0.153954 1.19 59 75 44
0.162243 0.153954 1.19 61 77 46
0.164091 0.153954 1.19 59 75 44
0.165939 0.153954 1.19 59 75 44
0.167788 0.153954 1.19 59 75 44
0.169636 0.153954 1.19 59 76 43
0.17134 0.153824 1.189 59 76 43
0.173041 0.153695 1.188 59 76 43
0.174886 0.153695 1.188 60 77 44
0.176582 0.153566 1.187 60 77 44
0.178425 0.153566 1.187 60 77 44
0.180269 0.153566 1.187 57 74 41
0.182112 0.153566 1.187 57 74 41
0.183956 0.153566 1.187 57 74 41
0.185799 0.153566 1.187 59 76 43
0.187484 0.153436 1.186 60 77 44
0.189326 0.153436 1.186 60 77 44
0.191168 0.153436 1.186 59 76 43
0.192847 0.153307 1.185 61 78 45
0.194688 0.153307 1.185 62 79 46
0.196528 0.153307 1.185 61 78 45
0.198368 0.153307 1.185 61 78 45
0.200209 0.153307 1.185 62 79 46
0.202049 0.153307 1.185 62 79 46
0.203889 0.153307 1.185 62 79 46
0.20573 0.153307 1.185 59 76 43
0.20757 0.153307 1.185 61 78 45
0.209234 0.153177 1.184 62 79 46
0.211251 0.153307 1.185 61 78 45
0.212911 0.153177 1.184 61 78 45
0.21475 0.153177 1.184 60 77 44
0.216772 0.153307 1.185 60 78 42
0.218612 0.153307 1.185 60 78 42
0.220453 0.153307 1.185 60 78 42
0.222293 0.153307 1.185 60 78 42
0.224512 0.153566 1.187 60 78 42
0.226355 0.153566 1.187 60 78 42
0.228198 0.153566 1.187 60 79 41
0.23043 0.153824 1.189 61 80 42
0.232471 0.153954 1.19 60 79 41
0.23432 0.153954 1.19 62 81 43
0.236366 0.154083 1.191 62 81 43
0.238416 0.154212 1.192 63 82 44
0.240267 0.154212 1.192 63 81 45
0.242118 0.154212 1.192 62 80 44
0.243969 0.154212 1.192 61 79 43
0.245821 0.154212 1.192 61 79 43
0.247672 0.154212 1.192 63 81 45
0.249523 0.154212 1.192 63 81 45
0.251374 0.154212 1.192 62 80 44
0.253013 0.154083 1.191 62 80 44
0.254863 0.154083 1.191 60 78 42
0.256497 0.153954 1.19 59 77 41
0.258345 0.153954 1.19 60 78 42
0.260193 0.153954 1.19 60 78 42
0.261821 0.153824 1.189 57 75 39
0.263668 0.153824 1.189 59 77 41
0.265291 0.153695 1.188 60 79 41
0.266911 0.153566 1.187 60 79 41
0.268754 0.153566 1.187 61 80 42
0.270598 0.153566 1.187 62 81 43
0.272441 0.153566 1.187 63 82 44
0.274285 0.153566 1.187 63 82 44
0.276361 0.153695 1.188 62 81 43
0.278206 0.153695 1.188 62 81 43
0.280522 0.153954 1.19 59 78 40
0.28237 0.153954 1.19 59 78 40
0.284219 0.153954 1.19 63 82 44
0.286307 0.154083 1.191 64 83 45
0.288157 0.154083 1.191 63 82 44
0.29025 0.154212 1.192 64 83 45
0.291856 0.154083 1.191 64 83 45
0.293459 0.153954 1.19 66 85 47
0.295307 0.153954 1.19 66 85 47
0.297155 0.153954 1.19 66 85 47
0.298752 0.153824 1.189 66 85 47
0.300346 0.153695 1.188 62 81 43
0.302191 0.153695 1.188 63 81 45
0.30378 0.153566 1.187 63 81 45
0.305623 0.153566 1.187 58 79 42
0.307467 0.153566 1.187 66 87 50
0.30931 0.153566 1.187 67 87 53
0.311154 0.153566 1.187 67 87 53
0.312997 0.153566 1.187 69 89 55
0.314841 0.153566 1.187 66 86 52
0.316684 0.153566 1.187 66 86 52
0.318796 0.153695 1.188 66 86 52
0.320911 0.153824 1.189 65 86 49
0.323029 0.153954 1.19 72 93 56
0.32515 0.154083 1.191 72 91 53
0.327274 0.154212 1.192 77 96 58
0.329125 0.154212 1.192 82 104 56
0.330977 0.154212 1.192 81 103 55
0.332828 0.154212 1.192 83 105 52
0.334679 0.154212 1.192 84 106 53
0.33653 0.154212 1.192 86 107 62
0.338098 0.154083 1.191 83 104 59
0.339947 0.154083 1.191 86 106 63
0.34151 0.153954 1.19 93 113 70
0.343358 0.153954 1.19 96 118 77
0.344916 0.153824 1.189 91 113 72
0.346763 0.153824 1.189 88 110 71
0.348609 0.153824 1.189 87 109 70
0.350161 0.153695 1.188 90 112 73
0.352302 0.153824 1.189 90 112 73
0.353851 0.153695 1.188 87 108 71
0.355397 0.153566 1.187 89 110 73
0.35724 0.153566 1.187 88 101 80
0.358781 0.153436 1.186 76 89 68
0.360015 0.153177 1.184 103 101 101
0.360937 0.152789 1.181 226 224 224
0.362464 0.15266 1.18 132 134 139
0.363061 0.152142 1.176 69 71 76
0.363647 0.151625 1.172 71 73 78
0.363908 0.150978 1.167 70 72 77
0.363526 0.150073 1.16 84 102 73
0.362493 0.148908 1.151 213 231 202
0.363015 0.148391 1.147 239 251 241
0.363524 0.147873 1.143 119 131 121
0.36498 0.147744 1.142 128 130 124
0.366753 0.147744 1.142 172 174 168
0.368527 0.147744 1.142 98 95 99
0.370949 0.148003 1.144 49 46 50
-0.167421 0.156459 1.195 88 105 85
-0.165565 0.156459 1.195 108 125 105
-0.163709 0.156459 1.195 101 118 93
-0.161853 0.156459 1.195 55 72 47
-0.159997 0.156459 1.195 58 78 51
-0.158142 0.156459 1.195 64 84 57
-0.156286 0.156459 1.195 63 83 54
-0.154301 0.156328 1.194 63 83 54
-0.152446 0.156328 1.194 64 84 55
-0.150592 0.156328 1.194 64 84 55
-0.148738 0.156328 1.194 63 85 56
-0.146883 0.156328 1.194 62 84 55
-0.145029 0.156328 1.194 62 85 53
-0.143175 0.156328 1.194 65 88 56
-0.141439 0.156459 1.195 68 92 58
-0.139583 0.156459 1.195 68 92 58
-0.137612 0.156328 1.194 68 94 55
-0.135757 0.156328 1.194 68 94 55
-0.133903 0.156328 1.194 66 92 53
-0.132049 0.156328 1.194 64 90 51
-0.130194 0.156328 1.194 71 95 56
-0.12834 0.156328 1.194 72 96 57
-0.126592 0.156459 1.195 72 96 57
-0.124736 0.156459 1.195 72 96 57
-0.12288 0.156459 1.195 71 95 56
-0.121125 0.15659 1.196 71 95 56
-0.119368 0.15672 1.197 73 97 58
-0.117607 0.156851 1.198 73 97 58
-0.115843 0.156982 1.199 72 96 55
-0.114076 0.157113 1.2 72 96 55
-0.112306 0.157244 1.201 71 95 54
-0.110533 0.157375 1.202 71 95 54
-0.108756 0.157506 1.203 71 96 52
-0.106888 0.157506 1.203 71 96 52
-0.105107 0.157637 1.204 72 97 53
-0.103237 0.157637 1.204 72 97 53
-0.101367 0.157637 1.204 71 96 52
-0.0994147 0.157506 1.203 72 97 53
-0.0975464 0.157506 1.203 71 96 52
-0.0955985 0.157375 1.202 70 95 51
-0.0937318 0.157375 1.202 70 95 51
-0.0917886 0.157244 1.201 70 95 51
-0.0899234 0.157244 1.201 71 96 52
-0.0879849 0.157113 1.2 71 96 52
-0.0861213 0.157113 1.2 73 97 56
-0.0842576 0.157113 1.2 73 97 56
-0.0824627 0.157244 1.201 74 98 57
-0.0805975 0.157244 1.201 72 96 55
-0.0787978 0.157375 1.202 72 96 57
-0.0768671 0.157244 1.201 73 97 58
-0.0750643 0.157375 1.202 73 97 58
-0.0731976 0.157375 1.202 74 98 59
-0.0713308 0.157375 1.202 74 98 59
-0.0694063 0.157244 1.201 74 98 59
-0.0674849 0.157113 1.2 74 98 59
-0.0656212 0.157113 1.2 75 99 60
-0.0637045 0.156982 1.199 75 99 60
-0.0617392 0.15672 1.197 75 99 60
-0.0598802 0.15672 1.197 75 99 58
-0.0579243 0.156459 1.195 75 99 58
-0.0560215 0.156328 1.194 75 99 58
-0.0539857 0.155804 1.19 77 101 60
-0.0521376 0.155804 1.19 77 101 60
-0.0501627 0.155411 1.187 77 101 60
-0.0482379 0.155149 1.185 75 99 58
-0.0463584 0.155018 1.184 74 98 57
-0.0444444 0.154757 1.182 74 98 57
-0.0424645 0.154233 1.178 75 99 58
-0.040566 0.153971 1.176 77 101 60
-0.0386408 0.153578 1.173 77 101 60
-0.0367563 0.153316 1.171 77 101 60
-0.0348482 0.152924 1.168 77 101 60
-0.0329494 0.152531 1.165 78 102 61
-0.03106 0.152138 1.162 77 101 60
-0.0290539 0.151091 1.154 77 93 62
-0.02712 0.150305 1.148 75 91 60
-0.0215058 0.148472 1.134 216 218 207
-0.019675 0.147948 1.13 211 213 202
-0.017825 0.147163 1.124 200 202 196
-0.016065 0.147032 1.123 204 206 200
-0.014321 0.147032 1.123 236 238 232
-0.0125657 0.146901 1.122 253 255 249
-0.0108232 0.146901 1.122 254 255 252
-0.00908881 0.147032 1.123 254 255 252
-0.00734475 0.147032 1.123 251 255 252
-0.0056007 0.147032 1.123 251 255 252
-0.00386007 0.147163 1.124 251 255 252
-0.00211635 0.147294 1.125 251 255 252
-0.000369182 0.147294 1.125 251 255 252
0.00137798 0.147294 1.125 251 255 252
0.0031307 0.147556 1.127 251 255 252
0.00664301 0.147817 1.129 251 255 252
0.00840382 0.147948 1.13 251 255 252
0.0101857 0.148341 1.133 251 255 250
0.0119769 0.148734 1.136 251 255 250
0.0137654 0.148996 1.138 254 255 247
0.0155737 0.149389 1.141 253 255 246
0.0173913 0.149781 1.144 255 255 245
0.0192182 0.150174 1.147 251 254 241
0.0210362 0.150436 1.149 236 237 224
0.0228603 0.150698 1.151 220 221 208
0.0247121 0.151091 1.154 214 215 202
0.0265503 0.151352 1.156 208 209 196
0.0283456 0.151352 1.156 193 195 177
0.0302452 0.151876 1.16 169 171 153
0.0321019 0.152138 1.162 123 128 108
0.0358034 0.152531 1.165 75 82 55
0.039625 0.153316 1.171 71 84 56
0.0415852 0.15384 1.175 78 91 63
0.0435208 0.154233 1.178 78 93 65
0.0454273 0.154495 1.18 79 94 66
0.04734 0.154757 1.182 72 87 59
0.0492588 0.155018 1.184 64 79 51
0.0511408 0.155149 1.185 62 77 49
0.0529811 0.155149 1.185 60 75 47
0.0548678 0.15528 1.186 60 76 45
0.0567575 0.155411 1.187 59 75 44
0.0586009 0.155411 1.187 62 78 47
0.0604444 0.155411 1.187 69 85 54
0.0622878 0.155411 1.187 67 83 52
0.0641313 0.155411 1.187 61 77 46
0.0659747 0.155411 1.187 59 75 44
0.0678182 0.155411 1.187 59 75 44
0.0696616 0.155411 1.187 60 76 45
0.0715051 0.155411 1.187 60 76 45
0.0734103 0.155542 1.188 59 75 44
0.0753187 0.155673 1.189 60 76 45
0.0771652 0.155673 1.189 56 72 41
0.0790782 0.155804 1.19 59 75 44
0.0809264 0.155804 1.19 59 75 44
0.082844 0.155935 1.191 59 75 44
0.0846937 0.155935 1.191 59 75 44
0.0865433 0.155935 1.191 59 75 44
0.088393 0.155935 1.191 57 73 42
0.0902427 0.155935 1.191 53 69 38
0.0920923 0.155935 1.191 53 69 38
0.093942 0.155935 1.191 54 70 39
0.0957917 0.155935 1.191 54 70 39
0.0975593 0.155804 1.19 55 71 40
0.0994075 0.155804 1.19 56 72 41
0.101256 0.155804 1.19 57 73 42
0.103104 0.155804 1.19 59 75 44
0.104952 0.155804 1.19 60 76 45
0.1068 0.155804 1.19 59 75 44
0.108739 0.155935 1.191 57 73 42
0.110589 0.155935 1.191 57 73 42
0.112533 0.156066 1.192 59 75 44
0.114384 0.156066 1.192 59 75 44
0.116235 0.156066 1.192 57 73 42
0.118087 0.156066 1.192 57 73 42
0.120039 0.156197 1.193 59 75 44
0.121891 0.156197 1.193 56 72 41
0.123848 0.156328 1.194 62 78 47
0.125807 0.156459 1.195 60 76 45
0.127663 0.156459 1.195 61 77 46
0.129519 0.156459 1.195 60 76 45
0.131375 0.156459 1.195 59 75 44
0.133231 0.156459 1.195 59 75 44
0.135087 0.156459 1.195 59 75 44
0.136943 0.156459 1.195 60 76 45
0.138799 0.156459 1.195 61 77 46
0.140537 0.156328 1.194 62 78 47
0.142391 0.156328 1.194 61 77 46
0.144245 0.156328 1.194 62 78 47
0.145977 0.156197 1.193 62 78 47
0.14783 0.156197 1.193 61 77 46
0.149557 0.156066 1.192 59 75 44
0.151409 0.156066 1.192 57 73 42
0.15326 0.156066 1.192 57 73 42
0.155111 0.156066 1.192 56 72 41
0.156962 0.156066 1.192 60 76 45
0.158813 0.156066 1.192 59 75 44
0.160665 0.156066 1.192 61 77 46
0.162516 0.156066 1.192 61 77 46
0.164367 0.156066 1.192 61 77 46
0.166079 0.155935 1.191 61 77 46
0.167929 0.155935 1.191 61 77 46
0.169636 0.155804 1.19 59 76 43
0.171484 0.155804 1.19 59 76 43
0.173332 0.155804 1.19 60 77 44
0.17518 0.155804 1.19 60 77 44
0.176879 0.155673 1.189 60 77 44
0.178576 0.155542 1.188 59 76 43
0.180421 0.155542 1.188 59 76 43
0.182112 0.155411 1.187 61 78 45
0.183956 0.155411 1.187 61 78 45
0.185799 0.155411 1.187 61 78 45
0.187484 0.15528 1.186 61 78 45
0.189326 0.15528 1.186 61 78 45
0.191007 0.155149 1.185 61 78 45
0.192847 0.155149 1.185 60 77 44
0.194688 0.155149 1.185 62 79 46
0.196528 0.155149 1.185 61 78 45
0.198201 0.155018 1.184 61 78 45
0.199871 0.154888 1.183 61 78 45
0.201708 0.154888 1.183 63 80 47
0.203545 0.154888 1.183 63 80 47
0.205383 0.154888 1.183 62 79 46
0.20722 0.154888 1.183 63 80 47
0.209057 0.154888 1.183 62 79 46
0.211073 0.155018 1.184 61 78 45
0.212911 0.155018 1.184 60 77 44
0.21475 0.155018 1.184 59 76 43
0.216589 0.155018 1.184 60 78 42
0.218612 0.155149 1.185 60 78 42
0.220453 0.155149 1.185 60 78 42
0.222293 0.155149 1.185 60 78 42
0.224322 0.15528 1.186 61 79 43
0.226355 0.155411 1.187 62 80 44
0.228198 0.155411 1.187 62 80 44
0.230236 0.155542 1.188 62 80 44
0.232276 0.155673 1.189 62 80 44
0.23432 0.155804 1.19 63 81 45
0.236168 0.155804 1.19 63 81 45
0.238216 0.155935 1.191 63 81 45
0.240267 0.156066 1.192 63 81 45
0.242118 0.156066 1.192 63 81 45
0.243969 0.156066 1.192 62 80 44
0.246027 0.156197 1.193 62 80 44
0.24788 0.156197 1.193 63 81 45
0.249732 0.156197 1.193 63 81 45
0.251585 0.156197 1.193 62 80 44
0.253226 0.156066 1.192 62 80 44
0.255077 0.156066 1.192 60 78 42
0.256928 0.156066 1.192 59 77 41
0.258779 0.156066 1.192 60 78 42
0.260412 0.155935 1.191 59 77 41
0.262261 0.155935 1.191 59 77 41
0.263889 0.155804 1.19 61 79 43
0.265737 0.155804 1.19 60 79 41
0.267361 0.155673 1.189 61 80 42
0.269207 0.155673 1.189 61 80 42
0.271054 0.155673 1.189 62 81 43
0.2729 0.155673 1.189 64 83 45
0.274747 0.155673 1.189 64 83 45
0.276826 0.155804 1.19 63 82 44
0.278674 0.155804 1.19 63 82 44
0.280522 0.155804 1.19 55 74 36
0.282608 0.155935 1.191 54 73 35
0.284457 0.155935 1.191 63 82 44
0.286547 0.156066 1.192 64 83 45
0.288399 0.156066 1.192 64 83 45
0.29025 0.156066 1.192 63 82 44
0.292101 0.156066 1.192 64 83 45
0.293706 0.155935 1.191 64 83 45
0.295307 0.155804 1.19 64 83 45
0.297155 0.155804 1.19 64 83 45
0.298752 0.155673 1.189 64 83 45
0.300346 0.155542 1.188 62 81 43
0.302191 0.155542 1.188 64 82 46
0.30378 0.155411 1.187 63 81 45
0.305623 0.155411 1.187 62 83 46
0.307208 0.15528 1.186 68 89 52
0.30905 0.15528 1.186 67 87 53
0.310892 0.15528 1.186 68 88 54
0.312734 0.15528 1.186 70 90 56
0.314575 0.15528 1.186 67 87 53
0.316417 0.15528 1.186 67 87 53
0.318259 0.15528 1.186 66 86 52
0.320371 0.155411 1.187 69 88 50
0.322757 0.155673 1.189 78 97 59
0.324877 0.155804 1.19 77 91 49
0.326725 0.155804 1.19 77 91 49
0.328849 0.155935 1.191 76 98 45
0.330699 0.155935 1.191 78 100 47
0.332549 0.155935 1.191 83 101 47
0.334398 0.155935 1.191 87 105 51
0.336248 0.155935 1.191 88 108 60
0.338098 0.155935 1.191 86 106 58
0.339662 0.155804 1.19 84 108 62
0.34151 0.155804 1.19 94 118 72
0.343358 0.155804 1.19 97 119 78
0.344916 0.155673 1.189 96 118 77
0.346471 0.155542 1.188 96 118 79
0.348023 0.155411 1.187 103 125 86
0.35171 0.155411 1.187 95 114 76
0.353553 0.155411 1.187 96 113 80
0.355397 0.155411 1.187 99 116 83
0.35724 0.155411 1.187 92 104 85
0.358478 0.155149 1.185 78 90 71
0.360015 0.155018 1.184 107 107 107
0.360937 0.154626 1.181 228 228 228
0.362156 0.154364 1.179 136 135 139
0.363061 0.153971 1.176 72 71 75
0.363647 0.153447 1.172 73 76 79
0.363596 0.152662 1.166 70 73 76
0.363526 0.151876 1.16 86 104 75
0.362493 0.150698 1.151 211 229 200
0.363015 0.150174 1.147 238 249 241
0.363524 0.14965 1.143 118 129 121
0.36498 0.149519 1.142 126 127 124
0.366432 0.149389 1.141 172 173 170
0.368204 0.149389 1.141 91 86 90
0.3703 0.149519 1.142 28 23 27
-0.167841 0.158714 1.198 78 95 75
-0.165842 0.158582 1.197 108 125 105
-0.16412 0.158714 1.198 111 128 103
-0.162124 0.158582 1.197 57 74 49
-0.160265 0.158582 1.197 60 77 52
-0.158406 0.158582 1.197 66 83 58
-0.156286 0.158317 1.195 65 85 58
-0.15443 0.158317 1.195 64 84 57
-0.152574 0.158317 1.195 63 83 56
-0.150718 0.158317 1.195 64 84 57
-0.148862 0.158317 1.195 67 87 58
-0.147006 0.158317 1.195 66 86 57
-0.14515 0.158317 1.195 68 88 59
-0.143295 0.158317 1.195 68 88 59
-0.141439 0.158317 1.195 68 89 57
-0.139583 0.158317 1.195 68 89 57
-0.137727 0.158317 1.195 68 91 54
-0.135757 0.158184 1.194 68 91 54
-0.133903 0.158184 1.194 68 92 53
-0.132049 0.158184 1.194 67 91 52
-0.130085 0.158052 1.193 71 95 56
-0.12834 0.158184 1.194 71 95 56
-0.126486 0.158184 1.194 70 94 55
-0.124631 0.158184 1.194 70 94 55
-0.12288 0.158317 1.195 71 95 56
-0.121024 0.158317 1.195 72 96 57
-0.119168 0.158317 1.195 74 98 59
-0.117509 0.158582 1.197 74 98 59
-0.11565 0.158582 1.197 72 96 55
-0.113886 0.158714 1.198 71 95 54
-0.112212 0.158979 1.2 70 94 53
-0.110349 0.158979 1.2 71 95 54
-0.108485 0.158979 1.2 72 97 53
-0.10671 0.159112 1.201 71 96 52
-0.104932 0.159244 1.202 71 96 52
-0.103066 0.159244 1.202 72 97 53
-0.101199 0.159244 1.202 71 96 52
-0.0992494 0.159112 1.201 71 96 52
-0.0973031 0.158979 1.2 72 97 53
-0.0954395 0.158979 1.2 71 96 52
-0.0935758 0.158979 1.2 71 96 52
-0.0917122 0.158979 1.2 72 97 53
-0.0898486 0.158979 1.2 73 98 54
-0.0879849 0.158979 1.2 72 97 53
-0.0861213 0.158979 1.2 75 99 58
-0.0842576 0.158979 1.2 74 98 57
-0.082394 0.158979 1.2 74 98 57
-0.0805304 0.158979 1.2 72 96 55
-0.0787323 0.159112 1.201 72 96 57
-0.0768671 0.159112 1.201 72 96 57
-0.0750019 0.159112 1.201 72 96 57
-0.0731976 0.159244 1.202 72 96 57
-0.0712715 0.159112 1.201 72 96 57
-0.0694063 0.159112 1.201 73 97 58
-0.0674849 0.158979 1.2 75 99 60
-0.0656212 0.158979 1.2 75 99 60
-0.0636513 0.158714 1.198 77 101 62
-0.0617392 0.158582 1.197 75 99 60
-0.0598302 0.158449 1.196 75 99 58
-0.0579243 0.158317 1.195 77 101 60
-0.0560215 0.158184 1.194 77 101 60
-0.0540311 0.157787 1.191 77 101 60
-0.0521376 0.157654 1.19 79 103 62
-0.0501627 0.157257 1.187 77 101 60
-0.0483193 0.157257 1.187 77 101 60
-0.0463975 0.156992 1.185 75 99 58
-0.044482 0.156727 1.183 74 98 57
-0.0426087 0.156594 1.182 75 99 58
-0.040704 0.156329 1.18 75 99 58
-0.0388055 0.156065 1.178 75 99 58
-0.0368819 0.155667 1.175 75 99 58
-0.0349974 0.155402 1.173 77 101 60
-0.0331191 0.155137 1.171 79 103 62
-0.0311936 0.154607 1.167 79 103 62
-0.0293057 0.15421 1.164 84 102 66
-0.0272617 0.152885 1.154 76 94 58
-0.0253592 0.152223 1.149 72 85 59
-0.0234516 0.151428 1.143 120 133 107
-0.0197273 0.150103 1.133 210 215 202
-0.0179042 0.149573 1.129 218 220 209
-0.0160937 0.149043 1.125 204 206 195
-0.0143465 0.149043 1.125 207 209 203
-0.0125769 0.148778 1.123 239 241 235
-0.0108232 0.148645 1.122 254 255 250
-0.00908072 0.148645 1.122 254 255 250
-0.00734475 0.148778 1.123 254 255 250
-0.0056007 0.148778 1.123 254 255 250
-0.00386351 0.149043 1.125 254 255 250
-0.00211823 0.149175 1.126 254 255 250
0.00138166 0.14944 1.128 254 255 250
0.00313903 0.149705 1.13 254 255 250
0.00489829 0.149838 1.131 254 255 250
0.00667243 0.150235 1.134 255 255 249
0.00844844 0.1505 1.136 255 255 249
0.0102397 0.150898 1.139 252 255 242
0.0120507 0.151428 1.143 255 255 245
0.01385 0.151693 1.145 255 255 241
0.0156692 0.15209 1.148 242 243 228
0.0174977 0.152487 1.151 228 231 218
0.0193523 0.153017 1.155 201 204 191
0.0212009 0.153415 1.158 146 149 134
0.0230391 0.15368 1.16 128 131 116
0.0249048 0.154077 1.163 111 116 101
0.0285662 0.154342 1.165 83 89 71
0.0304016 0.154475 1.166 79 85 67
0.0361107 0.155667 1.175 81 90 65
0.0380001 0.155932 1.177 79 88 63
0.0398957 0.156197 1.179 76 89 63
0.0418329 0.156594 1.182 79 92 66
0.0437055 0.156727 1.183 75 90 62
0.0456198 0.156992 1.185 75 90 62
0.0475002 0.157124 1.186 72 88 57
0.0493837 0.157257 1.187 70 86 55
0.0512271 0.157257 1.187 67 83 52
0.0530706 0.157257 1.187 69 85 54
0.054914 0.157257 1.187 75 91 60
0.0567575 0.157257 1.187 63 79 48
0.0586009 0.157257 1.187 61 78 45
0.0604444 0.157257 1.187 64 81 48
0.0622878 0.157257 1.187 64 81 48
0.0641313 0.157257 1.187 62 79 46
0.0659747 0.157257 1.187 54 71 38
0.0678182 0.157257 1.187 60 77 44
0.0696616 0.157257 1.187 60 76 45
0.0715653 0.157389 1.188 60 76 45
0.0734103 0.157389 1.188 59 75 44
0.0753187 0.157522 1.189 60 76 45
0.0771652 0.157522 1.189 57 73 42
0.0790782 0.157654 1.19 59 75 44
0.0809264 0.157654 1.19 60 76 45
0.082844 0.157787 1.191 59 75 44
0.0846937 0.157787 1.191 59 75 44
0.0865433 0.157787 1.191 59 75 44
0.088393 0.157787 1.191 59 75 44
0.0902427 0.157787 1.191 59 75 44
0.0920923 0.157787 1.191 63 79 48
0.093942 0.157787 1.191 54 70 39
0.0957917 0.157787 1.191 55 71 40
0.0975593 0.157654 1.19 55 71 40
0.099491 0.157787 1.191 57 73 42
0.101256 0.157654 1.19 59 75 44
0.103104 0.157654 1.19 59 75 44
0.10504 0.157787 1.191 59 75 44
0.10689 0.157787 1.191 57 73 42
0.108739 0.157787 1.191 57 73 42
0.110589 0.157787 1.191 60 76 45
0.112439 0.157787 1.191 60 76 45
0.114288 0.157787 1.191 60 76 45
0.116235 0.157919 1.192 60 76 45
0.118087 0.157919 1.192 60 76 45
0.119938 0.157919 1.192 60 76 45
0.121891 0.158052 1.193 59 75 44
0.123848 0.158184 1.194 61 77 46
0.125807 0.158317 1.195 61 77 46
0.127663 0.158317 1.195 61 77 46
0.129519 0.158317 1.195 61 77 46
0.131375 0.158317 1.195 60 76 45
0.133231 0.158317 1.195 61 77 46
0.135087 0.158317 1.195 60 76 45
0.136943 0.158317 1.195 60 76 45
0.138799 0.158317 1.195 61 77 46
0.140654 0.158317 1.195 63 79 48
0.14251 0.158317 1.195 61 77 46
0.144366 0.158317 1.195 62 78 47
0.146222 0.158317 1.195 62 78 47
0.147954 0.158184 1.194 61 77 46
0.149808 0.158184 1.194 57 73 42
0.151536 0.158052 1.193 57 73 42
0.153388 0.158052 1.193 57 73 42
0.155241 0.158052 1.193 57 73 42
0.157094 0.158052 1.193 60 76 45
0.158947 0.158052 1.193 60 76 45
0.160799 0.158052 1.193 61 77 46
0.162652 0.158052 1.193 62 78 47
0.164367 0.157919 1.192 61 77 46
0.166218 0.157919 1.192 61 77 46
0.16807 0.157919 1.192 60 76 45
0.169921 0.157919 1.192 59 75 44
0.171772 0.157919 1.192 60 76 45
0.173478 0.157787 1.191 61 78 45
0.17518 0.157654 1.19 61 78 45
0.177028 0.157654 1.19 60 77 44
0.178876 0.157654 1.19 60 77 44
0.180572 0.157522 1.189 61 78 45
