ply
format ascii 1.0
comment Created by Open3D
element vertex 1366
property double x
property double y
property double z
property uchar red
property uchar green
property uchar blue
end_header
-0.0256081 0.111587 1.084 254 255 252
-0.0239466 0.11169 1.085 254 255 250
-0.0222821 0.111793 1.086 254 255 250
-0.0205955 0.111793 1.086 254 255 250
-0.0189089 0.111793 1.086 254 255 250
-0.0172223 0.111793 1.086 254 255 250
-0.0155357 0.111793 1.086 254 255 250
-0.0138619 0.111896 1.087 254 255 250
-0.0121849 0.111999 1.088 254 255 250
-0.0104952 0.111999 1.088 254 255 250
-0.00881364 0.112102 1.089 254 255 250
-0.00712238 0.112102 1.089 254 255 250
-0.00544111 0.112307 1.091 254 255 250
-0.00375018 0.11241 1.092 254 255 250
-0.00205427 0.11241 1.092 254 255 250
-0.000359009 0.112616 1.094 254 255 250
0.00134001 0.112616 1.094 254 255 250
0.00303903 0.112616 1.094 254 255 250
0.00474238 0.112719 1.095 254 255 250
0.00644295 0.112719 1.095 254 255 250
0.00814352 0.112719 1.095 254 255 250
0.0098441 0.112719 1.095 254 255 250
0.0115447 0.112719 1.095 254 255 250
0.0132452 0.112719 1.095 254 255 250
0.0149458 0.112719 1.095 254 255 250
0.0166464 0.112719 1.095 254 255 250
0.018347 0.112719 1.095 254 255 250
0.0200475 0.112719 1.095 254 255 250
0.0217481 0.112719 1.095 254 255 250
0.0234487 0.112719 1.095 254 255 250
0.0251492 0.112719 1.095 254 255 250
0.0268498 0.112719 1.095 254 255 250
0.0285504 0.112719 1.095 254 255 250
0.030251 0.112719 1.095 254 255 250
0.0319515 0.112719 1.095 254 255 250
0.0336828 0.112822 1.096 254 255 250
0.0354173 0.112925 1.097 254 255 250
0.0371209 0.112925 1.097 254 255 250
0.03886 0.113028 1.098 254 255 250
0.042309 0.113131 1.099 254 255 250
0.0440558 0.113234 1.1 254 255 250
0.0457641 0.113234 1.1 254 255 250
0.0475156 0.113337 1.101 254 255 250
0.0492702 0.11344 1.102 254 255 250
0.0510279 0.113543 1.103 254 255 250
0.0527409 0.113543 1.103 254 255 250
0.0544539 0.113543 1.103 254 255 250
0.0561669 0.113543 1.103 254 255 250
0.0578274 0.11344 1.102 254 255 250
0.0595389 0.11344 1.102 254 255 250
0.0612503 0.11344 1.102 254 255 250
0.0629618 0.11344 1.102 254 255 250
0.0646732 0.11344 1.102 254 255 250
0.0664449 0.113543 1.103 254 255 250
0.0681579 0.113543 1.103 254 255 250
0.0699342 0.113646 1.104 254 255 250
0.0717786 0.113852 1.106 254 255 250
0.0734962 0.113852 1.106 254 255 250
0.0753499 0.114057 1.108 254 255 250
0.0771402 0.11416 1.109 254 255 250
0.0789337 0.114263 1.11 254 255 250
0.0807302 0.114366 1.111 254 255 250
0.0825298 0.114469 1.112 254 255 250
0.084181 0.114366 1.111 254 255 250
0.0859065 0.114366 1.111 251 255 250
0.0876319 0.114366 1.111 251 255 250
0.0895182 0.114572 1.113 251 255 250
0.0913287 0.114675 1.114 251 255 250
0.0931423 0.114778 1.115 251 255 250
0.0950441 0.114984 1.117 251 255 250
0.0968655 0.115087 1.118 254 255 250
0.0987782 0.115293 1.12 254 255 250
0.100697 0.115499 1.122 250 248 242
0.102713 0.115807 1.125 222 220 214
0.104832 0.116219 1.129 147 145 145
0.106774 0.116425 1.131 132 130 130
0.108819 0.116734 1.134 132 132 133
0.110775 0.11694 1.136 139 139 140
0.114504 0.117146 1.138 132 132 133
0.116578 0.117454 1.141 129 129 129
0.118662 0.117763 1.144 128 128 128
0.120754 0.118072 1.147 130 135 131
0.122963 0.118484 1.151 136 141 137
0.125075 0.118793 1.154 136 139 131
0.127307 0.119204 1.158 88 91 83
0.12944 0.119513 1.161 37 46 30
0.131695 0.119925 1.165 42 51 35
0.133963 0.120337 1.169 47 58 37
0.136243 0.120748 1.173 52 63 42
0.140244 0.121057 1.176 56 67 46
0.142433 0.121366 1.179 55 67 43
0.144509 0.121572 1.181 54 66 42
0.146591 0.121778 1.183 52 67 41
0.148679 0.121984 1.185 50 65 39
0.150646 0.122087 1.186 50 65 37
0.152617 0.12219 1.187 49 64 36
0.15446 0.12219 1.187 47 62 34
0.156304 0.12219 1.187 45 60 32
0.158147 0.12219 1.187 42 58 27
0.160126 0.122293 1.188 45 61 30
0.161971 0.122293 1.188 48 64 33
0.163953 0.122396 1.189 49 65 34
0.1658 0.122396 1.189 50 66 35
0.167788 0.122498 1.19 48 64 33
0.169636 0.122498 1.19 50 66 35
0.171484 0.122498 1.19 50 66 35
0.173332 0.122498 1.19 50 66 35
0.17518 0.122498 1.19 50 66 35
0.177028 0.122498 1.19 49 65 34
0.178876 0.122498 1.19 48 64 33
0.180724 0.122498 1.19 48 64 33
0.182572 0.122498 1.19 50 66 35
0.184576 0.122601 1.191 49 65 34
0.186425 0.122601 1.191 47 63 32
0.188275 0.122601 1.191 48 65 32
0.190125 0.122601 1.191 48 65 32
0.192135 0.122704 1.192 50 67 34
0.193987 0.122704 1.192 50 67 34
0.195838 0.122704 1.192 50 67 34
0.197689 0.122704 1.192 50 67 34
0.19954 0.122704 1.192 50 67 34
0.201391 0.122704 1.192 50 67 34
0.203243 0.122704 1.192 47 64 31
0.205094 0.122704 1.192 49 66 33
0.206945 0.122704 1.192 48 65 32
0.208796 0.122704 1.192 48 65 32
0.210648 0.122704 1.192 49 66 33
0.212499 0.122704 1.192 50 67 34
0.21435 0.122704 1.192 49 66 33
0.216383 0.122807 1.193 49 66 33
0.218235 0.122807 1.193 50 67 34
0.220273 0.12291 1.194 52 69 36
0.222313 0.123013 1.195 52 69 36
0.224169 0.123013 1.195 52 69 36
0.226214 0.123116 1.196 52 69 36
0.228071 0.123116 1.196 53 70 37
0.230121 0.123219 1.197 52 69 36
0.23198 0.123219 1.197 52 69 36
0.233839 0.123219 1.197 52 69 36
0.235698 0.123219 1.197 52 69 36
0.237557 0.123219 1.197 52 69 36
0.239416 0.123219 1.197 53 70 37
0.241476 0.123322 1.198 53 70 37
0.243134 0.123219 1.197 54 71 38
0.244993 0.123219 1.197 52 69 36
0.246852 0.123219 1.197 52 69 36
0.248919 0.123322 1.198 52 69 36
0.250779 0.123322 1.198 50 67 34
0.252429 0.123219 1.197 50 67 34
0.254288 0.123219 1.197 52 69 36
0.256147 0.123219 1.197 52 69 36
0.258006 0.123219 1.197 50 67 34
0.259865 0.123219 1.197 52 69 36
0.261724 0.123219 1.197 52 69 36
0.263583 0.123219 1.197 52 69 36
0.265442 0.123219 1.197 52 69 36
0.267301 0.123219 1.197 53 70 37
0.26916 0.123219 1.197 49 66 33
0.271019 0.123219 1.197 49 66 33
0.272878 0.123219 1.197 61 78 45
0.274736 0.123219 1.197 60 77 44
0.276364 0.123116 1.196 54 71 38
0.278222 0.123116 1.196 53 70 37
0.279845 0.123013 1.195 52 69 36
0.281465 0.12291 1.194 52 69 36
0.283082 0.122807 1.193 52 69 36
0.284696 0.122704 1.192 52 69 36
0.286307 0.122601 1.191 52 69 36
0.287915 0.122498 1.19 51 71 37
0.289763 0.122498 1.19 52 72 38
0.291366 0.122396 1.189 52 72 38
0.292966 0.122293 1.188 51 71 37
0.294811 0.122293 1.188 52 72 38
0.296656 0.122293 1.188 54 74 40
0.298752 0.122396 1.189 61 81 47
0.300599 0.122396 1.189 53 73 39
0.3027 0.122498 1.19 52 71 39
0.304804 0.122601 1.191 52 71 39
0.306653 0.122601 1.191 53 72 40
0.308762 0.122704 1.192 54 73 41
0.310613 0.122704 1.192 54 73 41
0.312727 0.122807 1.193 54 73 41
0.314843 0.12291 1.194 54 74 40
0.316963 0.123013 1.195 54 74 40
0.318818 0.123013 1.195 53 73 39
0.320674 0.123013 1.195 47 67 33
0.32253 0.123013 1.195 56 75 35
0.324386 0.123013 1.195 66 85 45
0.326242 0.123013 1.195 61 81 38
0.328098 0.123013 1.195 66 86 43
0.329678 0.12291 1.194 75 96 51
0.331254 0.122807 1.193 81 102 57
0.332828 0.122704 1.192 79 100 55
0.334679 0.122704 1.192 81 102 57
0.33653 0.122704 1.192 79 99 56
0.338098 0.122601 1.191 81 101 58
0.339662 0.122498 1.19 79 99 56
0.34151 0.122498 1.19 79 99 56
0.343358 0.122498 1.19 79 99 56
0.345206 0.122498 1.19 79 99 56
0.347346 0.122601 1.191 82 101 61
0.349489 0.122704 1.192 83 102 62
0.35134 0.122704 1.192 83 102 64
0.353191 0.122704 1.192 84 103 65
0.35534 0.122807 1.193 83 101 65
0.357193 0.122807 1.193 84 102 66
0.359046 0.122807 1.193 86 106 72
0.360596 0.122704 1.192 69 89 55
0.362447 0.122704 1.192 68 79 63
0.36277 0.12219 1.187 169 180 164
0.363385 0.121778 1.183 128 137 123
0.363679 0.121263 1.178 52 61 47
0.363957 0.120748 1.173 63 72 58
0.363596 0.120028 1.166 64 73 59
0.361333 0.11869 1.153 85 91 68
0.361234 0.118072 1.147 208 214 191
0.362065 0.117763 1.144 229 241 231
0.362888 0.117454 1.141 187 199 189
0.36434 0.117351 1.14 230 240 235
0.365469 0.117146 1.138 243 253 248
0.367236 0.117146 1.138 172 179 183
0.370949 0.117763 1.144 104 111 115
-0.146126 0.108988 1.043 254 255 252
-0.144506 0.108988 1.043 254 255 252
-0.143023 0.109093 1.044 254 255 252
-0.141402 0.109093 1.044 254 255 252
-0.139914 0.109197 1.045 254 255 252
-0.138159 0.109093 1.044 254 255 252
-0.136537 0.109093 1.044 254 255 252
-0.134916 0.109093 1.044 254 255 252
-0.13355 0.109302 1.046 254 255 252
-0.132052 0.109406 1.047 254 255 252
-0.130426 0.109406 1.047 254 255 252
-0.1288 0.109406 1.047 254 255 252
-0.127295 0.109511 1.048 254 255 252
-0.125668 0.109511 1.048 254 255 252
-0.124158 0.109615 1.049 254 255 252
-0.122646 0.10972 1.05 254 255 252
-0.121131 0.109824 1.051 254 255 252
-0.119498 0.109824 1.051 254 255 252
-0.117866 0.109824 1.051 254 255 252
-0.116344 0.109929 1.052 254 255 252
-0.114711 0.109929 1.052 254 255 252
-0.112969 0.109824 1.051 254 255 252
-0.111337 0.109824 1.051 254 255 252
-0.109705 0.109824 1.051 254 255 252
-0.108073 0.109824 1.051 254 255 252
-0.10644 0.109824 1.051 254 255 252
-0.104808 0.109824 1.051 254 255 252
-0.103176 0.109824 1.051 254 255 252
-0.101544 0.109824 1.051 254 255 252
-0.0999115 0.109824 1.051 254 255 252
-0.0983727 0.109929 1.052 254 255 252
-0.0968309 0.110033 1.053 254 255 252
-0.0951956 0.110033 1.053 254 255 252
-0.0936491 0.110137 1.054 254 255 252
-0.0920995 0.110242 1.055 254 255 252
-0.0889068 0.110346 1.056 254 255 252
-0.0872667 0.110346 1.056 254 255 252
-0.0857078 0.110451 1.057 254 255 252
-0.0841458 0.110555 1.058 254 255 252
-0.0825027 0.110555 1.058 254 255 252
-0.080936 0.11066 1.059 254 255 252
-0.0793662 0.110764 1.06 254 255 252
-0.0777933 0.110869 1.061 254 255 252
-0.0760738 0.110764 1.06 254 255 252
-0.0744276 0.110764 1.06 254 255 252
-0.07285 0.110869 1.061 254 255 252
-0.0712694 0.110973 1.062 254 255 252
-0.0696856 0.111078 1.063 254 255 252
-0.0680987 0.111182 1.064 254 255 252
-0.0665712 0.111391 1.066 254 255 252
-0.0649766 0.111496 1.067 254 255 252
-0.0634382 0.111705 1.069 254 255 252
-0.0618935 0.111914 1.071 254 255 252
-0.0603427 0.112123 1.073 254 255 252
-0.0587857 0.112332 1.075 254 255 252
-0.0571693 0.112436 1.076 254 255 252
-0.0554982 0.112436 1.076 254 255 252
-0.0538772 0.112541 1.077 254 255 252
-0.0521561 0.112436 1.076 254 255 252
-0.050532 0.112541 1.077 254 255 252
-0.0488593 0.112541 1.077 254 255 252
-0.0471867 0.112541 1.077 254 255 252
-0.0455141 0.112541 1.077 254 255 252
-0.0438415 0.112541 1.077 254 255 252
-0.0421689 0.112541 1.077 254 255 252
-0.0404963 0.112541 1.077 254 255 252
-0.0388236 0.112541 1.077 254 255 252
-0.037151 0.112541 1.077 254 255 252
-0.0355113 0.112645 1.078 254 255 252
-0.0339 0.112854 1.08 254 255 252
-0.0322227 0.112854 1.08 254 255 252
-0.030602 0.113063 1.082 254 255 252
-0.0289483 0.113168 1.083 254 255 252
-0.0272916 0.113272 1.084 254 255 252
-0.0256317 0.113377 1.085 254 255 252
-0.0239466 0.113377 1.085 254 255 252
-0.0222821 0.113481 1.086 254 255 252
-0.0206145 0.113586 1.087 254 255 252
-0.0189263 0.113586 1.087 254 255 252
-0.0172541 0.11369 1.088 254 255 250
-0.0155643 0.11369 1.088 254 255 250
-0.0138746 0.11369 1.088 254 255 250
-0.0121961 0.113795 1.089 254 255 250
-0.0105145 0.113899 1.09 254 255 250
-0.00882173 0.113899 1.09 254 255 250
-0.00713547 0.114004 1.091 254 255 250
-0.00544609 0.114108 1.092 254 255 250
-0.00375361 0.114213 1.093 254 255 250
-0.00205803 0.114317 1.094 254 255 250
0.00134124 0.114422 1.095 254 255 250
0.00304181 0.114422 1.095 254 255 250
0.00644884 0.114526 1.096 254 255 250
0.00815096 0.114526 1.096 254 255 250
0.00986208 0.114631 1.097 254 255 250
0.0115658 0.114631 1.097 254 255 250
0.0132694 0.114631 1.097 254 255 250
0.0149731 0.114631 1.097 254 255 250
0.0166768 0.114631 1.097 254 255 250
0.0183805 0.114631 1.097 254 255 250
0.0200841 0.114631 1.097 254 255 250
0.0217878 0.114631 1.097 254 255 250
0.0234915 0.114631 1.097 254 255 250
0.0251952 0.114631 1.097 254 255 250
0.0268743 0.114526 1.096 254 255 250
0.0285765 0.114526 1.096 254 255 250
0.0302786 0.114526 1.096 254 255 250
0.0320099 0.114631 1.097 254 255 250
0.0337136 0.114631 1.097 254 255 250
0.0354173 0.114631 1.097 254 255 250
0.0371209 0.114631 1.097 254 255 250
0.0406022 0.11484 1.099 254 255 250
0.0423475 0.114944 1.1 254 255 250
0.0440958 0.115049 1.101 254 255 250
0.0458057 0.115049 1.101 254 255 250
0.0475588 0.115153 1.102 254 255 250
0.0493149 0.115258 1.103 254 255 250
0.0510279 0.115258 1.103 254 255 250
0.0527887 0.115362 1.104 254 255 250
0.0545033 0.115362 1.104 254 255 250
0.0561669 0.115258 1.103 254 255 250
0.0578799 0.115258 1.103 254 255 250
0.0595929 0.115258 1.103 254 255 250
0.0613059 0.115258 1.103 254 255 250
0.0630189 0.115258 1.103 254 255 250
0.0647319 0.115258 1.103 254 255 250
0.0664449 0.115258 1.103 254 255 250
0.0682815 0.115467 1.105 254 255 250
0.0699976 0.115467 1.105 254 255 250
0.0718435 0.115676 1.107 254 255 250
0.0735627 0.115676 1.107 254 255 250
0.0753499 0.11578 1.108 254 255 250
0.0771402 0.115885 1.109 254 255 250
0.0789337 0.115989 1.11 254 255 250
0.0807302 0.116094 1.111 254 255 250
0.0825298 0.116198 1.112 254 255 250
0.084181 0.116094 1.111 254 255 250
0.0859065 0.116094 1.111 254 255 250
0.0876319 0.116094 1.111 254 255 250
0.0894377 0.116198 1.112 251 255 250
0.0912467 0.116303 1.113 251 255 250
0.0931423 0.116512 1.115 251 255 250
0.094959 0.116616 1.116 251 255 250
0.0968655 0.116825 1.118 255 255 250
0.0987782 0.117034 1.12 254 254 248
0.100607 0.117139 1.121 223 223 217
0.102713 0.117557 1.125 174 174 168
0.104832 0.117975 1.129 141 140 137
0.106774 0.118184 1.131 139 138 135
0.108723 0.118393 1.133 152 152 153
0.110775 0.118706 1.136 151 151 152
0.112638 0.118811 1.137 147 147 148
0.116476 0.119124 1.14 119 119 119
0.118558 0.119438 1.143 126 126 126
0.120543 0.119647 1.145 131 132 129
0.122749 0.120064 1.149 131 132 129
0.124967 0.120482 1.153 87 95 83
0.127197 0.1209 1.157 41 49 37
0.12944 0.121318 1.161 44 53 37
0.131809 0.121841 1.166 48 57 41
0.133963 0.122154 1.169 52 63 42
0.136243 0.122572 1.173 52 63 42
0.140364 0.12299 1.177 54 66 42
0.142554 0.123304 1.18 50 64 40
0.144631 0.123513 1.182 52 66 42
0.146591 0.123617 1.183 52 67 41
0.148554 0.123722 1.184 50 65 39
0.150519 0.123826 1.185 52 67 39
0.15236 0.123826 1.185 49 64 36
0.15433 0.123931 1.186 47 63 32
0.156172 0.123931 1.186 48 64 33
0.158147 0.124035 1.187 55 71 40
0.159991 0.124035 1.187 50 66 35
0.161834 0.124035 1.187 50 66 35
0.163678 0.124035 1.187 50 66 35
0.165521 0.124035 1.187 50 66 35
0.167506 0.12414 1.188 48 64 33
0.169351 0.12414 1.188 50 66 35
0.171196 0.12414 1.188 50 66 35
0.172895 0.124035 1.187 50 66 35
0.174886 0.12414 1.188 52 68 37
0.176731 0.12414 1.188 52 68 37
0.178576 0.12414 1.188 49 65 34
0.180421 0.12414 1.188 49 65 34
0.182419 0.124244 1.189 50 66 35
0.184266 0.124244 1.189 49 65 34
0.186269 0.124349 1.19 48 64 33
0.188117 0.124349 1.19 49 65 34
0.189965 0.124349 1.19 49 65 34
0.191813 0.124349 1.19 50 67 34
0.193661 0.124349 1.19 50 67 34
0.195509 0.124349 1.19 50 67 34
0.197357 0.124349 1.19 50 67 34
0.199205 0.124349 1.19 50 67 34
0.201222 0.124453 1.191 50 67 34
0.203072 0.124453 1.191 47 64 31
0.204922 0.124453 1.191 48 65 32
0.206771 0.124453 1.191 48 65 32
0.208621 0.124453 1.191 48 65 32
0.210471 0.124453 1.191 50 67 34
0.21232 0.124453 1.191 50 67 34
0.21435 0.124558 1.192 50 67 34
0.216201 0.124558 1.192 52 69 36
0.218052 0.124558 1.192 54 71 38
0.220088 0.124662 1.193 53 70 37
0.222127 0.124767 1.194 52 69 36
0.224169 0.124871 1.195 50 67 34
0.226025 0.124871 1.195 50 67 34
0.228071 0.124976 1.196 50 67 34
0.230121 0.12508 1.197 50 67 34
0.23198 0.12508 1.197 52 69 36
0.233839 0.12508 1.197 53 70 37
0.235698 0.12508 1.197 53 70 37
0.237755 0.125185 1.198 52 69 36
0.239616 0.125185 1.198 54 71 38
0.241678 0.125289 1.199 54 71 38
0.24354 0.125289 1.199 54 71 38
0.245402 0.125289 1.199 54 71 38
0.247264 0.125289 1.199 54 71 38
0.249126 0.125289 1.199 54 70 39
0.250988 0.125289 1.199 53 69 38
0.25264 0.125185 1.198 52 68 37
0.2545 0.125185 1.198 53 69 38
0.256147 0.12508 1.197 53 69 38
0.258006 0.12508 1.197 50 66 35
0.259865 0.12508 1.197 49 65 34
0.261724 0.12508 1.197 50 66 35
0.263803 0.125185 1.198 52 69 36
0.265442 0.12508 1.197 50 67 34
0.267301 0.12508 1.197 53 70 37
0.26916 0.12508 1.197 50 67 34
0.271019 0.12508 1.197 45 62 29
0.272878 0.12508 1.197 56 73 40
0.274736 0.12508 1.197 61 78 45
0.276595 0.12508 1.197 55 72 39
0.278222 0.124976 1.196 53 70 37
0.279845 0.124871 1.195 53 70 37
0.281701 0.124871 1.195 52 70 34
0.28332 0.124767 1.194 52 70 34
0.284935 0.124662 1.193 52 70 34
0.286547 0.124558 1.192 53 71 35
0.288157 0.124453 1.191 52 73 36
0.289763 0.124349 1.19 52 73 36
0.291611 0.124349 1.19 52 73 36
0.293212 0.124244 1.189 52 73 36
0.295059 0.124244 1.189 52 72 38
0.296906 0.124244 1.189 54 74 40
0.299003 0.124349 1.19 58 77 45
0.300852 0.124349 1.19 58 77 45
0.3027 0.124349 1.19 51 70 38
0.304804 0.124453 1.191 53 72 40
0.306911 0.124558 1.192 55 74 42
0.308762 0.124558 1.192 57 76 44
0.311134 0.124767 1.194 58 78 44
0.312989 0.124767 1.194 55 75 41
0.315107 0.124871 1.195 55 75 41
0.316963 0.124871 1.195 54 74 40
0.318818 0.124871 1.195 54 75 38
0.320943 0.124976 1.196 50 71 34
0.3228 0.124976 1.196 64 86 45
0.324658 0.124976 1.196 64 86 45
0.326242 0.124871 1.195 60 80 37
0.328098 0.124871 1.195 63 83 40
0.329954 0.124871 1.195 76 97 52
0.33181 0.124871 1.195 83 104 59
0.333107 0.124662 1.193 84 105 60
0.334679 0.124558 1.192 79 100 55
0.33653 0.124558 1.192 81 102 57
0.338381 0.124558 1.192 81 102 57
0.339947 0.124453 1.191 79 100 55
0.34151 0.124349 1.19 81 102 57
0.343358 0.124349 1.19 82 102 59
0.345496 0.124453 1.191 81 101 58
0.347638 0.124558 1.192 82 101 61
0.349489 0.124558 1.192 83 102 62
0.35134 0.124558 1.192 84 103 65
0.353488 0.124662 1.193 84 103 65
0.355638 0.124767 1.194 84 102 66
0.357492 0.124767 1.194 88 106 70
0.359347 0.124767 1.194 91 108 75
0.360596 0.124558 1.192 69 86 53
0.362447 0.124558 1.192 62 73 57
0.36277 0.124035 1.187 170 181 165
0.363385 0.123617 1.183 132 140 128
0.363679 0.123095 1.178 55 63 51
0.363957 0.122572 1.173 63 71 59
0.363596 0.121841 1.166 65 73 61
0.361333 0.120482 1.153 83 88 68
0.361234 0.119856 1.147 208 213 193
0.362065 0.119542 1.144 233 241 234
0.362888 0.119229 1.141 191 199 192
0.36434 0.119124 1.14 234 242 235
0.36579 0.11902 1.139 245 253 246
0.367236 0.118915 1.138 166 174 176
0.370625 0.119438 1.143 103 111 113
-0.146266 0.110716 1.044 254 255 250
-0.144644 0.110716 1.044 254 255 250
-0.14316 0.110822 1.045 254 255 252
-0.141537 0.110822 1.045 254 255 252
-0.139914 0.110822 1.045 254 255 252
-0.138424 0.110928 1.046 254 255 252
-0.136799 0.110928 1.046 254 255 252
-0.135175 0.110928 1.046 254 255 252
-0.133678 0.111034 1.047 254 255 252
-0.132052 0.111034 1.047 254 255 252
-0.130426 0.111034 1.047 254 255 252
-0.128923 0.11114 1.048 254 255 252
-0.127295 0.11114 1.048 254 255 252
-0.125787 0.111246 1.049 254 255 252
-0.124277 0.111352 1.05 254 255 252
-0.122763 0.111458 1.051 254 255 252
-0.121131 0.111458 1.051 254 255 252
-0.119612 0.111564 1.052 254 255 252
-0.117978 0.111564 1.052 254 255 252
-0.11482 0.11167 1.053 254 255 252
-0.113184 0.11167 1.053 254 255 252
-0.111443 0.111564 1.052 254 255 252
-0.109809 0.111564 1.052 254 255 252
-0.108175 0.111564 1.052 254 255 252
-0.106542 0.111564 1.052 254 255 252
-0.104908 0.111564 1.052 254 255 252
-0.103274 0.111564 1.052 254 255 252
-0.10164 0.111564 1.052 254 255 252
-0.100102 0.11167 1.053 254 255 252
-0.0984662 0.11167 1.053 254 255 252
-0.0953764 0.111882 1.055 254 255 252
-0.0937379 0.111882 1.055 254 255 252
-0.0905468 0.111988 1.056 254 255 252
-0.0889909 0.112094 1.057 254 255 252
-0.0873494 0.112094 1.057 254 255 252
-0.0857889 0.112201 1.058 254 255 252
-0.0841458 0.112201 1.058 254 255 252
-0.0825027 0.112201 1.058 254 255 252
-0.080936 0.112307 1.059 254 255 252
-0.0793662 0.112413 1.06 254 255 252
-0.07772 0.112413 1.06 254 255 252
-0.0760738 0.112413 1.06 254 255 252
-0.0744978 0.112519 1.061 254 255 252
-0.07285 0.112519 1.061 254 255 252
-0.0712694 0.112625 1.062 254 255 252
-0.0696856 0.112731 1.063 254 255 252
-0.0681627 0.112943 1.065 254 255 252
-0.0665712 0.113049 1.066 254 255 252
-0.0650375 0.113261 1.068 254 255 252
-0.0634382 0.113367 1.069 254 255 252
-0.0618935 0.113579 1.071 254 255 252
-0.0603427 0.113791 1.073 254 255 252
-0.0587857 0.114003 1.075 254 255 252
-0.0571693 0.114109 1.076 254 255 252
-0.0554982 0.114109 1.076 254 255 252
-0.0538772 0.114215 1.077 254 255 252
-0.0521561 0.114109 1.076 254 255 252
-0.050532 0.114215 1.077 254 255 252
-0.0488593 0.114215 1.077 254 255 252
-0.0471867 0.114215 1.077 254 255 252
-0.0455141 0.114215 1.077 254 255 252
-0.0438415 0.114215 1.077 254 255 252
-0.0421689 0.114215 1.077 254 255 252
-0.0404963 0.114215 1.077 254 255 252
-0.0388236 0.114215 1.077 254 255 252
-0.037151 0.114215 1.077 254 255 252
-0.0355113 0.114322 1.078 254 255 252
-0.0338686 0.114428 1.079 254 255 252
-0.0322227 0.114534 1.08 254 255 252
-0.030602 0.114746 1.082 254 255 252
-0.0289483 0.114852 1.083 254 255 252
-0.0272664 0.114852 1.083 254 255 252
-0.0256317 0.115064 1.085 254 255 252
-0.0239687 0.11517 1.086 254 255 252
-0.0222821 0.11517 1.086 254 255 252
-0.0206145 0.115276 1.087 254 255 252
-0.0189438 0.115382 1.088 254 255 252
-0.0172541 0.115382 1.088 254 255 252
-0.0155787 0.115488 1.089 254 255 252
-0.0138874 0.115488 1.089 254 255 252
-0.0121961 0.115488 1.089 254 255 252
-0.0105242 0.1157 1.091 254 255 252
-0.00882983 0.1157 1.091 254 255 252
-0.00714201 0.115806 1.092 254 255 252
-0.00545108 0.115912 1.093 254 255 252
-0.00375705 0.116018 1.094 254 255 252
-0.00205803 0.116018 1.094 254 255 252
0.00134124 0.116124 1.095 254 255 252
0.00304459 0.11623 1.096 254 255 252
0.00474671 0.11623 1.096 254 255 252
0.00645472 0.116336 1.097 254 255 252
0.0081584 0.116336 1.097 254 255 252
0.00986208 0.116336 1.097 254 255 252
0.0115658 0.116336 1.097 254 255 252
0.0132694 0.116336 1.097 254 255 252
0.0149731 0.116336 1.097 254 255 252
0.016692 0.116443 1.098 254 255 252
0.0183972 0.116443 1.098 254 255 252
0.0200841 0.116336 1.097 254 255 252
0.0217878 0.116336 1.097 254 255 252
0.0234915 0.116336 1.097 254 255 252
0.0251952 0.116336 1.097 254 255 252
0.0268989 0.116336 1.097 254 255 252
0.0286025 0.116336 1.097 254 255 252
0.0303062 0.116336 1.097 254 255 252
0.0320099 0.116336 1.097 254 255 252
0.0337443 0.116443 1.098 254 255 252
0.0354495 0.116443 1.098 254 255 252
0.0371548 0.116443 1.098 254 255 252
0.0406022 0.116549 1.099 254 255 252
0.0423475 0.116655 1.1 254 255 252
0.0440958 0.116761 1.101 254 255 252
0.0458473 0.116867 1.102 254 255 252
0.0476019 0.116973 1.103 254 255 252
0.0493149 0.116973 1.103 254 255 252
0.0510742 0.117079 1.104 254 255 252
0.0528366 0.117185 1.105 254 255 252
0.0545527 0.117185 1.105 254 255 252
0.0562178 0.117079 1.104 254 255 252
0.0579324 0.117079 1.104 254 255 252
0.0596469 0.117079 1.104 254 255 252
0.0613615 0.117079 1.104 254 255 252
0.0631332 0.117185 1.105 254 255 252
0.0648493 0.117185 1.105 254 255 252
0.0665654 0.117185 1.105 254 255 252
0.0682815 0.117185 1.105 254 255 252
0.0700609 0.117291 1.106 254 255 252
0.0718435 0.117397 1.107 254 255 252
0.0736292 0.117503 1.108 254 255 252
0.0754179 0.117609 1.109 254 255 252
0.0772098 0.117715 1.11 254 255 252
0.0789337 0.117715 1.11 254 255 252
0.0807302 0.117821 1.111 254 255 252
0.0825298 0.117927 1.112 254 255 252
0.0842568 0.117927 1.112 254 255 252
0.0859838 0.117927 1.112 254 255 252
0.0876319 0.117821 1.111 254 255 252
0.0894377 0.117927 1.112 251 255 252
0.0912467 0.118033 1.113 251 255 252
0.0931423 0.118245 1.115 251 255 250
0.094959 0.118351 1.116 251 255 250
0.0967788 0.118457 1.117 255 255 250
0.09869 0.11867 1.119 254 254 248
0.100607 0.118882 1.121 220 220 214
0.102531 0.119094 1.123 184 184 178
0.104646 0.119518 1.127 151 148 145
0.10668 0.119836 1.13 144 141 138
0.108627 0.120048 1.132 144 144 144
0.11058 0.12026 1.134 142 142 142
0.112539 0.120472 1.136 144 144 145
0.116272 0.120685 1.138 131 131 131
0.118454 0.121109 1.142 123 123 123
0.120543 0.121427 1.145 122 125 117
0.122749 0.121851 1.149 87 90 82
0.124859 0.122169 1.152 40 49 35
0.127197 0.122699 1.157 44 53 39
0.12944 0.123124 1.161 48 58 39
0.131809 0.123654 1.166 52 62 43
0.133963 0.123972 1.169 52 63 42
0.136243 0.124396 1.173 54 65 44
0.140364 0.12482 1.177 50 64 40
0.142433 0.125033 1.179 52 67 41
0.144509 0.125245 1.181 53 68 42
0.146467 0.125351 1.182 52 67 41
0.148303 0.125351 1.182 50 65 39
0.150265 0.125457 1.183 50 65 37
0.152231 0.125563 1.184 49 64 36
0.15394 0.125457 1.183 47 63 32
0.155909 0.125563 1.184 49 65 34
0.157748 0.125563 1.184 52 68 37
0.159586 0.125563 1.184 52 68 37
0.161562 0.125669 1.185 50 66 35
0.163402 0.125669 1.185 50 66 35
0.165242 0.125669 1.185 50 66 35
0.167224 0.125775 1.186 48 64 33
0.169065 0.125775 1.186 50 66 35
0.170907 0.125775 1.186 50 66 35
0.172749 0.125775 1.186 52 68 37
0.174738 0.125881 1.187 52 68 37
0.176433 0.125775 1.186 52 68 37
0.178425 0.125881 1.187 50 66 35
0.180269 0.125881 1.187 50 66 35
0.182112 0.125881 1.187 50 66 35
0.183956 0.125881 1.187 50 66 35
0.185799 0.125881 1.187 49 65 34
0.187643 0.125881 1.187 50 66 35
0.189646 0.125987 1.188 52 68 37
0.191491 0.125987 1.188 52 69 36
0.193498 0.126093 1.189 50 67 34
0.195345 0.126093 1.189 50 67 34
0.197191 0.126093 1.189 50 67 34
0.199038 0.126093 1.189 52 69 36
0.201054 0.126199 1.19 50 67 34
0.202902 0.126199 1.19 48 65 32
0.20475 0.126199 1.19 48 65 32
0.206598 0.126199 1.19 48 65 32
0.208446 0.126199 1.19 45 62 29
0.210294 0.126199 1.19 50 67 34
0.212142 0.126199 1.19 50 67 34
0.21399 0.126199 1.19 52 69 36
0.21602 0.126305 1.191 53 70 37
0.218052 0.126411 1.192 54 71 38
0.219904 0.126411 1.192 54 71 38
0.221941 0.126517 1.193 52 69 36
0.223981 0.126623 1.194 50 67 34
0.226025 0.126729 1.195 50 67 34
0.228071 0.126835 1.196 50 67 34
0.230121 0.126941 1.197 52 69 36
0.23198 0.126941 1.197 53 70 37
0.233839 0.126941 1.197 53 70 37
0.235895 0.127047 1.198 53 70 37
0.237755 0.127047 1.198 54 71 38
0.239816 0.127154 1.199 55 72 39
0.24188 0.12726 1.2 54 71 38
0.24354 0.127154 1.199 54 71 38
0.245607 0.12726 1.2 53 70 37
0.247264 0.127154 1.199 53 70 37
0.249126 0.127154 1.199 54 71 38
0.250988 0.127154 1.199 53 70 37
0.25285 0.127154 1.199 54 71 38
0.2545 0.127047 1.198 54 71 38
0.256361 0.127047 1.198 54 71 38
0.258221 0.127047 1.198 53 70 37
0.260082 0.127047 1.198 52 69 36
0.261942 0.127047 1.198 50 67 34
0.263803 0.127047 1.198 52 69 36
0.265442 0.126941 1.197 50 67 34
0.267301 0.126941 1.197 52 69 36
0.26916 0.126941 1.197 52 69 36
0.271019 0.126941 1.197 49 66 33
0.272878 0.126941 1.197 47 64 31
0.274736 0.126941 1.197 54 71 38
0.276595 0.126941 1.197 54 71 38
0.278222 0.126835 1.196 54 71 38
0.279845 0.126729 1.195 55 72 39
0.281701 0.126729 1.195 54 71 38
0.28332 0.126623 1.194 54 71 38
0.284935 0.126517 1.193 54 71 38
0.286547 0.126411 1.192 54 71 38
0.288399 0.126411 1.192 55 72 39
0.290006 0.126305 1.191 54 71 38
0.291611 0.126199 1.19 53 73 39
0.293459 0.126199 1.19 54 74 40
0.295307 0.126199 1.19 53 73 39
0.297155 0.126199 1.19 55 75 41
0.299003 0.126199 1.19 57 77 43
0.300852 0.126199 1.19 58 78 44
0.302954 0.126305 1.191 51 71 37
0.30506 0.126411 1.192 52 72 38
0.307168 0.126517 1.193 55 75 41
0.309021 0.126517 1.193 54 74 40
0.311395 0.126729 1.195 55 75 41
0.313251 0.126729 1.195 54 74 40
0.315107 0.126729 1.195 55 75 41
0.317228 0.126835 1.196 54 74 40
0.319352 0.126941 1.197 54 75 38
0.321211 0.126941 1.197 54 75 38
0.32307 0.126941 1.197 64 83 43
0.324929 0.126941 1.197 64 83 43
0.326515 0.126835 1.196 66 87 42
0.328372 0.126835 1.196 67 88 43
0.329954 0.126729 1.195 79 100 55
0.33181 0.126729 1.195 83 104 59
0.333386 0.126623 1.194 78 99 54
0.33496 0.126517 1.193 78 99 54
0.33653 0.126411 1.192 81 102 57
0.338381 0.126411 1.192 81 102 57
0.340233 0.126411 1.192 81 102 57
0.341797 0.126305 1.191 82 103 58
0.343647 0.126305 1.191 83 103 60
0.345496 0.126305 1.191 83 103 60
0.347638 0.126411 1.192 83 102 62
0.349489 0.126411 1.192 83 102 62
0.351635 0.126517 1.193 83 102 64
0.353784 0.126623 1.194 83 102 64
0.355638 0.126623 1.194 85 103 67
0.357492 0.126623 1.194 86 104 68
0.359347 0.126623 1.194 90 107 74
0.360899 0.126517 1.193 69 86 53
0.362447 0.126411 1.192 69 80 64
0.36277 0.125881 1.187 171 182 166
0.363385 0.125457 1.183 130 138 126
0.363679 0.124926 1.178 57 65 53
0.363957 0.124396 1.173 66 69 61
0.363596 0.123654 1.166 68 71 63
0.361333 0.122275 1.153 85 88 68
0.361549 0.121745 1.148 208 211 191
0.362065 0.121321 1.144 233 241 234
0.362888 0.121003 1.141 191 199 192
0.36434 0.120897 1.14 235 243 236
0.36579 0.120791 1.139 245 253 246
0.367236 0.120685 1.138 169 174 177
0.370949 0.121321 1.144 106 111 114
-0.146406 0.112447 1.045 254 255 252
-0.144783 0.112447 1.045 254 255 252
-0.143297 0.112554 1.046 254 255 252
-0.141672 0.112554 1.046 254 255 252
-0.140182 0.112662 1.047 254 255 252
-0.138424 0.112554 1.046 254 255 252
-0.136799 0.112554 1.046 254 255 252
-0.135304 0.112662 1.047 254 255 252
-0.133678 0.112662 1.047 254 255 252
-0.132178 0.11277 1.048 254 255 252
-0.13055 0.11277 1.048 254 255 252
-0.128923 0.11277 1.048 254 255 252
-0.127417 0.112877 1.049 254 255 252
-0.125787 0.112877 1.049 254 255 252
-0.124277 0.112985 1.05 254 255 252
-0.122763 0.113092 1.051 254 255 252
-0.121131 0.113092 1.051 254 255 252
-0.119612 0.1132 1.052 254 255 252
-0.117978 0.1132 1.052 254 255 252
-0.116344 0.1132 1.052 254 255 252
-0.114711 0.1132 1.052 254 255 252
-0.113077 0.1132 1.052 254 255 252
-0.111443 0.1132 1.052 254 255 252
-0.109809 0.1132 1.052 254 255 252
-0.108175 0.1132 1.052 254 255 252
-0.106643 0.113308 1.053 254 255 252
-0.105008 0.113308 1.053 254 255 252
-0.103372 0.113308 1.053 254 255 252
-0.101737 0.113308 1.053 254 255 252
-0.100197 0.113415 1.054 254 255 252
-0.0970148 0.113523 1.055 254 255 252
-0.0954668 0.11363 1.056 254 255 252
-0.0939156 0.113738 1.057 254 255 252
-0.0922741 0.113738 1.057 254 255 252
-0.0906325 0.113738 1.057 254 255 252
-0.0890751 0.113846 1.058 254 255 252
-0.087432 0.113846 1.058 254 255 252
-0.0857889 0.113846 1.058 254 255 252
-0.0841458 0.113846 1.058 254 255 252
-0.0825807 0.113953 1.059 254 255 252
-0.0810124 0.114061 1.06 254 255 252
-0.0793662 0.114061 1.06 254 255 252
-0.07772 0.114061 1.06 254 255 252
-0.0760738 0.114061 1.06 254 255 252
-0.0744276 0.114061 1.06 254 255 252
-0.07285 0.114168 1.061 254 255 252
-0.0712694 0.114276 1.062 254 255 252
-0.0697512 0.114491 1.064 254 255 252
-0.0681627 0.114599 1.065 254 255 252
-0.0665712 0.114706 1.066 254 255 252
-0.0650375 0.114922 1.068 254 255 252
-0.0634382 0.115029 1.069 254 255 252
-0.0618358 0.115137 1.07 254 255 252
-0.0602865 0.115352 1.072 254 255 252
-0.058731 0.115567 1.074 254 255 252
-0.0571162 0.115675 1.075 254 255 252
-0.0554982 0.115782 1.076 254 255 252
-0.0538272 0.115782 1.076 254 255 252
-0.0521561 0.115782 1.076 254 255 252
-0.050485 0.115782 1.076 254 255 252
-0.048814 0.115782 1.076 254 255 252
-0.0471429 0.115782 1.076 254 255 252
-0.0455141 0.11589 1.077 254 255 252
-0.0438008 0.115782 1.076 254 255 252
-0.0421297 0.115782 1.076 254 255 252
-0.0404587 0.115782 1.076 254 255 252
-0.0388236 0.11589 1.077 254 255 252
-0.037151 0.11589 1.077 254 255 252
-0.0354784 0.11589 1.077 254 255 252
-0.0338686 0.116105 1.079 254 255 252
-0.0322227 0.116213 1.08 254 255 252
-0.0305454 0.116213 1.08 254 255 252
-0.0289216 0.116428 1.082 254 255 252
-0.0272664 0.116536 1.083 254 255 252
-0.0256081 0.116643 1.084 254 255 252
-0.0239466 0.116751 1.085 254 255 252
-0.0222821 0.116859 1.086 254 255 252
-0.0206145 0.116966 1.087 254 255 252
-0.0189438 0.117074 1.088 254 255 252
-0.0172541 0.117074 1.088 254 255 252
-0.0155787 0.117181 1.089 254 255 252
-0.0139002 0.117289 1.09 254 255 252
-0.0122185 0.117397 1.091 254 255 252
-0.0105242 0.117397 1.091 254 255 252
-0.00883792 0.117504 1.092 254 255 252
-0.00714201 0.117504 1.092 254 255 252
-0.00545607 0.117719 1.094 254 255 252
-0.00375705 0.117719 1.094 254 255 252
-0.000359337 0.117827 1.095 254 255 252
0.00134246 0.117935 1.096 254 255 252
0.00304459 0.117935 1.096 254 255 252
0.00475104 0.118042 1.097 254 255 252
0.00645472 0.118042 1.097 254 255 252
0.0081584 0.118042 1.097 254 255 252
0.00986208 0.118042 1.097 254 255 252
0.0115763 0.11815 1.098 254 255 252
0.0132815 0.11815 1.098 254 255 252
0.0149868 0.11815 1.098 254 255 252
0.016692 0.11815 1.098 254 255 252
0.0183972 0.11815 1.098 254 255 252
0.0201025 0.11815 1.098 254 255 252
0.0218077 0.11815 1.098 254 255 252
0.0235129 0.11815 1.098 254 255 252
0.0252181 0.11815 1.098 254 255 252
0.0269234 0.11815 1.098 254 255 252
0.0286025 0.118042 1.097 254 255 252
0.0320391 0.11815 1.098 254 255 252
0.0337443 0.11815 1.098 254 255 252
0.0354495 0.11815 1.098 254 255 252
0.0388954 0.118257 1.099 254 255 252
0.0406391 0.118365 1.1 254 255 252
0.042386 0.118473 1.101 254 255 252
0.0441359 0.11858 1.102 254 255 252
0.0458889 0.118688 1.103 254 255 252
0.0476451 0.118795 1.104 254 255 252
0.0493596 0.118795 1.104 254 255 252
0.0511205 0.118903 1.105 254 255 252
0.0528366 0.118903 1.105 254 255 252
0.0545527 0.118903 1.105 254 255 252
0.0562688 0.118903 1.105 254 255 252
0.0579849 0.118903 1.105 254 255 252
0.059701 0.118903 1.105 254 255 252
0.0614171 0.118903 1.105 254 255 252
0.0631903 0.119011 1.106 254 255 252
0.064908 0.119011 1.106 254 255 252
0.0666256 0.119011 1.106 254 255 252
0.0683433 0.119011 1.106 254 255 252
0.0701876 0.119226 1.108 254 255 252
0.0719084 0.119226 1.108 254 255 252
0.0736292 0.119226 1.108 254 255 252
0.0754859 0.119441 1.11 254 255 252
0.0772098 0.119441 1.11 254 255 252
0.0789337 0.119441 1.11 254 255 252
0.0807302 0.119549 1.111 254 255 252
0.0825298 0.119656 1.112 254 255 252
0.0842568 0.119656 1.112 254 255 252
0.0859065 0.119549 1.111 254 255 252
0.0876319 0.119549 1.111 254 255 252
0.0895182 0.119764 1.113 254 255 252
0.0913287 0.119871 1.114 254 255 252
0.0930587 0.119871 1.114 252 254 248
0.0948739 0.119979 1.115 254 255 250
0.0967788 0.120194 1.117 255 255 250
0.0986018 0.120302 1.118 254 254 248
0.100518 0.120517 1.12 222 222 216
0.102531 0.12084 1.123 203 203 197
0.104553 0.121163 1.126 167 167 161
0.106491 0.121378 1.128 139 139 133
0.108435 0.121593 1.13 131 131 131
0.110482 0.121916 1.133 128 128 128
0.112341 0.122024 1.134 125 125 125
0.114404 0.122346 1.137 138 138 138
0.118247 0.122669 1.14 101 105 104
0.120438 0.1231 1.144 71 78 69
0.12475 0.123853 1.151 44 53 39
0.126978 0.124283 1.155 48 57 43
0.129329 0.124821 1.16 54 65 44
0.131582 0.125252 1.164 52 63 42
0.133849 0.125682 1.168 52 64 40
0.136243 0.12622 1.173 55 67 43
0.140244 0.126543 1.176 52 67 41
0.142312 0.126758 1.178 52 67 41
0.144387 0.126973 1.18 53 68 42
0.146219 0.126973 1.18 52 67 39
0.148177 0.127081 1.181 50 65 37
0.150138 0.127189 1.182 52 67 39
0.151974 0.127189 1.182 53 68 40
0.15381 0.127189 1.182 41 57 26
0.155514 0.127081 1.181 50 66 35
0.157348 0.127081 1.181 52 68 37
0.159182 0.127081 1.181 50 66 35
0.161153 0.127189 1.182 50 66 35
0.162988 0.127189 1.182 50 66 35
0.164963 0.127296 1.183 50 66 35
0.166942 0.127404 1.184 50 66 35
0.16878 0.127404 1.184 50 66 35
0.170763 0.127511 1.185 52 68 37
0.172604 0.127511 1.185 53 69 38
0.174444 0.127511 1.185 53 69 38
0.176284 0.127511 1.185 53 69 38
0.178125 0.127511 1.185 53 69 38
0.179965 0.127511 1.185 53 69 38
0.181805 0.127511 1.185 52 68 37
0.183646 0.127511 1.185 52 68 37
0.185643 0.127619 1.186 50 66 35
0.187643 0.127727 1.187 49 65 34
0.189486 0.127727 1.187 53 69 38
0.191329 0.127727 1.187 54 71 38
0.193173 0.127727 1.187 53 70 37
0.195016 0.127727 1.187 52 69 36
0.19686 0.127727 1.187 50 67 34
0.198703 0.127727 1.187 52 69 36
0.200716 0.127834 1.188 52 69 36
0.202561 0.127834 1.188 50 67 34
0.204234 0.127727 1.187 50 67 34
0.206251 0.127834 1.188 50 67 34
0.208096 0.127834 1.188 53 70 37
0.209941 0.127834 1.188 54 71 38
0.211964 0.127942 1.189 53 70 37
0.21399 0.128049 1.19 52 69 36
0.215838 0.128049 1.19 53 70 37
0.217869 0.128157 1.191 53 70 37
0.219904 0.128265 1.192 53 70 37
0.221755 0.128265 1.192 50 67 34
0.223981 0.12848 1.194 53 70 37
0.226025 0.128587 1.195 53 70 37
0.228071 0.128695 1.196 53 70 37
0.230121 0.128803 1.197 53 70 37
0.23198 0.128803 1.197 54 71 38
0.233839 0.128803 1.197 54 71 38
0.235895 0.12891 1.198 54 71 38
0.237954 0.129018 1.199 55 72 39
0.240016 0.129125 1.2 54 71 38
0.24188 0.129125 1.2 54 71 38
0.243743 0.129125 1.2 53 70 37
0.245607 0.129125 1.2 52 69 36
0.24747 0.129125 1.2 53 70 37
0.249334 0.129125 1.2 54 70 39
0.251198 0.129125 1.2 54 70 39
0.253061 0.129125 1.2 54 70 39
0.254713 0.129018 1.199 55 71 40
0.256575 0.129018 1.199 55 71 40
0.258437 0.129018 1.199 54 70 39
0.260082 0.12891 1.198 55 72 39
0.261942 0.12891 1.198 54 71 38
0.263583 0.128803 1.197 53 70 37
0.265663 0.12891 1.198 52 69 36
0.267301 0.128803 1.197 52 69 36
0.26916 0.128803 1.197 52 69 36
0.271019 0.128803 1.197 52 69 36
0.272878 0.128803 1.197 52 69 36
0.274736 0.128803 1.197 53 70 37
0.276595 0.128803 1.197 54 71 38
0.278454 0.128803 1.197 54 71 38
0.280079 0.128695 1.196 55 72 39
0.281701 0.128587 1.195 55 72 39
0.283557 0.128587 1.195 54 71 38
0.285174 0.12848 1.194 56 74 38
0.286788 0.128372 1.193 54 72 36
0.288399 0.128265 1.192 55 73 37
0.29025 0.128265 1.192 54 72 36
0.291856 0.128157 1.191 53 74 37
0.293706 0.128157 1.191 53 74 37
0.295555 0.128157 1.191 53 73 39
0.297405 0.128157 1.191 55 75 41
0.299255 0.128157 1.191 55 75 41
0.301357 0.128265 1.192 57 77 43
0.303208 0.128265 1.192 54 74 40
0.305315 0.128372 1.193 54 74 40
0.307683 0.128587 1.195 59 79 45
0.309539 0.128587 1.195 57 77 43
0.311395 0.128587 1.195 58 78 44
0.313513 0.128695 1.196 55 75 41
0.31537 0.128695 1.196 57 78 41
0.317493 0.128803 1.197 55 76 39
0.319619 0.12891 1.198 55 76 39
0.321211 0.128803 1.197 57 78 41
0.32307 0.128803 1.197 62 81 41
0.3252 0.12891 1.198 60 79 39
0.326788 0.128803 1.197 74 95 50
0.328647 0.128803 1.197 68 89 44
0.33023 0.128695 1.196 77 98 53
0.33181 0.128587 1.195 79 100 55
0.333665 0.128587 1.195 77 98 53
0.33496 0.128372 1.193 79 100 55
0.33653 0.128265 1.192 82 103 58
0.338381 0.128265 1.192 82 103 58
0.340233 0.128265 1.192 82 103 58
0.342084 0.128265 1.192 83 104 59
0.343935 0.128265 1.192 84 104 61
0.345786 0.128265 1.192 84 104 61
0.347638 0.128265 1.192 84 103 63
0.349782 0.128372 1.193 83 102 62
0.351635 0.128372 1.193 84 103 65
0.353784 0.12848 1.194 85 104 66
0.355638 0.12848 1.194 85 104 66
0.357492 0.12848 1.194 86 105 67
0.359347 0.12848 1.194 85 102 69
0.360899 0.128372 1.193 71 88 55
0.362447 0.128265 1.192 76 87 71
0.36277 0.127727 1.187 176 187 171
0.363385 0.127296 1.183 127 134 125
0.363988 0.126866 1.179 59 66 57
0.363957 0.12622 1.173 68 71 63
0.363908 0.125574 1.167 69 72 64
0.361333 0.124068 1.153 86 86 67
0.361234 0.123422 1.147 212 212 193
0.362065 0.1231 1.144 234 240 233
0.362888 0.122777 1.141 191 197 190
0.36434 0.122669 1.14 240 246 239
0.36579 0.122562 1.139 247 253 246
0.367236 0.122454 1.138 172 176 176
0.370625 0.122992 1.143 111 115 115
-0.146546 0.114181 1.046 254 255 249
-0.14506 0.11429 1.047 254 255 249
-0.143434 0.11429 1.047 254 255 250
-0.141808 0.11429 1.047 254 255 250
-0.140182 0.11429 1.047 254 255 250
-0.138556 0.11429 1.047 254 255 250
-0.13693 0.11429 1.047 254 255 250
-0.135304 0.11429 1.047 254 255 250
-0.133805 0.114399 1.048 254 255 250
-0.132304 0.114508 1.049 254 255 250
-0.130675 0.114508 1.049 254 255 250
-0.129046 0.114508 1.049 254 255 250
-0.127417 0.114508 1.049 254 255 250
-0.125907 0.114617 1.05 254 255 250
-0.124277 0.114617 1.05 254 255 250
-0.122763 0.114727 1.051 254 255 250
-0.121131 0.114727 1.051 254 255 250
-0.119498 0.114727 1.051 254 255 250
-0.117866 0.114727 1.051 254 255 250
-0.116344 0.114836 1.052 254 255 250
-0.114711 0.114836 1.052 254 255 250
-0.113077 0.114836 1.052 254 255 250
-0.111443 0.114836 1.052 254 255 250
-0.109809 0.114836 1.052 254 255 250
-0.108278 0.114945 1.053 254 255 250
-0.106643 0.114945 1.053 254 255 250
-0.105008 0.114945 1.053 254 255 250
-0.101834 0.115054 1.054 254 255 250
-0.100292 0.115163 1.055 254 255 250
-0.0986533 0.115163 1.055 254 255 250
-0.0971068 0.115272 1.056 254 255 250
-0.0955572 0.115381 1.057 254 255 250
-0.0940045 0.115491 1.058 254 255 250
-0.0923614 0.115491 1.058 254 255 250
-0.0907182 0.115491 1.058 254 255 250
-0.0891593 0.1156 1.059 254 255 250
-0.0875973 0.115709 1.06 254 255 250
-0.0859511 0.115709 1.06 254 255 250
-0.0843049 0.115709 1.06 254 255 250
-0.0826587 0.115709 1.06 254 255 250
-0.0810124 0.115709 1.06 254 255 250
-0.0794411 0.115818 1.061 254 255 250
-0.0777933 0.115818 1.061 254 255 250
-0.0761456 0.115818 1.061 254 255 250
-0.0744978 0.115818 1.061 254 255 250
-0.0729187 0.115927 1.062 254 255 250
-0.0713365 0.116036 1.063 254 255 250
-0.0697512 0.116146 1.064 254 255 250
-0.0681627 0.116255 1.065 254 255 250
-0.0665712 0.116364 1.066 254 255 250
-0.0650375 0.116582 1.068 254 255 250
-0.0634382 0.116691 1.069 254 255 250
-0.0618935 0.11691 1.071 254 255 250
-0.0602865 0.117019 1.072 254 255 250
-0.0586763 0.117128 1.073 254 255 250
-0.0571162 0.117346 1.075 254 255 250
-0.0554982 0.117456 1.076 254 255 250
-0.0538772 0.117565 1.077 254 255 250
-0.0522046 0.117565 1.077 254 255 250
-0.050532 0.117565 1.077 254 255 250
-0.0488593 0.117565 1.077 254 255 250
-0.0471867 0.117565 1.077 254 255 250
-0.0455141 0.117565 1.077 254 255 250
-0.0438415 0.117565 1.077 254 255 250
-0.0421689 0.117565 1.077 254 255 250
-0.0404963 0.117565 1.077 254 255 250
-0.0388236 0.117565 1.077 254 255 250
-0.037151 0.117565 1.077 254 255 250
-0.0355113 0.117674 1.078 254 255 250
-0.0338686 0.117783 1.079 254 255 250
-0.0322227 0.117892 1.08 254 255 250
-0.0305454 0.117892 1.08 254 255 250
-0.0289216 0.11811 1.082 254 255 250
-0.0272664 0.11822 1.083 254 255 250
-0.0256081 0.118329 1.084 254 255 250
-0.0239687 0.118547 1.086 254 255 250
-0.0223026 0.118656 1.087 254 255 250
-0.0206335 0.118765 1.088 254 255 250
-0.0189612 0.118875 1.089 254 255 250
-0.0172858 0.118984 1.09 254 255 250
-0.0156073 0.119093 1.091 254 255 250
-0.0139129 0.119093 1.091 254 255 250
-0.0122297 0.119202 1.092 254 255 250
-0.0105435 0.119311 1.093 254 255 250
-0.00885411 0.11942 1.094 254 255 250
-0.00715509 0.11942 1.094 254 255 250
-0.00376048 0.11953 1.095 254 255 250
-0.00205991 0.11953 1.095 254 255 250
-0.000359665 0.119639 1.096 254 255 250
0.00134368 0.119748 1.097 254 255 250
0.00304736 0.119748 1.097 254 255 250
0.00475104 0.119748 1.097 254 255 250
0.00645472 0.119748 1.097 254 255 250
0.0081584 0.119748 1.097 254 255 250
0.00987107 0.119857 1.098 254 255 250
0.0115763 0.119857 1.098 254 255 250
0.0132815 0.119857 1.098 254 255 250
0.0149868 0.119857 1.098 254 255 250
0.016692 0.119857 1.098 254 255 250
0.0183972 0.119857 1.098 254 255 250
0.0201025 0.119857 1.098 254 255 250
0.0218077 0.119857 1.098 254 255 250
0.0235129 0.119857 1.098 254 255 250
0.0252181 0.119857 1.098 254 255 250
0.0269234 0.119857 1.098 254 255 250
0.0286286 0.119857 1.098 254 255 250
0.0303338 0.119857 1.098 254 255 250
0.0320391 0.119857 1.098 254 255 250
0.033775 0.119966 1.099 254 255 250
0.0354818 0.119966 1.099 254 255 250
0.0372224 0.120075 1.1 254 255 250
0.0389308 0.120075 1.1 254 255 250
0.0406761 0.120185 1.101 254 255 250
0.0424245 0.120294 1.102 254 255 250
0.0441759 0.120403 1.103 254 255 250
0.0458889 0.120403 1.103 254 255 250
0.0476451 0.120512 1.104 254 255 250
0.0494044 0.120621 1.105 254 255 250
0.0511205 0.120621 1.105 254 255 250
0.0528366 0.120621 1.105 254 255 250
0.0545527 0.120621 1.105 254 255 250
0.0562688 0.120621 1.105 254 255 250
0.0579849 0.120621 1.105 254 255 250
0.059701 0.120621 1.105 254 255 250
0.0614171 0.120621 1.105 254 255 250
0.0631903 0.12073 1.106 254 255 250
0.064908 0.12073 1.106 254 255 250
0.0666859 0.120839 1.107 254 255 250
0.0684669 0.120949 1.108 254 255 250
0.0701876 0.120949 1.108 254 255 250
0.0719733 0.121058 1.109 254 255 250
0.0737621 0.121167 1.11 254 255 250
0.0754859 0.121167 1.11 254 255 250
0.0772098 0.121167 1.11 254 255 250
0.0790048 0.121276 1.111 254 255 250
0.0807302 0.121276 1.111 254 255 250
0.0825298 0.121385 1.112 254 255 250
0.084181 0.121276 1.111 254 255 250
0.0859065 0.121276 1.111 254 255 250
0.0877108 0.121385 1.112 254 255 250
0.0895182 0.121494 1.113 254 255 250
0.0913287 0.121604 1.114 254 255 250
0.0931423 0.121713 1.115 253 254 251
0.094959 0.121822 1.116 254 255 252
0.0966922 0.121822 1.116 255 255 250
0.0986018 0.12204 1.118 254 254 248
0.100518 0.122259 1.12 235 235 229
0.10244 0.122477 1.122 211 211 205
0.104461 0.122804 1.125 156 155 152
0.106397 0.123023 1.127 135 134 131
0.108435 0.12335 1.13 133 133 133
0.110385 0.123568 1.132 128 128 128
0.112341 0.123787 1.134 143 143 143
0.114303 0.124005 1.136 140 140 140
0.118143 0.124333 1.139 77 79 73
0.120228 0.12466 1.142 40 49 35
0.122322 0.124988 1.145 44 53 39
0.124533 0.125424 1.149 49 59 40
0.126868 0.12597 1.154 54 64 45
0.129106 0.126407 1.158 52 63 42
0.131469 0.126952 1.163 52 63 42
0.133734 0.127389 1.167 52 66 42
0.136011 0.127826 1.171 53 67 43
0.140125 0.128262 1.175 53 68 42
0.142312 0.12859 1.178 53 68 40
0.144264 0.128699 1.179 53 68 40
0.146219 0.128808 1.18 52 67 39
0.148052 0.128808 1.18 52 67 39
0.149884 0.128808 1.18 53 69 38
0.151717 0.128808 1.18 55 71 40
0.15355 0.128808 1.18 42 58 27
0.15525 0.128699 1.179 55 71 40
0.157081 0.128699 1.179 52 68 37
0.159047 0.128808 1.18 49 65 34
0.16088 0.128808 1.18 50 66 35
0.162712 0.128808 1.18 50 66 35
0.164684 0.128917 1.181 52 68 37
0.16666 0.129026 1.182 53 69 38
0.168495 0.129026 1.182 52 68 37
0.170475 0.129136 1.183 50 66 35
0.172312 0.129136 1.183 53 69 38
0.174297 0.129245 1.184 52 68 37
0.175987 0.129136 1.183 53 69 38
0.177974 0.129245 1.184 53 69 38
0.179813 0.129245 1.184 53 69 38
0.181652 0.129245 1.184 52 68 37
0.183646 0.129354 1.185 52 68 37
0.185486 0.129354 1.185 52 68 37
0.187326 0.129354 1.185 50 66 35
0.189167 0.129354 1.185 54 70 39
0.191168 0.129463 1.186 54 70 39
0.19301 0.129463 1.186 55 71 40
0.194852 0.129463 1.186 53 69 38
0.196694 0.129463 1.186 52 68 37
0.198536 0.129463 1.186 52 68 37
0.200547 0.129572 1.187 52 68 37
0.20239 0.129572 1.187 52 69 36
0.204234 0.129572 1.187 53 70 37
0.206077 0.129572 1.187 53 70 37
0.20792 0.129572 1.187 54 71 38
0.209764 0.129572 1.187 54 71 38
0.211786 0.129681 1.188 54 71 38
0.21381 0.129791 1.189 53 70 37
0.215838 0.1299 1.19 52 69 36
0.217687 0.1299 1.19 53 70 37
0.219904 0.130118 1.192 54 71 38
0.221755 0.130118 1.192 54 71 38
0.223981 0.130336 1.194 55 72 39
0.226025 0.130445 1.195 54 71 38
0.228071 0.130555 1.196 53 70 37
0.230121 0.130664 1.197 53 70 37
0.23198 0.130664 1.197 52 69 36
0.234034 0.130773 1.198 55 72 39
0.236092 0.130882 1.199 54 71 38
0.238152 0.130991 1.2 55 72 39
0.240016 0.130991 1.2 54 71 38
0.242081 0.1311 1.201 54 71 38
0.243946 0.1311 1.201 53 70 37
0.245811 0.1311 1.201 53 70 37
0.247677 0.1311 1.201 53 70 37
0.249542 0.1311 1.201 54 70 39
0.251198 0.130991 1.2 54 70 39
0.253061 0.130991 1.2 54 70 39
0.254925 0.130991 1.2 54 70 39
0.256789 0.130991 1.2 54 71 38
0.258437 0.130882 1.199 54 71 38
0.260299 0.130882 1.199 54 71 38
0.261942 0.130773 1.198 54 71 38
0.263803 0.130773 1.198 52 72 38
0.265663 0.130773 1.198 51 71 37
0.267524 0.130773 1.198 51 71 37
0.26916 0.130664 1.197 51 71 37
0.271019 0.130664 1.197 51 71 37
0.272878 0.130664 1.197 52 72 38
0.274736 0.130664 1.197 52 72 38
0.276595 0.130664 1.197 54 74 40
0.278454 0.130664 1.197 53 73 39
0.279845 0.130445 1.195 54 74 40
0.281701 0.130445 1.195 53 73 39
0.283557 0.130445 1.195 53 73 39
0.285413 0.130445 1.195 53 73 39
0.286788 0.130227 1.193 52 72 38
0.288399 0.130118 1.192 53 73 39
0.29025 0.130118 1.192 52 72 38
0.292101 0.130118 1.192 52 72 38
0.293952 0.130118 1.192 53 73 39
0.295803 0.130118 1.192 54 74 40
0.297655 0.130118 1.192 55 75 41
0.299506 0.130118 1.192 55 75 41
0.301863 0.130336 1.194 57 77 43
0.303717 0.130336 1.194 57 77 43
0.305827 0.130445 1.195 57 77 43
0.307683 0.130445 1.195 59 79 45
0.309798 0.130555 1.196 58 78 44
0.311656 0.130555 1.196 59 79 45
0.313775 0.130664 1.197 57 77 43
0.31537 0.130555 1.196 57 77 43
0.317758 0.130773 1.198 55 75 41
0.319619 0.130773 1.198 55 76 39
0.321479 0.130773 1.198 58 79 42
0.32334 0.130773 1.198 61 80 40
0.3252 0.130773 1.198 57 76 36
0.327061 0.130773 1.198 67 88 43
0.328647 0.130664 1.197 67 88 43
