ply
format ascii 1.0
comment Created by Open3D
element vertex 1310
property double x
property double y
property double z
property uchar red
property uchar green
property uchar blue
end_header
-0.0548706 -0.0137212 1.132 211 192 155
-0.0530656 -0.0137091 1.131 230 214 175
-0.0513091 -0.0137091 1.131 255 247 208
-0.0495088 -0.013697 1.13 255 253 213
-0.0477539 -0.013697 1.13 255 243 203
-0.045999 -0.013697 1.13 250 244 203
-0.0443223 -0.0137212 1.132 254 248 207
-0.0425643 -0.0137212 1.132 250 249 214
-0.0408063 -0.0137212 1.132 255 254 219
-0.0390827 -0.0137333 1.133 253 255 229
-0.0373231 -0.0137333 1.133 255 255 235
-0.0355636 -0.0137333 1.133 254 255 239
-0.0337741 -0.0137212 1.132 255 255 240
-0.0320161 -0.0137212 1.132 255 255 246
-0.0302581 -0.0137212 1.132 255 255 246
-0.0285252 -0.0137333 1.133 254 255 249
-0.0267656 -0.0137333 1.133 254 255 249
-0.0250281 -0.0137455 1.134 254 255 249
-0.0232875 -0.0137576 1.135 254 255 249
-0.0215438 -0.0137697 1.136 254 255 249
-0.0198143 -0.0137939 1.138 254 255 249
-0.0180787 -0.0138182 1.14 255 255 244
-0.0163225 -0.0138303 1.141 255 255 241
-0.0145633 -0.0138424 1.142 225 222 192
-0.0127897 -0.0138424 1.142 202 199 169
-0.0110162 -0.0138424 1.142 212 205 166
-0.00924259 -0.0138424 1.142 242 235 196
-0.00746902 -0.0138424 1.142 225 211 173
-0.00569546 -0.0138424 1.142 219 205 167
-0.00391846 -0.0138303 1.141 226 216 187
-0.00214456 -0.0138182 1.14 255 254 225
-0.000373448 -0.0137939 1.138 255 255 241
0.00139268 -0.0137818 1.137 255 255 242
0.00315015 -0.0137455 1.134 255 255 249
0.00490262 -0.0137212 1.132 255 255 249
0.00663124 -0.0136606 1.127 254 255 250
0.00837407 -0.0136485 1.126 254 255 250
0.0100958 -0.0136121 1.123 254 255 250
0.0118399 -0.0136121 1.123 254 255 250
0.0135839 -0.0136121 1.123 254 255 252
0.0153553 -0.0136364 1.125 254 255 252
0.0171633 -0.0136848 1.129 254 255 252
0.0207616 -0.0137455 1.134 254 255 252
0.0226419 -0.0138182 1.14 254 255 252
0.024498 -0.0138667 1.144 254 255 252
0.0263665 -0.0139151 1.148 254 255 252
0.0282475 -0.0139636 1.152 254 255 250
0.0301148 -0.014 1.155 253 255 249
0.0319914 -0.0140364 1.158 255 255 244
0.0338482 -0.0140606 1.16 255 255 244
0.0357727 -0.0141091 1.164 255 255 234
0.0394558 -0.0141333 1.166 90 95 54
0.0413374 -0.0141576 1.168 54 59 18
0.0432622 -0.0141939 1.171 60 61 19
0.0451578 -0.0142182 1.173 69 70 28
0.0470596 -0.0142424 1.175 52 71 26
0.0490092 -0.0142788 1.178 51 70 25
0.050925 -0.014303 1.18 49 66 26
0.052847 -0.0143273 1.182 48 65 25
0.054729 -0.0143394 1.183 48 65 25
0.0566618 -0.0143636 1.185 47 64 24
0.0585515 -0.0143758 1.186 48 66 23
0.0604444 -0.0143879 1.187 48 66 23
0.0623928 -0.0144121 1.189 48 67 22
0.0642934 -0.0144242 1.19 48 67 22
0.066197 -0.0144364 1.191 48 67 22
0.0681038 -0.0144485 1.192 49 68 23
0.0700137 -0.0144606 1.193 49 68 23
0.0719268 -0.0144727 1.194 48 67 22
0.0738429 -0.0144848 1.195 50 69 24
0.0756988 -0.0144848 1.195 52 71 26
0.0775546 -0.0144848 1.195 52 71 26
0.0794105 -0.0144848 1.195 52 71 26
0.0812664 -0.0144848 1.195 48 69 24
0.0831223 -0.0144848 1.195 48 69 24
0.0849781 -0.0144848 1.195 47 68 23
0.086834 -0.0144848 1.195 47 68 23
0.0886899 -0.0144848 1.195 47 71 25
0.0905458 -0.0144848 1.195 47 71 25
0.0924016 -0.0144848 1.195 48 71 27
0.0941786 -0.0144727 1.194 48 71 27
0.096033 -0.0144727 1.194 48 73 29
0.0978873 -0.0144727 1.194 49 74 30
0.0996581 -0.0144606 1.193 49 74 30
0.101596 -0.0144727 1.194 57 82 38
0.10345 -0.0144727 1.194 55 80 36
0.105393 -0.0144848 1.195 49 74 30
0.107249 -0.0144848 1.195 48 73 29
0.109105 -0.0144848 1.195 46 71 27
0.111146 -0.0145091 1.197 46 71 27
0.113005 -0.0145091 1.197 45 70 26
0.115152 -0.0145455 1.2 46 71 27
0.117016 -0.0145455 1.2 48 73 29
0.118978 -0.0145576 1.201 49 74 30
0.120944 -0.0145697 1.202 50 75 31
0.122913 -0.0145818 1.203 50 75 31
0.124781 -0.0145818 1.203 50 75 31
0.12665 -0.0145818 1.203 51 76 32
0.128625 -0.0145939 1.204 51 76 32
0.130495 -0.0145939 1.204 52 77 33
0.132364 -0.0145939 1.204 53 78 34
0.134234 -0.0145939 1.204 53 78 34
0.135991 -0.0145818 1.203 55 80 36
0.137859 -0.0145818 1.203 53 78 34
0.139728 -0.0145818 1.203 52 77 33
0.141478 -0.0145697 1.202 52 77 33
0.143226 -0.0145576 1.201 52 77 33
0.14497 -0.0145455 1.2 53 78 34
0.146834 -0.0145455 1.2 55 80 36
0.148574 -0.0145333 1.199 56 81 37
0.15031 -0.0145212 1.198 57 82 38
0.152171 -0.0145212 1.198 58 83 39
0.154031 -0.0145212 1.198 58 83 39
0.155762 -0.0145091 1.197 56 81 37
0.157621 -0.0145091 1.197 55 80 36
0.15948 -0.0145091 1.197 59 84 40
0.161339 -0.0145091 1.197 59 84 40
0.163198 -0.0145091 1.197 57 83 37
0.165057 -0.0145091 1.197 56 82 36
0.166916 -0.0145091 1.197 57 83 37
0.168634 -0.014497 1.196 59 85 39
0.170348 -0.0144848 1.195 59 85 39
0.172204 -0.0144848 1.195 58 84 38
0.17406 -0.0144848 1.195 57 83 37
0.175916 -0.0144848 1.195 56 82 36
0.177772 -0.0144848 1.195 58 84 38
0.179628 -0.0144848 1.195 60 86 40
0.181332 -0.0144727 1.194 60 86 40
0.183033 -0.0144606 1.193 59 85 39
0.18473 -0.0144485 1.192 60 86 40
0.186582 -0.0144485 1.192 60 86 40
0.188433 -0.0144485 1.192 60 86 40
0.189965 -0.0144242 1.19 60 86 40
0.191813 -0.0144242 1.19 59 85 39
0.193661 -0.0144242 1.19 58 84 38
0.195345 -0.0144121 1.189 60 86 40
0.197026 -0.0144 1.188 60 86 40
0.198871 -0.0144 1.188 57 83 37
0.200547 -0.0143879 1.187 57 83 37
0.20239 -0.0143879 1.187 58 84 38
0.204234 -0.0143879 1.187 59 85 39
0.206251 -0.0144 1.188 58 84 38
0.208096 -0.0144 1.188 58 84 38
0.210117 -0.0144121 1.189 58 84 38
0.211964 -0.0144121 1.189 58 84 38
0.21399 -0.0144242 1.19 59 85 39
0.21602 -0.0144364 1.191 59 85 39
0.218052 -0.0144485 1.192 60 86 40
0.219904 -0.0144485 1.192 60 86 40
0.221941 -0.0144606 1.193 60 85 41
0.223981 -0.0144727 1.194 58 83 39
0.226025 -0.0144848 1.195 60 83 39
0.227881 -0.0144848 1.195 58 81 37
0.229736 -0.0144848 1.195 57 80 36
0.231592 -0.0144848 1.195 55 78 34
0.233448 -0.0144848 1.195 54 76 35
0.235304 -0.0144848 1.195 53 75 34
0.23716 -0.0144848 1.195 51 73 32
0.239016 -0.0144848 1.195 51 73 32
0.240469 -0.0144606 1.193 51 73 34
0.242118 -0.0144485 1.192 53 75 36
0.243969 -0.0144485 1.192 47 63 32
0.245408 -0.0144242 1.19 41 57 26
0.247256 -0.0144242 1.19 36 51 23
0.248895 -0.0144121 1.189 32 47 19
0.250531 -0.0144 1.188 33 48 20
0.252163 -0.0143879 1.187 31 46 18
0.254007 -0.0143879 1.187 29 44 16
0.255635 -0.0143758 1.186 29 44 16
0.257477 -0.0143758 1.186 29 44 16
0.2591 -0.0143636 1.185 28 43 15
0.26094 -0.0143636 1.185 31 44 18
0.264844 -0.0143758 1.186 33 46 20
0.266686 -0.0143758 1.186 33 46 20
0.268754 -0.0143879 1.187 34 47 21
0.270826 -0.0144 1.188 34 47 21
0.27313 -0.0144242 1.19 34 47 21
0.27544 -0.0144485 1.192 34 47 21
0.277524 -0.0144606 1.193 31 46 20
0.279377 -0.0144606 1.193 31 46 20
0.281701 -0.0144848 1.195 31 46 20
0.283557 -0.0144848 1.195 32 47 21
0.285413 -0.0144848 1.195 32 47 21
0.287509 -0.014497 1.196 33 48 22
0.289366 -0.014497 1.196 32 46 22
0.291224 -0.014497 1.196 33 47 23
0.293081 -0.014497 1.196 31 45 21
0.294939 -0.014497 1.196 31 45 21
0.297044 -0.0145091 1.197 31 45 21
0.298903 -0.0145091 1.197 31 45 21
0.30026 -0.0144848 1.195 29 43 19
0.302116 -0.0144848 1.195 29 43 19
0.303971 -0.0144848 1.195 31 45 21
0.305827 -0.0144848 1.195 31 45 21
0.307426 -0.0144727 1.194 29 46 21
0.309021 -0.0144606 1.193 30 47 22
0.310613 -0.0144485 1.192 29 47 20
0.312464 -0.0144485 1.192 27 45 18
0.314052 -0.0144364 1.191 29 47 20
0.315636 -0.0144242 1.19 30 48 21
0.317484 -0.0144242 1.19 31 49 22
0.319333 -0.0144242 1.19 30 48 21
0.321181 -0.0144242 1.19 32 50 23
0.322486 -0.0144 1.188 30 48 21
0.324604 -0.0144121 1.189 31 49 20
0.32645 -0.0144121 1.189 32 50 21
0.328021 -0.0144 1.188 32 50 21
0.329866 -0.0144 1.188 33 51 22
0.331711 -0.0144 1.188 39 57 28
0.333837 -0.0144121 1.189 37 55 26
0.335683 -0.0144121 1.189 39 57 28
0.33753 -0.0144121 1.189 39 57 28
0.339662 -0.0144242 1.19 39 57 28
0.34151 -0.0144242 1.19 38 56 27
0.343358 -0.0144242 1.19 39 57 28
0.345206 -0.0144242 1.19 44 62 33
0.347346 -0.0144364 1.191 43 61 32
0.349196 -0.0144364 1.191 43 61 32
0.351045 -0.0144364 1.191 44 62 35
0.352895 -0.0144364 1.191 44 62 35
0.354745 -0.0144364 1.191 43 61 34
0.356594 -0.0144364 1.191 44 62 35
0.358444 -0.0144364 1.191 39 55 33
0.360294 -0.0144364 1.191 36 52 30
0.361839 -0.0144242 1.19 33 44 28
0.363687 -0.0144242 1.19 29 40 24
0.365535 -0.0144242 1.19 48 59 45
0.366457 -0.0143879 1.187 27 38 24
0.366749 -0.0143273 1.182 26 36 24
0.366402 -0.0142424 1.175 28 38 26
0.362273 -0.0140121 1.156 27 33 32
0.361234 -0.013903 1.147 114 120 119
0.361116 -0.0138303 1.141 140 148 150
0.361298 -0.0137697 1.136 145 153 155
0.363062 -0.0137697 1.136 150 158 160
0.364826 -0.0137697 1.136 157 165 167
0.367559 -0.0138061 1.139 125 129 134
0.371597 -0.0138909 1.146 88 92 97
-0.1663 -0.0125422 1.187 13 25 6
-0.164457 -0.0125422 1.187 13 25 6
-0.162887 -0.0125634 1.189 13 24 8
-0.161176 -0.0125739 1.19 12 23 7
-0.159328 -0.0125739 1.19 12 23 7
-0.157612 -0.0125845 1.191 13 24 8
-0.155763 -0.0125845 1.191 12 23 7
-0.154042 -0.0125951 1.192 13 24 8
-0.152191 -0.0125951 1.192 14 25 9
-0.15034 -0.0125951 1.192 15 26 10
-0.148488 -0.0125951 1.192 24 35 19
-0.146637 -0.0125951 1.192 20 31 15
-0.144665 -0.0125845 1.191 20 32 13
-0.142695 -0.0125739 1.19 21 33 14
-0.140847 -0.0125739 1.19 21 33 14
-0.138999 -0.0125739 1.19 21 33 14
-0.137035 -0.0125634 1.189 22 34 15
-0.135075 -0.0125528 1.188 21 33 14
-0.133118 -0.0125422 1.187 20 32 13
-0.131275 -0.0125422 1.187 20 32 13
-0.12954 -0.0125528 1.188 20 32 13
-0.127803 -0.0125634 1.189 20 32 13
-0.126062 -0.0125739 1.19 20 32 13
-0.124214 -0.0125739 1.19 21 33 14
-0.122366 -0.0125739 1.19 20 32 13
-0.120619 -0.0125845 1.191 21 33 14
-0.118869 -0.0125951 1.192 22 34 15
-0.117018 -0.0125951 1.192 22 34 15
-0.115167 -0.0125951 1.192 21 33 14
-0.11322 -0.0125845 1.191 21 33 14
-0.111277 -0.0125739 1.19 21 33 14
-0.109429 -0.0125739 1.19 21 33 14
-0.107581 -0.0125739 1.19 21 33 14
-0.105644 -0.0125634 1.189 22 34 15
-0.10371 -0.0125528 1.188 24 36 17
-0.101779 -0.0125422 1.187 22 34 15
-0.0997675 -0.0125211 1.185 18 30 11
-0.0979272 -0.0125211 1.185 18 30 11
-0.0959247 -0.0125 1.183 18 31 10
-0.0940079 -0.0124894 1.182 17 30 9
-0.0920942 -0.0124788 1.181 17 30 9
-0.0901837 -0.0124683 1.18 17 30 9
-0.0881265 -0.0124366 1.177 19 31 7
-0.0861519 -0.0124154 1.175 23 35 11
-0.0841835 -0.0123943 1.173 30 30 6
-0.082081 -0.012352 1.169 27 27 3
-0.0800595 -0.0123203 1.166 62 55 32
-0.0779802 -0.0122781 1.162 128 121 98
-0.0759134 -0.0122358 1.158 147 135 111
-0.0736669 -0.0121618 1.151 155 143 119
-0.0717545 -0.0121407 1.149 158 144 120
-0.0697874 -0.012109 1.146 164 150 126
-0.0678889 -0.0120879 1.144 161 145 119
-0.0659967 -0.0120667 1.142 167 151 125
-0.0641106 -0.0120456 1.14 169 152 124
-0.0622308 -0.0120245 1.138 164 147 119
-0.0604103 -0.0120139 1.137 169 151 119
-0.0585414 -0.0119928 1.135 177 159 127
-0.0567286 -0.0119822 1.134 200 184 145
-0.0548706 -0.0119611 1.132 226 210 171
-0.0531125 -0.0119611 1.132 249 236 196
-0.0513545 -0.0119611 1.132 255 253 213
-0.0495964 -0.0119611 1.132 255 255 215
-0.0478384 -0.0119611 1.132 251 243 202
-0.0461211 -0.0119717 1.133 245 243 203
-0.0443615 -0.0119717 1.133 252 250 210
-0.0426395 -0.0119822 1.134 252 254 223
-0.0408784 -0.0119822 1.134 254 255 225
-0.0391517 -0.0119928 1.135 251 255 231
-0.037389 -0.0119928 1.135 254 255 234
-0.0356263 -0.0119928 1.135 255 255 239
-0.0338338 -0.0119822 1.134 255 255 240
-0.0320727 -0.0119822 1.134 255 255 244
-0.0303115 -0.0119822 1.134 255 255 244
-0.0285504 -0.0119822 1.134 254 255 247
-0.0267892 -0.0119822 1.134 254 255 247
-0.0250502 -0.0119928 1.135 254 255 249
-0.023308 -0.0120034 1.136 254 255 249
-0.0215817 -0.0120245 1.138 254 255 249
-0.0198492 -0.0120456 1.14 254 255 249
-0.0180946 -0.0120562 1.141 255 255 246
-0.0163368 -0.0120667 1.142 255 255 246
-0.0145888 -0.0120879 1.144 255 255 234
-0.0128121 -0.0120879 1.144 207 205 181
-0.0110451 -0.0120984 1.145 211 198 165
-0.00925877 -0.0120879 1.144 212 199 166
-0.0074821 -0.0120879 1.144 221 206 171
-0.00570543 -0.0120879 1.144 218 203 168
-0.00392876 -0.0120879 1.144 232 219 186
-0.00214833 -0.0120667 1.142 255 255 228
-0.000374433 -0.0120562 1.141 252 246 218
0.00139513 -0.0120351 1.139 255 255 229
0.00315848 -0.0120139 1.137 255 255 244
0.00491129 -0.0119822 1.134 255 255 244
0.00666066 -0.0119611 1.132 254 255 247
0.00838895 -0.0119188 1.128 254 255 247
0.0101228 -0.0118977 1.126 254 255 249
0.0118715 -0.0118977 1.126 254 255 249
0.0136323 -0.0119083 1.127 254 255 250
0.0154099 -0.0119294 1.129 254 255 250
0.0189669 -0.0119611 1.132 254 255 250
0.0207982 -0.0120034 1.136 254 255 250
0.0226816 -0.0120667 1.142 254 255 250
0.0245408 -0.012109 1.146 254 255 252
0.0263895 -0.0121407 1.149 254 255 252
0.028272 -0.012183 1.153 254 255 250
0.0301409 -0.0122147 1.156 253 255 249
0.0319914 -0.0122358 1.158 252 255 245
0.0338482 -0.0122569 1.16 254 255 247
0.0357112 -0.0122781 1.162 255 255 238
0.0376127 -0.0123098 1.165 241 242 220
0.0413374 -0.0123415 1.168 62 61 26
0.0432252 -0.0123626 1.17 55 57 19
0.0451193 -0.0123837 1.172 65 67 29
0.0470596 -0.0124154 1.175 54 69 25
0.0489676 -0.0124366 1.177 53 68 24
0.0508387 -0.0124471 1.178 48 65 25
0.0527576 -0.0124683 1.18 48 65 25
0.0546827 -0.0124894 1.182 48 65 25
0.0565662 -0.0125 1.183 48 65 25
0.0585022 -0.0125211 1.185 47 64 24
0.0603934 -0.0125317 1.186 48 65 25
0.0623403 -0.0125528 1.188 49 67 24
0.0642393 -0.0125634 1.189 48 66 23
0.0661415 -0.0125739 1.19 49 67 24
0.0681038 -0.0125951 1.192 48 66 23
0.0699551 -0.0125951 1.192 43 64 19
0.0718665 -0.0126056 1.193 46 67 22
0.0737811 -0.0126162 1.194 47 68 23
0.0756988 -0.0126268 1.195 48 69 24
0.0775546 -0.0126268 1.195 47 68 23
0.079344 -0.0126162 1.194 46 67 22
0.0811984 -0.0126162 1.194 45 66 21
0.0830527 -0.0126162 1.194 46 67 22
0.084907 -0.0126162 1.194 44 68 22
0.0867613 -0.0126162 1.194 45 69 23
0.0886157 -0.0126162 1.194 47 70 26
0.0903942 -0.0126056 1.193 46 69 25
0.092247 -0.0126056 1.193 46 71 27
0.0940998 -0.0126056 1.193 46 71 27
0.0959525 -0.0126056 1.193 46 71 27
0.0977233 -0.0125951 1.192 48 73 29
0.0995745 -0.0125951 1.192 48 73 29
0.101426 -0.0125951 1.192 50 75 31
0.103364 -0.0126056 1.193 51 76 32
0.105216 -0.0126056 1.193 48 73 29
0.107159 -0.0126162 1.194 46 71 27
0.109105 -0.0126268 1.195 46 71 27
0.111053 -0.0126373 1.196 46 71 27
0.113099 -0.0126585 1.198 46 71 27
0.115056 -0.012669 1.199 48 73 29
0.117016 -0.0126796 1.2 48 73 29
0.119077 -0.0127007 1.202 48 73 29
0.121045 -0.0127113 1.203 50 75 31
0.122913 -0.0127113 1.203 50 75 31
0.124989 -0.0127324 1.205 51 76 32
0.12686 -0.0127324 1.205 53 78 34
0.128838 -0.012743 1.206 52 77 33
0.130711 -0.012743 1.206 52 77 33
0.132474 -0.0127324 1.205 52 77 33
0.134346 -0.0127324 1.205 52 77 33
0.136217 -0.0127324 1.205 55 80 36
0.138089 -0.0127324 1.205 52 78 32
0.139728 -0.0127113 1.203 51 77 31
0.141596 -0.0127113 1.203 51 77 31
0.143345 -0.0127007 1.202 52 78 32
0.145091 -0.0126902 1.201 51 77 31
0.146834 -0.0126796 1.2 53 79 33
0.148697 -0.0126796 1.2 52 78 32
0.150436 -0.012669 1.199 55 81 35
0.152298 -0.012669 1.199 56 81 37
0.154031 -0.0126585 1.198 57 82 38
0.155762 -0.0126479 1.197 56 81 37
0.157621 -0.0126479 1.197 56 81 37
0.15948 -0.0126479 1.197 59 84 40
0.161339 -0.0126479 1.197 59 84 40
0.163198 -0.0126479 1.197 58 84 38
0.165057 -0.0126479 1.197 58 84 38
0.166916 -0.0126479 1.197 57 83 37
0.168775 -0.0126479 1.197 58 84 38
0.170491 -0.0126373 1.196 59 85 39
0.172348 -0.0126373 1.196 58 84 38
0.174206 -0.0126373 1.196 57 83 37
0.175916 -0.0126268 1.195 57 83 37
0.177772 -0.0126268 1.195 58 84 38
0.179628 -0.0126268 1.195 59 85 39
0.181484 -0.0126268 1.195 59 85 39
0.183186 -0.0126162 1.194 59 85 39
0.184885 -0.0126056 1.193 58 84 38
0.186582 -0.0125951 1.192 60 86 40
0.188433 -0.0125951 1.192 60 86 40
0.190125 -0.0125845 1.191 59 85 39
0.191813 -0.0125739 1.19 58 84 38
0.193661 -0.0125739 1.19 58 84 38
0.195345 -0.0125634 1.189 62 86 40
0.197026 -0.0125528 1.188 62 86 40
0.198703 -0.0125422 1.187 59 83 37
0.200547 -0.0125422 1.187 60 84 38
0.20239 -0.0125422 1.187 60 84 38
0.204234 -0.0125422 1.187 60 84 38
0.206077 -0.0125422 1.187 61 85 39
0.20792 -0.0125422 1.187 60 84 38
0.209941 -0.0125528 1.188 61 85 39
0.211964 -0.0125634 1.189 62 86 40
0.21399 -0.0125739 1.19 64 88 42
0.21602 -0.0125845 1.191 64 88 42
0.218052 -0.0125951 1.192 62 86 40
0.219904 -0.0125951 1.192 64 88 42
0.222127 -0.0126162 1.194 68 92 46
0.223981 -0.0126162 1.194 61 85 39
0.226025 -0.0126268 1.195 62 86 40
0.227881 -0.0126268 1.195 55 79 33
0.229736 -0.0126268 1.195 55 78 34
0.231592 -0.0126268 1.195 54 77 33
0.233448 -0.0126268 1.195 51 74 30
0.235304 -0.0126268 1.195 50 73 29
0.23716 -0.0126268 1.195 48 70 29
0.239016 -0.0126268 1.195 46 68 27
0.240469 -0.0126056 1.193 43 64 27
0.242118 -0.0125951 1.192 40 61 24
0.243765 -0.0125845 1.191 36 52 21
0.245408 -0.0125739 1.19 39 55 24
0.247256 -0.0125739 1.19 36 51 23
0.248686 -0.0125528 1.188 32 47 19
0.25032 -0.0125422 1.187 33 48 20
0.252163 -0.0125422 1.187 31 46 18
0.253793 -0.0125317 1.186 31 46 18
0.255419 -0.0125211 1.185 29 44 16
0.257259 -0.0125211 1.185 28 43 15
0.2591 -0.0125211 1.185 28 43 15
0.26094 -0.0125211 1.185 31 44 18
0.262781 -0.0125211 1.185 31 44 18
0.264621 -0.0125211 1.185 30 43 17
0.268528 -0.0125317 1.186 31 44 18
0.270826 -0.0125528 1.188 33 46 20
0.27313 -0.0125739 1.19 33 46 20
0.27544 -0.0125951 1.192 33 46 20
0.277291 -0.0125951 1.192 31 46 20
0.279611 -0.0126162 1.194 29 44 18
0.281701 -0.0126268 1.195 29 44 18
0.283557 -0.0126268 1.195 31 46 20
0.285652 -0.0126373 1.196 31 46 20
0.287509 -0.0126373 1.196 32 47 21
0.289366 -0.0126373 1.196 33 47 23
0.291467 -0.0126479 1.197 33 47 23
0.293326 -0.0126479 1.197 32 46 22
0.295185 -0.0126479 1.197 32 46 22
0.297044 -0.0126479 1.197 32 46 22
0.298903 -0.0126479 1.197 31 45 21
0.300762 -0.0126479 1.197 29 43 19
0.302368 -0.0126373 1.196 29 43 19
0.304226 -0.0126373 1.196 29 43 19
0.306083 -0.0126373 1.196 31 45 21
0.307683 -0.0126268 1.195 32 46 22
0.309539 -0.0126268 1.195 31 45 21
0.311134 -0.0126162 1.194 29 46 21
0.312727 -0.0126056 1.193 29 46 21
0.314579 -0.0126056 1.193 30 48 21
0.316167 -0.0125951 1.192 30 48 21
0.318018 -0.0125951 1.192 31 49 22
0.319601 -0.0125845 1.191 31 49 22
0.321451 -0.0125845 1.191 31 49 22
0.323029 -0.0125739 1.19 30 48 21
0.324877 -0.0125739 1.19 30 48 19
0.32645 -0.0125634 1.189 31 49 20
0.328021 -0.0125528 1.188 32 50 21
0.329866 -0.0125528 1.188 34 52 23
0.331711 -0.0125528 1.188 41 59 30
0.333556 -0.0125528 1.188 39 57 28
0.335401 -0.0125528 1.188 39 57 28
0.337246 -0.0125528 1.188 39 57 28
0.339376 -0.0125634 1.189 39 57 28
0.341223 -0.0125634 1.189 39 57 28
0.34307 -0.0125634 1.189 40 58 29
0.345206 -0.0125739 1.19 41 59 30
0.347054 -0.0125739 1.19 43 61 32
0.348902 -0.0125739 1.19 43 61 32
0.35075 -0.0125739 1.19 44 62 35
0.352599 -0.0125739 1.19 44 62 35
0.354447 -0.0125739 1.19 44 61 36
0.356295 -0.0125739 1.19 41 58 33
0.358143 -0.0125739 1.19 39 54 34
0.359991 -0.0125739 1.19 39 54 34
0.361231 -0.0125528 1.188 30 44 27
0.363076 -0.0125528 1.188 29 43 26
0.364614 -0.0125422 1.187 50 61 47
0.36584 -0.0125211 1.185 28 39 25
0.366129 -0.0124683 1.18 26 36 24
0.365779 -0.0123943 1.173 27 37 25
0.362273 -0.0122147 1.156 29 35 34
0.361234 -0.0121196 1.147 112 118 117
0.361432 -0.0120667 1.142 143 151 153
0.361298 -0.0120034 1.136 146 154 156
0.363062 -0.0120034 1.136 152 160 162
0.364505 -0.0119928 1.135 158 166 168
0.367236 -0.0120245 1.138 119 124 127
0.371273 -0.0120984 1.145 90 95 98
-0.16616 -0.0106876 1.186 14 26 7
-0.164457 -0.0106966 1.187 14 26 7
-0.162887 -0.0107146 1.189 14 25 9
-0.161176 -0.0107236 1.19 15 26 10
-0.159328 -0.0107236 1.19 15 26 10
-0.157612 -0.0107326 1.191 15 26 10
-0.155763 -0.0107326 1.191 13 24 8
-0.154042 -0.0107416 1.192 13 24 8
-0.152191 -0.0107416 1.192 14 25 9
-0.15034 -0.0107416 1.192 14 25 9
-0.148488 -0.0107416 1.192 18 29 13
-0.146637 -0.0107416 1.192 19 30 14
-0.144786 -0.0107416 1.192 19 31 12
-0.142815 -0.0107326 1.191 20 32 13
-0.140847 -0.0107236 1.19 21 33 14
-0.138999 -0.0107236 1.19 22 34 15
-0.137151 -0.0107236 1.19 21 33 14
-0.135189 -0.0107146 1.189 21 33 14
-0.13323 -0.0107056 1.188 21 33 14
-0.131496 -0.0107146 1.189 20 32 13
-0.129649 -0.0107146 1.189 20 32 13
-0.12791 -0.0107236 1.19 19 31 12
-0.126062 -0.0107236 1.19 20 32 13
-0.124214 -0.0107236 1.19 17 29 10
-0.122469 -0.0107326 1.191 20 32 13
-0.120619 -0.0107326 1.191 24 36 17
-0.118869 -0.0107416 1.192 25 37 18
-0.117018 -0.0107416 1.192 22 34 15
-0.115167 -0.0107416 1.192 18 30 11
-0.11322 -0.0107326 1.191 19 31 12
-0.111371 -0.0107326 1.191 18 30 11
-0.109429 -0.0107236 1.19 18 30 11
-0.107581 -0.0107236 1.19 17 29 10
-0.105733 -0.0107236 1.19 17 29 10
-0.103797 -0.0107146 1.189 18 30 11
-0.101865 -0.0107056 1.188 19 31 12
-0.0999359 -0.0106966 1.187 25 38 17
-0.0979272 -0.0106786 1.185 27 40 19
-0.0960057 -0.0106696 1.184 28 41 20
-0.0940874 -0.0106605 1.183 29 42 21
-0.0921722 -0.0106515 1.182 31 45 21
-0.0901837 -0.0106335 1.18 32 46 22
-0.0882013 -0.0106155 1.178 29 43 19
-0.0861519 -0.0105885 1.175 35 49 25
-0.0841835 -0.0105704 1.173 34 34 10
-0.0822214 -0.0105524 1.171 33 33 9
-0.0800595 -0.0105074 1.166 71 64 39
-0.0779802 -0.0104713 1.162 132 125 100
-0.0759134 -0.0104353 1.158 147 137 113
-0.0737309 -0.0103812 1.152 154 144 120
-0.0717545 -0.0103542 1.149 156 143 116
-0.0698483 -0.0103361 1.147 162 149 122
-0.0678889 -0.0103091 1.144 162 145 117
-0.0659389 -0.0102821 1.141 166 149 121
-0.0641106 -0.0102731 1.14 163 147 116
-0.0622308 -0.010255 1.138 166 150 119
-0.0604103 -0.010246 1.137 173 156 119
-0.0585929 -0.010237 1.136 184 167 130
-0.0567787 -0.010228 1.135 215 199 160
-0.0549675 -0.010219 1.134 241 225 186
-0.0532064 -0.010219 1.134 255 255 215
-0.0514452 -0.010219 1.134 255 255 218
-0.0497279 -0.010228 1.135 255 254 213
-0.0479652 -0.010228 1.135 247 243 202
-0.0462432 -0.010237 1.136 253 255 219
-0.044479 -0.010237 1.136 255 255 229
-0.0427523 -0.010246 1.137 255 255 235
-0.0410226 -0.010255 1.138 255 255 234
-0.0392552 -0.010255 1.138 255 255 237
-0.0374879 -0.010255 1.138 255 255 236
-0.0357205 -0.010255 1.138 254 255 237
-0.0339233 -0.010246 1.137 255 255 238
-0.0321575 -0.010246 1.137 255 255 241
-0.030365 -0.010237 1.136 255 255 242
-0.0286007 -0.010237 1.136 254 255 246
-0.0268365 -0.010237 1.136 254 255 246
-0.0250943 -0.010246 1.137 254 255 247
-0.023349 -0.010255 1.138 254 255 247
-0.0216196 -0.0102731 1.14 254 255 249
-0.019884 -0.0102911 1.142 254 255 249
-0.0181421 -0.0103091 1.144 254 255 247
-0.0163798 -0.0103181 1.145 254 255 247
-0.0146015 -0.0103181 1.145 255 255 237
-0.0128457 -0.0103361 1.147 228 227 205
-0.0110644 -0.0103361 1.147 201 191 157
-0.00928305 -0.0103361 1.147 203 193 159
-0.00750172 -0.0103361 1.147 214 201 168
-0.0057154 -0.0103271 1.146 231 218 185
-0.00393563 -0.0103271 1.146 255 255 226
-0.00215397 -0.0103181 1.145 255 255 229
-0.000375417 -0.0103091 1.144 237 233 205
0.0013988 -0.0102911 1.142 197 193 165
0.00316681 -0.0102731 1.14 255 255 238
0.00492428 -0.010246 1.137 255 255 242
0.00667243 -0.010219 1.134 254 255 249
0.00841869 -0.010201 1.132 254 255 249
0.0101677 -0.010192 1.131 254 255 249
0.0119031 -0.0101739 1.129 254 255 249
0.0136565 -0.0101739 1.129 254 255 250
0.0154235 -0.0101829 1.13 254 255 250
0.0172089 -0.010201 1.132 254 255 250
0.0190339 -0.010237 1.136 254 255 250
0.0208714 -0.0102731 1.14 254 255 252
0.0227213 -0.0103091 1.144 254 255 252
0.024605 -0.0103542 1.149 254 255 252
0.0264354 -0.0103722 1.151 254 255 252
0.0282965 -0.0103992 1.154 254 255 250
0.0301669 -0.0104262 1.157 253 255 249
0.0319914 -0.0104353 1.158 252 255 247
0.0338482 -0.0104533 1.16 253 255 248
0.0357112 -0.0104713 1.162 255 255 239
0.0375804 -0.0104893 1.164 255 255 236
0.0412666 -0.0105074 1.166 61 58 23
0.0431514 -0.0105254 1.168 51 53 17
0.0450808 -0.0105524 1.171 63 65 29
0.0469795 -0.0105704 1.173 56 68 26
0.0488844 -0.0105885 1.175 55 67 25
0.0507955 -0.0106065 1.177 48 65 27
0.0527129 -0.0106245 1.179 48 65 27
0.0545902 -0.0106335 1.18 49 66 28
0.0565184 -0.0106515 1.182 49 66 28
0.0584528 -0.0106696 1.184 48 65 25
0.0603425 -0.0106786 1.185 47 64 24
0.0622878 -0.0106966 1.187 48 65 25
0.0641853 -0.0107056 1.188 48 65 25
0.0660859 -0.0107146 1.189 48 66 23
0.0680467 -0.0107326 1.191 49 67 24
0.0699551 -0.0107416 1.192 47 65 22
0.0718063 -0.0107416 1.192 49 67 24
0.0737193 -0.0107507 1.193 49 67 24
0.0755721 -0.0107507 1.193 49 67 24
0.0774248 -0.0107507 1.193 49 67 24
0.0792776 -0.0107507 1.193 48 66 23
0.0811304 -0.0107507 1.193 46 66 23
0.0829136 -0.0107416 1.192 47 67 24
0.0847648 -0.0107416 1.192 47 67 24
0.086616 -0.0107416 1.192 47 67 24
0.0884672 -0.0107416 1.192 46 69 25
0.0903184 -0.0107416 1.192 46 69 25
0.0921697 -0.0107416 1.192 47 69 28
0.0940209 -0.0107416 1.192 47 69 28
0.0958721 -0.0107416 1.192 46 70 29
0.0977233 -0.0107416 1.192 46 70 29
0.0995745 -0.0107416 1.192 46 70 29
0.101426 -0.0107416 1.192 46 70 29
0.103277 -0.0107416 1.192 48 72 31
0.105128 -0.0107416 1.192 48 72 31
0.107159 -0.0107597 1.194 48 73 29
0.109105 -0.0107687 1.195 46 71 27
0.11096 -0.0107687 1.195 46 71 27
0.113005 -0.0107867 1.197 46 71 27
0.115056 -0.0108047 1.199 48 73 29
0.117113 -0.0108228 1.201 46 71 27
0.119176 -0.0108408 1.203 48 73 29
0.121045 -0.0108408 1.203 50 75 31
0.123015 -0.0108498 1.204 50 75 31
0.125092 -0.0108678 1.206 49 74 30
0.126965 -0.0108678 1.206 52 77 33
0.128838 -0.0108678 1.206 53 78 34
0.13082 -0.0108768 1.207 52 77 33
0.132584 -0.0108678 1.206 52 77 33
0.134457 -0.0108678 1.206 52 77 33
0.13633 -0.0108678 1.206 53 78 34
0.138203 -0.0108678 1.206 52 78 32
0.13996 -0.0108588 1.205 53 79 33
0.141596 -0.0108408 1.203 52 78 32
0.143464 -0.0108408 1.203 52 78 32
0.145212 -0.0108318 1.202 53 79 33
0.146834 -0.0108137 1.2 55 81 35
0.148697 -0.0108137 1.2 53 79 33
0.150436 -0.0108047 1.199 53 79 33
0.152171 -0.0107957 1.198 56 82 36
0.154031 -0.0107957 1.198 58 84 38
0.155762 -0.0107867 1.197 58 83 39
0.157621 -0.0107867 1.197 58 83 39
0.15948 -0.0107867 1.197 59 84 40
0.161339 -0.0107867 1.197 58 83 39
0.163198 -0.0107867 1.197 59 85 39
0.165057 -0.0107867 1.197 59 85 39
0.166916 -0.0107867 1.197 58 84 38
0.168775 -0.0107867 1.197 58 84 38
0.170634 -0.0107867 1.197 59 85 39
0.172492 -0.0107867 1.197 58 84 38
0.174351 -0.0107867 1.197 58 84 38
0.17621 -0.0107867 1.197 60 86 40
0.178069 -0.0107867 1.197 59 85 39
0.179778 -0.0107777 1.196 60 86 40
0.181636 -0.0107777 1.196 59 85 39
0.18334 -0.0107687 1.195 59 85 39
0.185195 -0.0107687 1.195 58 84 38
0.186895 -0.0107597 1.194 58 84 38
0.188433 -0.0107416 1.192 59 85 39
0.190284 -0.0107416 1.192 58 84 38
0.191813 -0.0107236 1.19 59 85 39
0.193661 -0.0107236 1.19 58 84 38
0.195345 -0.0107146 1.189 60 86 40
0.197026 -0.0107056 1.188 60 86 40
0.198703 -0.0106966 1.187 61 85 39
0.200547 -0.0106966 1.187 61 85 39
0.20239 -0.0106966 1.187 61 85 39
0.204234 -0.0106966 1.187 61 85 39
0.206251 -0.0107056 1.188 61 85 39
0.208096 -0.0107056 1.188 60 84 38
0.210117 -0.0107146 1.189 61 85 39
0.211964 -0.0107146 1.189 65 89 43
0.21399 -0.0107236 1.19 63 89 43
0.21602 -0.0107326 1.191 64 90 44
0.218052 -0.0107416 1.192 62 88 42
0.220088 -0.0107507 1.193 64 90 44
0.222127 -0.0107597 1.194 68 94 48
0.224169 -0.0107687 1.195 57 83 37
0.226025 -0.0107687 1.195 56 81 37
0.227881 -0.0107687 1.195 53 78 34
0.229736 -0.0107687 1.195 53 78 34
0.231592 -0.0107687 1.195 55 80 36
0.233448 -0.0107687 1.195 53 75 34
0.235304 -0.0107687 1.195 53 75 34
0.23716 -0.0107687 1.195 46 68 27
0.238816 -0.0107597 1.194 40 62 21
0.240469 -0.0107507 1.193 39 61 22
0.242118 -0.0107416 1.192 37 59 20
0.243765 -0.0107326 1.191 38 54 23
0.245408 -0.0107236 1.19 41 57 26
0.246841 -0.0107056 1.188 39 54 26
0.248476 -0.0106966 1.187 32 47 19
0.25032 -0.0106966 1.187 32 47 19
0.251951 -0.0106876 1.186 31 46 18
0.253579 -0.0106786 1.185 31 46 18
0.254988 -0.0106605 1.183 33 48 20
0.257042 -0.0106696 1.184 28 43 17
0.258881 -0.0106696 1.184 28 43 17
0.26072 -0.0106696 1.184 31 44 18
0.262337 -0.0106605 1.183 30 43 17
0.264621 -0.0106786 1.185 30 43 17
0.268528 -0.0106876 1.186 33 45 21
0.270598 -0.0106966 1.187 34 46 22
0.27313 -0.0107236 1.19 32 46 22
0.27544 -0.0107416 1.192 32 46 22
0.277291 -0.0107416 1.192 33 47 23
0.279611 -0.0107597 1.194 35 49 25
0.281701 -0.0107687 1.195 35 49 25
0.283557 -0.0107687 1.195 35 49 25
0.285652 -0.0107777 1.196 33 47 23
0.287749 -0.0107867 1.197 33 47 23
0.289608 -0.0107867 1.197 33 47 23
0.291467 -0.0107867 1.197 33 47 23
0.293326 -0.0107867 1.197 32 46 22
0.295185 -0.0107867 1.197 32 46 22
0.297044 -0.0107867 1.197 33 47 23
0.298903 -0.0107867 1.197 31 45 21
0.300762 -0.0107867 1.197 31 45 21
0.302621 -0.0107867 1.197 31 45 21
0.30448 -0.0107867 1.197 31 45 21
0.306339 -0.0107867 1.197 31 45 21
0.308198 -0.0107867 1.197 31 46 20
0.310057 -0.0107867 1.197 29 44 18
0.311656 -0.0107777 1.196 27 45 18
0.313513 -0.0107777 1.196 27 45 18
0.315107 -0.0107687 1.195 29 47 20
0.316963 -0.0107687 1.195 29 47 20
0.318552 -0.0107597 1.194 31 49 22
0.320138 -0.0107507 1.193 30 48 21
0.321721 -0.0107416 1.192 30 48 19
0.323572 -0.0107416 1.192 29 47 18
0.32515 -0.0107326 1.191 30 48 19
0.326725 -0.0107236 1.19 31 49 20
0.328297 -0.0107146 1.189 33 51 22
0.329866 -0.0107056 1.188 34 52 23
0.331432 -0.0106966 1.187 36 54 25
0.333275 -0.0106966 1.187 36 54 25
0.335119 -0.0106966 1.187 38 56 27
0.336962 -0.0106966 1.187 38 56 27
0.338806 -0.0106966 1.187 39 57 28
0.340649 -0.0106966 1.187 40 58 29
0.342781 -0.0107056 1.188 40 58 29
0.344626 -0.0107056 1.188 40 58 29
0.346471 -0.0107056 1.188 41 59 30
0.348316 -0.0107056 1.188 43 61 32
0.350161 -0.0107056 1.188 44 62 35
0.352006 -0.0107056 1.188 40 58 31
0.353851 -0.0107056 1.188 40 57 32
0.355397 -0.0106966 1.187 40 57 32
0.35724 -0.0106966 1.187 39 54 34
0.359084 -0.0106966 1.187 40 55 35
0.360927 -0.0106966 1.187 31 45 28
0.362465 -0.0106876 1.186 30 44 27
0.364 -0.0106786 1.185 53 64 50
0.364914 -0.0106515 1.182 33 44 30
0.365198 -0.0106065 1.177 27 37 25
0.365155 -0.0105524 1.171 25 35 23
0.362273 -0.0104172 1.156 27 34 30
0.361549 -0.0103451 1.148 109 116 112
0.361432 -0.0102911 1.142 142 150 152
0.361298 -0.010237 1.136 150 158 160
0.363062 -0.010237 1.136 153 161 163
0.364505 -0.010228 1.135 159 167 169
0.367236 -0.010255 1.138 119 126 130
0.371273 -0.0103181 1.145 90 97 101
-0.1663 -0.00885095 1.187 15 27 8
-0.164595 -0.00885841 1.188 15 27 8
-0.162887 -0.00886586 1.189 14 26 7
-0.161176 -0.00887332 1.19 14 26 7
-0.159328 -0.00887332 1.19 13 24 8
-0.157612 -0.00888078 1.191 14 25 9
-0.155893 -0.00888823 1.192 13 24 8
-0.154042 -0.00888823 1.192 14 25 9
-0.152191 -0.00888823 1.192 15 26 10
-0.15034 -0.00888823 1.192 13 24 8
-0.148488 -0.00888823 1.192 17 28 12
-0.146637 -0.00888823 1.192 19 30 14
-0.144786 -0.00888823 1.192 20 32 13
-0.142935 -0.00888823 1.192 21 33 14
-0.140965 -0.00888078 1.191 22 34 15
-0.138999 -0.00887332 1.19 21 33 14
-0.137151 -0.00887332 1.19 21 33 14
-0.135303 -0.00887332 1.19 22 34 15
-0.133342 -0.00886586 1.189 21 33 14
-0.131606 -0.00887332 1.19 17 29 10
-0.129758 -0.00887332 1.19 14 26 7
-0.12791 -0.00887332 1.19 15 27 8
-0.126062 -0.00887332 1.19 18 30 11
-0.124318 -0.00888078 1.191 18 30 11
-0.122469 -0.00888078 1.191 18 31 10
-0.12072 -0.00888823 1.192 19 32 11
-0.118869 -0.00888823 1.192 20 33 12
-0.117018 -0.00888823 1.192 20 33 12
-0.115167 -0.00888823 1.192 22 35 14
-0.113315 -0.00888823 1.192 31 44 23
-0.111371 -0.00888078 1.191 39 52 31
-0.109521 -0.00888078 1.191 39 52 31
-0.107581 -0.00887332 1.19 39 52 31
-0.105733 -0.00887332 1.19 33 46 25
-0.103797 -0.00886586 1.189 32 45 24
-0.101865 -0.00885841 1.188 33 46 25
-0.0999359 -0.00885095 1.187 34 47 26
-0.0980098 -0.00884349 1.186 35 48 27
-0.0960868 -0.00883604 1.185 38 51 30
-0.0942465 -0.00883604 1.185 39 52 31
-0.0922502 -0.00882112 1.183 39 53 29
-0.0903365 -0.00881367 1.182 36 50 26
-0.0882762 -0.0087913 1.179 34 46 22
-0.0862985 -0.00877638 1.177 36 48 24
-0.0843271 -0.00876147 1.175 38 38 14
-0.0822214 -0.00873164 1.171 38 38 14
-0.0801282 -0.00870182 1.167 74 67 42
-0.0780473 -0.00867199 1.163 135 128 103
-0.0759789 -0.00864217 1.159 149 138 111
-0.0737309 -0.00858997 1.152 156 145 118
-0.0717545 -0.0085676 1.149 154 138 112
-0.0698483 -0.00855269 1.147 160 144 118
-0.0678889 -0.00853032 1.144 162 145 117
-0.0659967 -0.0085154 1.142 164 147 119
-0.0641106 -0.00850049 1.14 164 148 117
-0.0622308 -0.00848558 1.138 168 152 121
-0.0604634 -0.00848558 1.138 181 163 131
-0.0585929 -0.00847066 1.136 208 190 158
-0.0568287 -0.00847066 1.136 246 231 196
-0.055016 -0.00846321 1.135 255 254 219
-0.0533002 -0.00847066 1.136 255 255 218
-0.0515359 -0.00847066 1.136 255 255 221
-0.0498155 -0.00847812 1.137 255 255 219
-0.048092 -0.00848558 1.138 254 253 216
-0.0463246 -0.00848558 1.138 255 255 233
-0.0446356 -0.00850049 1.14 255 255 233
-0.0428651 -0.00850049 1.14 255 255 236
-0.0410947 -0.00850049 1.14 255 255 235
-0.0393587 -0.00850795 1.141 255 255 236
-0.0375867 -0.00850795 1.141 255 255 237
-0.0357833 -0.00850049 1.14 255 255 236
-0.0340128 -0.00850049 1.14 254 255 235
-0.0322424 -0.00850049 1.14 255 255 237
-0.0304452 -0.00849303 1.139 255 255 239
-0.0286763 -0.00849303 1.139 255 255 241
-0.0269074 -0.00849303 1.139 255 255 242
-0.0251605 -0.00850049 1.14 254 255 244
-0.0233901 -0.00850049 1.14 254 255 244
-0.0216575 -0.0085154 1.142 254 255 246
-0.0199014 -0.00852286 1.143 254 255 246
-0.0181421 -0.00853032 1.144 254 255 246
-0.0163941 -0.00854523 1.146 254 255 246
-0.014627 -0.00855269 1.147 255 255 239
-0.0128681 -0.0085676 1.149 253 254 232
-0.0110837 -0.0085676 1.149 206 200 166
-0.00930733 -0.00857506 1.15 204 198 164
-0.0075148 -0.0085676 1.149 208 198 164
-0.00573037 -0.0085676 1.149 255 248 214
-0.00394593 -0.0085676 1.149 255 255 228
-0.00215961 -0.00856014 1.148 255 255 227
-0.000376402 -0.00855269 1.147 244 236 202
0.00140248 -0.00853777 1.145 170 162 128
0.00317515 -0.00852286 1.143 213 204 177
0.00493727 -0.00850049 1.14 255 255 232
0.00669596 -0.00848558 1.138 255 255 241
0.00844844 -0.00847066 1.136 255 255 241
0.0102037 -0.00846321 1.135 255 255 243
0.0119558 -0.00845575 1.134 255 255 244
0.013717 -0.00845575 1.134 254 255 247
0.0154918 -0.00846321 1.135 254 255 247
0.0172697 -0.00847066 1.136 254 255 249
0.0191009 -0.00850049 1.14 254 255 249
0.0209446 -0.00853032 1.144 254 255 249
0.0227809 -0.00855269 1.147 254 255 249
0.0246479 -0.00858251 1.151 254 255 249
0.0265043 -0.00860488 1.154 254 255 249
0.0283456 -0.0086198 1.156 254 255 249
0.030193 -0.00863471 1.158 254 255 249
0.0319914 -0.00863471 1.158 253 255 248
0.0338482 -0.00864962 1.16 253 255 248
0.0357112 -0.00866454 1.162 255 255 241
0.0375804 -0.00867945 1.164 255 255 239
0.0412666 -0.00869436 1.166 65 63 30
0.0431514 -0.00870927 1.168 46 48 12
0.0450423 -0.00872419 1.17 60 62 26
0.0469394 -0.0087391 1.172 53 66 27
0.0488428 -0.00875401 1.174 52 65 26
0.0507955 -0.00877638 1.177 46 65 27
0.0526682 -0.00878384 1.178 46 65 27
0.0545902 -0.00879875 1.18 46 65 27
0.0564706 -0.00880621 1.181 46 65 27
0.0583541 -0.00881367 1.182 46 65 27
0.0602916 -0.00882858 1.184 45 64 26
0.0622353 -0.00884349 1.186 40 59 21
0.0641313 -0.00885095 1.187 36 55 17
0.0660303 -0.00885841 1.188 41 58 18
0.0679896 -0.00887332 1.19 44 61 21
0.0698377 -0.00887332 1.19 45 63 20
0.071746 -0.00888078 1.191 47 65 22
0.0736575 -0.00888823 1.192 48 68 25
0.0755087 -0.00888823 1.192 47 67 24
0.0773599 -0.00888823 1.192 47 67 24
0.0792111 -0.00888823 1.192 46 66 23
0.0810624 -0.00888823 1.192 45 65 22
0.0829136 -0.00888823 1.192 48 68 25
0.0846937 -0.00888078 1.191 46 69 25
0.0865433 -0.00888078 1.191 46 69 25
0.088393 -0.00888078 1.191 46 69 25
0.0902427 -0.00888078 1.191 46 69 25
0.0920923 -0.00888078 1.191 44 68 27
0.093942 -0.00888078 1.191 45 69 28
0.0957917 -0.00888078 1.191 44 68 27
0.0976413 -0.00888078 1.191 45 69 28
0.0994075 -0.00887332 1.19 46 70 29
0.101341 -0.00888078 1.191 46 70 29
0.10319 -0.00888078 1.191 46 70 29
0.10504 -0.00888078 1.191 48 72 31
0.106979 -0.00888823 1.192 48 72 31
0.109013 -0.00890315 1.194 48 72 31
0.11096 -0.0089106 1.195 46 71 27
0.113005 -0.00892552 1.197 48 73 29
0.115056 -0.00894043 1.199 49 74 30
0.117016 -0.00894789 1.2 49 74 30
0.119176 -0.00897025 1.203 49 74 30
0.121145 -0.00897771 1.204 49 74 30
0.123117 -0.00898517 1.205 49 74 30
0.125092 -0.00899262 1.206 50 75 31
0.126965 -0.00899262 1.206 52 77 33
0.128945 -0.00900008 1.207 53 78 34
0.13082 -0.00900008 1.207 52 77 33
0.132584 -0.00899262 1.206 52 77 33
0.134457 -0.00899262 1.206 52 77 33
0.13633 -0.00899262 1.206 53 78 34
0.138203 -0.00899262 1.206 52 78 32
0.140076 -0.00899262 1.206 52 78 32
0.141714 -0.00897771 1.204 53 79 33
0.143464 -0.00897025 1.203 53 79 33
0.145212 -0.0089628 1.202 55 81 35
0.146834 -0.00894789 1.2 55 81 35
0.148697 -0.00894789 1.2 55 81 35
0.150436 -0.00894043 1.199 55 81 35
0.152298 -0.00894043 1.199 56 82 36
0.154031 -0.00893297 1.198 57 83 37
0.155762 -0.00892552 1.197 58 84 38
0.157621 -0.00892552 1.197 58 84 38
0.15948 -0.00892552 1.197 59 85 39
0.161339 -0.00892552 1.197 58 84 38
0.163334 -0.00893297 1.198 56 82 36
0.165194 -0.00893297 1.198 58 84 38
0.167055 -0.00893297 1.198 60 86 40
0.168916 -0.00893297 1.198 60 86 40
0.170776 -0.00893297 1.198 62 86 40
0.172637 -0.00893297 1.198 60 84 38
0.174351 -0.00892552 1.197 60 84 38
0.176358 -0.00893297 1.198 61 85 39
0.178218 -0.00893297 1.198 60 84 38
0.179928 -0.00892552 1.197 61 85 39
0.181787 -0.00892552 1.197 61 85 39
0.183493 -0.00891806 1.196 61 85 39
0.18535 -0.00891806 1.196 64 88 42
0.187051 -0.0089106 1.195 61 85 39
0.188749 -0.00890315 1.194 62 86 40
0.190284 -0.00888823 1.192 61 85 39
0.192135 -0.00888823 1.192 64 88 42
0.193987 -0.00888823 1.192 61 85 39
0.195509 -0.00887332 1.19 62 86 40
0.197357 -0.00887332 1.19 62 86 40
0.198871 -0.00885841 1.188 62 86 40
0.200716 -0.00885841 1.188 61 85 39
0.202561 -0.00885841 1.188 61 85 39
0.204234 -0.00885095 1.187 61 85 39
0.206251 -0.00885841 1.188 60 84 38
0.208096 -0.00885841 1.188 61 85 39
0.210117 -0.00886586 1.189 62 86 40
0.211964 -0.00886586 1.189 64 88 42
0.21399 -0.00887332 1.19 65 89 43
0.21602 -0.00888078 1.191 64 88 42
0.218052 -0.00888823 1.192 61 85 39
0.220088 -0.00889569 1.193 64 88 42
0.222127 -0.00890315 1.194 70 94 48
0.224169 -0.0089106 1.195 61 85 39
0.226025 -0.0089106 1.195 60 83 39
0.227881 -0.0089106 1.195 54 77 33
0.229736 -0.0089106 1.195 55 78 34
0.231592 -0.0089106 1.195 57 80 36
0.233448 -0.0089106 1.195 53 75 34
0.235304 -0.0089106 1.195 53 75 34
0.23716 -0.0089106 1.195 57 79 38
0.238816 -0.00890315 1.194 57 79 38
0.240267 -0.00888823 1.192 55 73 37
0.242118 -0.00888823 1.192 47 65 29
0.24356 -0.00887332 1.19 42 59 26
0.245408 -0.00887332 1.19 43 60 27
0.246841 -0.00885841 1.188 43 58 30
0.248476 -0.00885095 1.187 35 50 22
0.250109 -0.00884349 1.186 34 49 21
0.251738 -0.00883604 1.185 31 46 18
0.253365 -0.00882858 1.184 31 46 20
0.254773 -0.00881367 1.182 33 48 22
0.256825 -0.00882112 1.183 29 44 18
0.258444 -0.00881367 1.182 31 46 20
0.2605 -0.00882112 1.183 35 48 22
0.262337 -0.00882112 1.183 34 47 21
0.264398 -0.00882858 1.184 35 48 22
0.266461 -0.00883604 1.185 35 48 22
0.27037 -0.00884349 1.186 34 46 22
0.2729 -0.00886586 1.189 31 45 21
0.274978 -0.00887332 1.19 32 46 22
0.277291 -0.00888823 1.192 33 47 23
0.279143 -0.00888823 1.192 33 47 23
0.281229 -0.00889569 1.193 33 47 23
0.283557 -0.0089106 1.195 33 47 23
0.285413 -0.0089106 1.195 29 43 19
0.287509 -0.00891806 1.196 32 46 22
0.289608 -0.00892552 1.197 29 43 19
0.291467 -0.00892552 1.197 32 46 22
0.293326 -0.00892552 1.197 33 47 23
0.295432 -0.00893297 1.198 32 46 22
0.297292 -0.00893297 1.198 33 47 23
0.298903 -0.00892552 1.197 32 46 22
0.301014 -0.00893297 1.198 32 46 22
0.302874 -0.00893297 1.198 32 46 22
0.304735 -0.00893297 1.198 31 45 21
0.306595 -0.00893297 1.198 31 45 21
0.308456 -0.00893297 1.198 28 42 18
0.310316 -0.00893297 1.198 29 43 19
0.311916 -0.00892552 1.197 28 42 18
0.313775 -0.00892552 1.197 29 43 19
0.315634 -0.00892552 1.197 29 47 20
0.317493 -0.00892552 1.197 29 47 20
0.318818 -0.0089106 1.195 31 49 22
0.320674 -0.0089106 1.195 30 48 21
0.32226 -0.00890315 1.194 30 48 19
0.323843 -0.00889569 1.193 31 49 20
0.32515 -0.00888078 1.191 32 50 21
0.326725 -0.00887332 1.19 32 50 21
0.328297 -0.00886586 1.189 34 52 23
0.329866 -0.00885841 1.188 34 52 23
0.331432 -0.00885095 1.187 34 52 23
0.333275 -0.00885095 1.187 36 54 25
0.335119 -0.00885095 1.187 39 57 28
0.336678 -0.00884349 1.186 40 58 29
0.338806 -0.00885095 1.187 41 59 30
0.340649 -0.00885095 1.187 41 59 30
0.342492 -0.00885095 1.187 43 61 32
0.344336 -0.00885095 1.187 43 61 32
0.346179 -0.00885095 1.187 44 62 35
0.348023 -0.00885095 1.187 43 61 34
0.349866 -0.00885095 1.187 44 62 35
0.351413 -0.00884349 1.186 37 55 28
0.353255 -0.00884349 1.186 34 50 28
0.355097 -0.00884349 1.186 34 50 28
0.356638 -0.00883604 1.185 33 47 30
0.358478 -0.00883604 1.185 40 54 37
0.360319 -0.00883604 1.185 32 46 31
0.362159 -0.00883604 1.185 27 41 26
0.363078 -0.00881367 1.182 50 63 50
0.364296 -0.00879875 1.18 29 42 29
0.364267 -0.00875401 1.174 25 37 27
0.364219 -0.00870927 1.168 20 32 22
0.361959 -0.00861234 1.155 27 34 30
0.361863 -0.0085676 1.149 111 118 114
0.361749 -0.00852286 1.143 139 147 149
0.361616 -0.00847812 1.137 148 156 158
0.363062 -0.00847066 1.136 155 163 165
0.364184 -0.00845575 1.134 162 170 172
0.366913 -0.00847812 1.137 125 129 134
0.370949 -0.00853032 1.144 92 96 101
-0.1663 -0.00700531 1.187 18 30 11
-0.164595 -0.00701121 1.188 14 26 7
-0.162887 -0.00701711 1.189 11 23 4
-0.161176 -0.00702301 1.19 8 20 1
-0.159462 -0.00702891 1.191 12 24 5
-0.157612 -0.00702891 1.191 14 26 7
-0.155893 -0.00703482 1.192 12 26 9
-0.154042 -0.00703482 1.192 12 26 9
-0.152191 -0.00703482 1.192 10 24 7
-0.15034 -0.00703482 1.192 13 27 10
-0.148488 -0.00703482 1.192 15 29 12
-0.146637 -0.00703482 1.192 13 27 10
-0.144786 -0.00703482 1.192 13 28 8
-0.142935 -0.00703482 1.192 17 32 12
-0.141084 -0.00703482 1.192 18 33 13
-0.139232 -0.00703482 1.192 15 30 10
-0.137266 -0.00702891 1.191 15 30 10
-0.135303 -0.00702301 1.19 16 31 11
-0.133454 -0.00702301 1.19 16 32 10
-0.131606 -0.00702301 1.19 17 33 11
-0.129867 -0.00702891 1.191 16 32 10
-0.128018 -0.00702891 1.191 17 33 11
-0.126168 -0.00702891 1.191 28 41 20
-0.124423 -0.00703482 1.192 36 49 28
-0.122571 -0.00703482 1.192 34 47 26
-0.12072 -0.00703482 1.192 36 49 28
-0.118869 -0.00703482 1.192 41 54 33
-0.117018 -0.00703482 1.192 42 55 34
-0.115167 -0.00703482 1.192 43 56 35
-0.113315 -0.00703482 1.192 45 58 37
-0.111464 -0.00703482 1.192 42 55 34
-0.109521 -0.00702891 1.191 42 55 34
-0.107671 -0.00702891 1.191 42 55 34
-0.105733 -0.00702301 1.19 43 56 35
-0.103885 -0.00702301 1.19 43 56 35
-0.102037 -0.00702301 1.19 43 56 35
-0.10002 -0.00701121 1.188 42 55 34
-0.0980925 -0.00700531 1.187 42 55 34
-0.0961679 -0.00699941 1.186 41 55 31
-0.0942465 -0.0069935 1.185 34 48 24
-0.0924061 -0.0069935 1.185 34 48 24
-0.0904129 -0.0069817 1.183 34 48 24
-0.0883511 -0.006964 1.18 35 48 22
-0.0863719 -0.00695219 1.178 36 49 23
-0.0843271 -0.00693449 1.175 39 41 15
-0.0822916 -0.00691678 1.172 37 39 13
-0.0801968 -0.00689318 1.168 73 66 41
-0.0781144 -0.00686957 1.164 136 129 104
-0.0760445 -0.00684596 1.16 148 137 110
-0.0737309 -0.00679875 1.152 161 150 123
-0.0717545 -0.00678104 1.149 164 148 122
-0.0698483 -0.00676924 1.147 165 149 123
-0.0678889 -0.00675153 1.144 171 154 126
-0.0659389 -0.00673383 1.141 181 164 136
-0.0641106 -0.00672793 1.14 173 152 122
-0.0622308 -0.00671612 1.138 173 152 122
-0.0604634 -0.00671612 1.138 185 170 135
-0.0586445 -0.00671022 1.137 225 210 175
-0.0568287 -0.00670432 1.136 255 255 220
-0.0550644 -0.00670432 1.136 255 255 226
-0.0533471 -0.00671022 1.137 255 255 227
-0.0516267 -0.00671612 1.138 255 255 225
-0.049947 -0.00672793 1.14 253 255 222
-0.0482188 -0.00673383 1.141 251 254 220
-0.0464874 -0.00673973 1.142 255 255 235
-0.0447139 -0.00673973 1.142 255 255 233
-0.0429779 -0.00674563 1.143 255 255 236
-0.0412388 -0.00675153 1.144 255 255 237
-0.0394622 -0.00675153 1.144 255 255 237
-0.0376855 -0.00675153 1.144 255 255 236
-0.0358774 -0.00674563 1.143 255 255 237
-0.0340725 -0.00673973 1.142 251 255 232
-0.0322989 -0.00673973 1.142 255 255 238
-0.0305254 -0.00673973 1.142 255 255 237
-0.0287014 -0.00672793 1.14 255 255 239
-0.0269546 -0.00673383 1.141 255 255 239
-0.0251826 -0.00673383 1.141 255 255 244
-0.0234311 -0.00673973 1.142 255 255 244
-0.0216765 -0.00674563 1.143 254 255 246
-0.0199188 -0.00675153 1.144 254 255 246
-0.0181738 -0.00676334 1.146 254 255 244
-0.0164084 -0.00676924 1.147 253 255 243
-0.0146525 -0.00678104 1.149 255 255 238
-0.0128793 -0.00678694 1.15 255 255 237
-0.011103 -0.00679285 1.151 240 236 203
-0.00931543 -0.00679285 1.151 210 206 173
-0.00752788 -0.00679285 1.151 228 220 186
-0.00574034 -0.00679285 1.151 255 255 227
-0.0039528 -0.00679285 1.151 255 255 227
-0.00216338 -0.00678694 1.15 255 254 219
-0.000377058 -0.00678104 1.149 187 174 139
0.00140738 -0.00678104 1.149 124 111 76
0.00318626 -0.00676924 1.147 150 136 105
0.00495893 -0.00675744 1.145 237 223 192
0.00672538 -0.00674563 1.143 255 255 236
0.00849306 -0.00673973 1.142 255 255 238
0.0102576 -0.00673383 1.141 255 255 244
0.0120191 -0.00672793 1.14 254 255 242
0.0137896 -0.00672793 1.14 254 255 244
0.0155737 -0.00673383 1.141 255 255 246
0.0173609 -0.00673973 1.142 254 255 247
0.0191847 -0.00675744 1.145 254 255 247
0.0210179 -0.00677514 1.148 254 255 247
0.0228603 -0.00679285 1.151 254 255 247
0.0247121 -0.00681055 1.154 254 255 249
0.0265503 -0.00682236 1.156 254 255 249
0.0283701 -0.00682826 1.157 254 255 249
0.030193 -0.00683416 1.158 254 255 249
0.0320191 -0.00684006 1.159 254 255 249
0.0338482 -0.00684596 1.16 253 255 248
0.0356805 -0.00685186 1.161 255 255 241
0.0375158 -0.00685777 1.162 255 255 240
0.039422 -0.00687547 1.165 237 236 201
0.0412666 -0.00688137 1.166 70 69 34
0.0449653 -0.00689318 1.168 58 57 22
0.0468994 -0.00691088 1.171 54 65 28
0.0488012 -0.00692268 1.173 53 64 27
0.0507092 -0.00693449 1.175 45 63 27
0.0526682 -0.00695219 1.178 43 61 25
0.0544976 -0.00695219 1.178 43 61 25
0.0564228 -0.006964 1.18 43 61 25
0.0583541 -0.0069758 1.182 46 64 28
0.0602407 -0.0069817 1.183 45 63 27
0.0621829 -0.0069935 1.185 42 61 23
0.0640772 -0.00699941 1.186 40 59 21
0.0659747 -0.00700531 1.187 41 60 20
0.0678753 -0.00701121 1.188 42 61 21
0.069779 -0.00701711 1.189 42 61 21
0.0716858 -0.00702301 1.19 42 61 21
0.0735957 -0.00702891 1.191 44 61 21
0.0754454 -0.00702891 1.191 45 62 22
0.0773599 -0.00703482 1.192 43 62 22
0.0791447 -0.00702891 1.191 43 62 22
0.0809264 -0.00702301 1.19 40 59 19
0.0827745 -0.00702301 1.19 49 68 28
0.0846226 -0.00702301 1.19 46 68 27
0.0864707 -0.00702301 1.19 45 67 26
0.0883188 -0.00702301 1.19 46 68 27
0.0901669 -0.00702301 1.19 46 68 27
0.092015 -0.00702301 1.19 45 69 28
0.0938631 -0.00702301 1.19 46 70 29
0.0957112 -0.00702301 1.19 45 69 30
0.0975593 -0.00702301 1.19 44 68 29
0.0994075 -0.00702301 1.19 45 69 30
0.101256 -0.00702301 1.19 45 69 30
0.103104 -0.00702301 1.19 45 69 30
0.10504 -0.00702891 1.191 49 73 34
0.106979 -0.00703482 1.192 49 73 32
0.109013 -0.00704662 1.194 48 72 31
0.11096 -0.00705252 1.195 48 72 31
0.112911 -0.00705842 1.196 49 73 32
0.11496 -0.00707023 1.198 49 73 32
0.117016 -0.00708203 1.2 49 73 32
0.119077 -0.00709383 1.202 49 73 32
0.121045 -0.00709973 1.203 49 73 32
0.123015 -0.00710564 1.204 50 74 33
0.125092 -0.00711744 1.206 52 76 35
0.126965 -0.00711744 1.206 52 76 35
0.128945 -0.00712334 1.207 53 77 36
0.13082 -0.00712334 1.207 52 77 33
0.132584 -0.00711744 1.206 53 78 34
0.134569 -0.00712334 1.207 53 78 34
0.13633 -0.00711744 1.206 53 78 34
0.138203 -0.00711744 1.206 52 78 32
0.13996 -0.00711154 1.205 50 76 30
0.141714 -0.00710564 1.204 51 77 31
0.143464 -0.00709973 1.203 51 77 31
0.145212 -0.00709383 1.202 52 78 32
0.146834 -0.00708203 1.2 52 78 32
0.148697 -0.00708203 1.2 53 79 33
0.150436 -0.00707613 1.199 55 81 35
0.152171 -0.00707023 1.198 55 81 35
0.153903 -0.00706432 1.197 56 82 36
0.155762 -0.00706432 1.197 57 83 37
0.157621 -0.00706432 1.197 57 83 37
0.159613 -0.00707023 1.198 57 83 37
0.161473 -0.00707023 1.198 57 83 37
0.163334 -0.00707023 1.198 56 82 36
0.165332 -0.00707613 1.199 55 81 35
