ply
format ascii 1.0
comment Created by Open3D
element vertex 1365
property double x
property double y
property double z
property uchar red
property uchar green
property uchar blue
end_header
-0.131606 0.041085 1.19 22 37 17
-0.129867 0.0411195 1.191 22 37 17
-0.128125 0.041154 1.192 20 35 15
-0.12638 0.0411885 1.193 22 37 17
-0.124631 0.0412231 1.194 23 38 18
-0.12288 0.0412576 1.195 22 37 17
-0.121024 0.0412576 1.195 22 37 17
-0.119268 0.0412921 1.196 22 37 17
-0.117509 0.0413266 1.197 19 34 14
-0.11565 0.0413266 1.197 19 34 14
-0.113791 0.0413266 1.197 19 34 14
-0.112025 0.0413612 1.198 20 35 15
-0.110165 0.0413612 1.198 20 35 15
-0.108214 0.0413266 1.197 23 37 20
-0.106355 0.0413266 1.197 24 38 21
-0.104496 0.0413266 1.197 23 37 20
-0.102637 0.0413266 1.197 22 36 19
-0.100778 0.0413266 1.197 22 36 19
-0.0989188 0.0413266 1.197 20 34 17
-0.0969788 0.0412921 1.196 22 34 15
-0.0951213 0.0412921 1.196 22 34 15
-0.0931859 0.0412576 1.195 22 34 15
-0.0913301 0.0412576 1.195 21 33 14
-0.0893993 0.0412231 1.194 22 34 15
-0.0873983 0.041154 1.192 20 32 13
-0.0854754 0.0411195 1.191 19 31 12
-0.0832746 0.0409469 1.186 18 30 11
-0.0811581 0.0408088 1.182 18 29 13
-0.0791882 0.0407397 1.18 17 28 12
-0.0770934 0.0406016 1.176 17 28 14
-0.075075 0.040498 1.173 17 28 14
-0.0730035 0.0403599 1.169 20 31 17
-0.0708835 0.0401873 1.164 20 31 17
-0.0689571 0.0401183 1.162 19 29 17
-0.0664012 0.0396694 1.149 20 30 18
-0.0641669 0.0393932 1.141 15 26 24
-0.0595071 0.0386682 1.12 1 14 27
-0.0573035 0.0383575 1.111 35 48 61
-0.055428 0.0382539 1.108 128 148 173
-0.0536103 0.0381849 1.106 157 177 202
-0.0518926 0.0381849 1.106 147 174 205
-0.0501296 0.0381503 1.105 143 170 201
-0.0483697 0.0381158 1.104 157 181 215
-0.0466129 0.0380813 1.103 161 185 219
-0.0448999 0.0380813 1.103 153 167 191
-0.0431869 0.0380813 1.103 157 171 195
-0.0415115 0.0381158 1.104 221 229 236
-0.039833 0.0381503 1.105 245 253 255
-0.0381169 0.0381503 1.105 251 255 254
-0.0364008 0.0381503 1.105 251 255 254
-0.0346847 0.0381503 1.105 251 255 254
-0.0329686 0.0381503 1.105 251 255 254
-0.0312525 0.0381503 1.105 251 255 254
-0.0295364 0.0381503 1.105 251 255 254
-0.0277951 0.0381158 1.104 251 255 254
-0.0260805 0.0381158 1.104 251 255 254
-0.0243439 0.0380813 1.103 251 255 254
-0.0226309 0.0380813 1.103 251 255 254
-0.0209179 0.0380813 1.103 251 255 254
-0.0192049 0.0380813 1.103 251 255 254
-0.0174919 0.0380813 1.103 251 255 254
-0.0157789 0.0380813 1.103 251 255 254
-0.0140787 0.0381158 1.104 251 255 254
-0.0123641 0.0381158 1.104 251 255 254
-0.0106592 0.0381503 1.105 251 255 254
-0.00894313 0.0381503 1.105 251 255 254
-0.00722703 0.0381503 1.105 251 255 254
-0.00551591 0.0381849 1.106 251 255 254
-0.00379826 0.0381849 1.106 251 255 254
-0.00207872 0.0381503 1.105 251 255 254
-0.000362947 0.0381849 1.106 251 255 254
0.00135471 0.0381849 1.106 251 255 254
0.00307236 0.0381849 1.106 251 255 254
0.00478569 0.0381503 1.105 251 255 254
0.00650179 0.0381503 1.105 251 255 254
0.00821789 0.0381503 1.105 251 255 254
0.00992501 0.0381158 1.104 254 254 254
0.011629 0.0380813 1.103 253 253 253
0.013342 0.0380813 1.103 241 239 240
0.0150414 0.0380468 1.102 222 220 221
0.0167376 0.0380122 1.101 222 218 219
0.0184307 0.0379777 1.1 230 226 227
0.0201391 0.0379777 1.1 239 234 238
0.0218275 0.0379432 1.099 241 236 240
0.0235129 0.0379087 1.098 243 241 247
0.0251952 0.0378741 1.097 252 250 255
0.0268989 0.0378741 1.097 247 252 255
0.0286025 0.0378741 1.097 240 245 255
0.0303062 0.0378741 1.097 132 142 171
0.0319807 0.0378396 1.096 91 101 130
0.0336828 0.0378396 1.096 96 112 149
0.035385 0.0378396 1.096 99 115 152
0.0371548 0.0379087 1.098 104 125 161
0.0388954 0.0379432 1.099 136 157 193
0.0406022 0.0379432 1.099 173 197 244
0.0440958 0.0380122 1.101 11 27 91
0.048983 0.0391861 1.135 10 23 42
0.0519528 0.0401183 1.162 9 22 41
0.0560402 0.0404635 1.172 22 35 27
0.0579591 0.0405326 1.174 21 36 23
0.0600879 0.0407397 1.18 21 36 23
0.0621829 0.0409123 1.185 21 36 23
0.0640772 0.0409469 1.186 21 36 23
0.0659747 0.0409814 1.187 21 36 23
0.0678182 0.0409814 1.187 21 36 23
0.0697203 0.0410159 1.188 22 37 24
0.0716256 0.0410504 1.189 22 37 24
0.0734721 0.0410504 1.189 22 38 23
0.075382 0.041085 1.19 18 34 19
0.0772301 0.041085 1.19 28 44 27
0.0790782 0.041085 1.19 29 45 28
0.0809264 0.041085 1.19 29 46 26
0.0827745 0.041085 1.19 30 47 27
0.0846226 0.041085 1.19 31 48 28
0.0864707 0.041085 1.19 31 48 28
0.0883188 0.041085 1.19 31 48 28
0.0901669 0.041085 1.19 31 48 28
0.0919377 0.0410504 1.189 30 48 26
0.0937842 0.0410504 1.189 30 48 26
0.0955504 0.0410159 1.188 31 49 27
0.0973954 0.0410159 1.188 31 49 27
0.0992404 0.0410159 1.188 31 49 27
0.101085 0.0410159 1.188 31 49 27
0.10293 0.0410159 1.188 31 49 27
0.104687 0.0409814 1.187 31 49 27
0.106531 0.0409814 1.187 32 51 26
0.108465 0.0410159 1.188 31 50 25
0.11031 0.0410159 1.188 34 53 28
0.11225 0.0410504 1.189 35 54 29
0.114096 0.0410504 1.189 35 55 28
0.11604 0.041085 1.19 35 55 28
0.117889 0.041085 1.19 35 55 28
0.119737 0.041085 1.19 32 52 25
0.121687 0.0411195 1.191 34 54 25
0.123433 0.041085 1.19 35 55 26
0.125492 0.041154 1.192 35 55 26
0.127343 0.041154 1.192 35 55 26
0.129194 0.041154 1.192 35 56 24
0.131045 0.041154 1.192 35 56 24
0.132896 0.041154 1.192 37 58 26
0.134748 0.041154 1.192 39 60 28
0.136599 0.041154 1.192 39 60 28
0.13845 0.041154 1.192 41 62 30
0.140301 0.041154 1.192 44 65 33
0.142153 0.041154 1.192 43 64 32
0.144004 0.041154 1.192 43 64 32
0.145855 0.041154 1.192 43 64 32
0.147706 0.041154 1.192 44 65 33
0.149557 0.041154 1.192 45 66 34
0.151409 0.041154 1.192 45 67 33
0.15326 0.041154 1.192 46 68 34
0.154981 0.0411195 1.191 46 68 34
0.156831 0.0411195 1.191 49 71 37
0.15868 0.0411195 1.191 49 72 35
0.160395 0.041085 1.19 50 73 36
0.162243 0.041085 1.19 49 72 35
0.163953 0.0410504 1.189 50 73 36
0.165661 0.0410159 1.188 49 73 34
0.167365 0.0409814 1.187 50 74 35
0.169065 0.0409469 1.186 51 75 34
0.170763 0.0409123 1.185 52 76 35
0.172604 0.0409123 1.185 55 79 38
0.174297 0.0408778 1.184 56 80 39
0.176136 0.0408778 1.184 56 81 37
0.177974 0.0408778 1.184 56 81 37
0.179813 0.0408778 1.184 56 81 37
0.181652 0.0408778 1.184 56 81 37
0.183646 0.0409123 1.185 56 81 37
0.185643 0.0409469 1.186 56 81 37
0.187643 0.0409814 1.187 54 78 32
0.189805 0.0410504 1.189 62 86 40
0.191974 0.0411195 1.191 63 89 43
0.193987 0.041154 1.192 63 89 43
0.196002 0.0411885 1.193 65 91 45
0.198021 0.0412231 1.194 64 90 44
0.200042 0.0412576 1.195 65 91 45
0.201898 0.0412576 1.195 63 89 43
0.203584 0.0412231 1.194 63 89 43
0.205266 0.0411885 1.193 63 89 43
0.206945 0.041154 1.192 57 83 37
0.208796 0.041154 1.192 56 82 36
0.210471 0.0411195 1.191 64 90 44
0.212142 0.041085 1.19 64 90 44
0.21399 0.041085 1.19 65 91 45
0.215657 0.0410504 1.189 67 93 47
0.217504 0.0410504 1.189 68 94 48
0.21935 0.0410504 1.189 67 93 47
0.221011 0.0410159 1.188 68 94 48
0.222856 0.0410159 1.188 70 96 50
0.22489 0.0410504 1.189 67 93 47
0.226736 0.0410504 1.189 66 92 46
0.228775 0.041085 1.19 69 93 47
0.230817 0.0411195 1.191 60 84 38
0.232862 0.041154 1.192 60 83 39
0.234713 0.041154 1.192 61 84 40
0.236763 0.0411885 1.193 59 82 38
0.238816 0.0412231 1.194 60 83 39
0.24067 0.0412231 1.194 59 78 40
0.242524 0.0412231 1.194 50 69 31
0.244379 0.0412231 1.194 49 67 31
0.246439 0.0412576 1.195 48 66 30
0.248295 0.0412576 1.195 42 60 24
0.250151 0.0412576 1.195 43 61 25
0.252218 0.0412921 1.196 43 58 25
0.254288 0.0413266 1.197 38 53 20
0.256147 0.0413266 1.197 40 54 23
0.258437 0.0413957 1.199 40 54 23
0.260299 0.0413957 1.199 40 54 23
0.26238 0.0414302 1.2 38 52 21
0.264243 0.0414302 1.2 41 54 26
0.266107 0.0414302 1.2 40 53 25
0.268194 0.0414647 1.201 42 55 27
0.270284 0.0414993 1.202 38 51 23
0.271924 0.0414647 1.201 41 54 26
0.273561 0.0414302 1.2 42 55 27
0.275425 0.0414302 1.2 39 54 26
0.277289 0.0414302 1.2 39 54 26
0.27892 0.0413957 1.199 39 54 26
0.280782 0.0413957 1.199 39 54 26
0.282408 0.0413612 1.198 38 53 25
0.284031 0.0413266 1.197 36 51 23
0.28589 0.0413266 1.197 36 51 23
0.287749 0.0413266 1.197 39 54 26
0.289608 0.0413266 1.197 38 53 25
0.291467 0.0413266 1.197 38 53 25
0.293081 0.0412921 1.196 38 53 25
0.295185 0.0413266 1.197 36 51 23
0.297044 0.0413266 1.197 36 51 23
0.298903 0.0413266 1.197 36 51 23
0.300762 0.0413266 1.197 36 51 23
0.302621 0.0413266 1.197 34 49 21
0.304226 0.0412921 1.196 35 50 22
0.306083 0.0412921 1.196 35 50 22
0.307683 0.0412576 1.195 36 51 23
0.309539 0.0412576 1.195 36 51 23
0.311395 0.0412576 1.195 36 54 25
0.312989 0.0412231 1.194 37 55 26
0.314843 0.0412231 1.194 36 54 25
0.316432 0.0411885 1.193 36 54 25
0.318018 0.041154 1.192 37 55 26
0.319869 0.041154 1.192 37 55 26
0.321451 0.0411195 1.191 38 56 27
0.3233 0.0411195 1.191 33 51 22
0.324877 0.041085 1.19 41 59 30
0.326725 0.041085 1.19 44 62 33
0.328021 0.0410159 1.188 44 62 33
0.329866 0.0410159 1.188 46 64 35
0.331711 0.0410159 1.188 50 68 39
0.333556 0.0410159 1.188 50 68 39
0.335683 0.0410504 1.189 52 70 43
0.339662 0.041085 1.19 55 73 46
0.34151 0.041085 1.19 57 75 48
0.343358 0.041085 1.19 55 73 46
0.345496 0.0411195 1.191 57 75 48
0.347346 0.0411195 1.191 55 73 46
0.349196 0.0411195 1.191 55 73 46
0.35075 0.041085 1.19 55 73 46
0.352006 0.0410159 1.188 55 73 46
0.353553 0.0409814 1.187 55 72 47
0.355097 0.0409469 1.186 58 75 50
0.356638 0.0409123 1.185 58 74 52
0.358176 0.0408778 1.184 57 73 51
0.359407 0.0408088 1.182 48 63 43
0.360937 0.0407742 1.181 52 67 47
0.362464 0.0407397 1.18 66 75 61
0.363679 0.0406707 1.178 51 60 46
0.363957 0.040498 1.173 41 52 38
0.363596 0.0402564 1.166 36 47 33
0.363526 0.0400492 1.16 49 56 52
0.361234 0.0396004 1.147 155 162 158
0.361432 0.0394278 1.142 170 178 185
0.362252 0.0393242 1.139 165 173 180
0.363701 0.0392897 1.138 192 200 207
0.365469 0.0392897 1.138 202 210 217
0.368204 0.0393932 1.141 124 131 140
0.371597 0.0395659 1.146 101 108 117
-0.163348 0.0425384 1.179 12 22 10
-0.161654 0.0425745 1.18 12 22 10
-0.159822 0.0425745 1.18 13 23 11
-0.157989 0.0425745 1.18 13 23 11
-0.156289 0.0426106 1.181 14 24 12
-0.154455 0.0426106 1.181 11 25 10
-0.15275 0.0426466 1.182 11 25 10
-0.150914 0.0426466 1.182 15 29 12
-0.149078 0.0426466 1.182 16 30 13
-0.147367 0.0426827 1.183 18 33 13
-0.145653 0.0427188 1.184 18 33 13
-0.143936 0.0427549 1.185 20 35 15
-0.142095 0.0427549 1.185 19 34 14
-0.140373 0.042791 1.186 20 35 15
-0.138648 0.042827 1.187 19 34 14
-0.136805 0.042827 1.187 19 34 14
-0.135189 0.0428992 1.189 20 35 15
-0.133454 0.0429353 1.19 19 34 14
-0.131606 0.0429353 1.19 20 35 15
-0.129758 0.0429353 1.19 20 35 15
-0.128125 0.0430074 1.192 22 37 17
-0.126274 0.0430074 1.192 22 37 17
-0.124631 0.0430796 1.194 23 38 18
-0.122777 0.0430796 1.194 23 38 18
-0.121024 0.0431157 1.195 23 38 18
-0.119168 0.0431157 1.195 22 37 17
-0.11741 0.0431518 1.196 23 38 18
-0.11565 0.0431878 1.197 24 39 19
-0.113791 0.0431878 1.197 22 37 17
-0.111932 0.0431878 1.197 23 37 20
-0.110073 0.0431878 1.197 22 36 19
-0.108214 0.0431878 1.197 23 37 20
-0.106355 0.0431878 1.197 23 37 20
-0.104496 0.0431878 1.197 22 36 19
-0.102637 0.0431878 1.197 22 36 19
-0.100778 0.0431878 1.197 22 36 19
-0.0989188 0.0431878 1.197 20 34 17
-0.0969788 0.0431518 1.196 22 37 17
-0.0951213 0.0431518 1.196 22 37 17
-0.0931859 0.0431157 1.195 24 36 17
-0.0913301 0.0431157 1.195 22 34 15
-0.0893244 0.0430435 1.193 22 34 15
-0.0873983 0.0430074 1.192 20 32 13
-0.0854754 0.0429714 1.191 19 31 12
-0.0833448 0.042827 1.187 19 31 12
-0.0811581 0.0426466 1.182 19 30 14
-0.0791882 0.0425745 1.18 19 30 14
-0.0770934 0.0424302 1.176 20 31 17
-0.075075 0.0423219 1.173 20 31 17
-0.0730659 0.0422137 1.17 20 31 17
-0.0710053 0.0420694 1.166 21 32 18
-0.0690164 0.0419611 1.163 21 31 19
-0.0665168 0.0415282 1.151 20 30 18
-0.0594539 0.0403736 1.119 4 16 31
-0.0573551 0.040121 1.112 42 54 69
-0.055478 0.0400128 1.109 130 150 175
-0.0536587 0.0399406 1.107 158 178 203
-0.0518926 0.0399045 1.106 152 179 210
-0.0501296 0.0398685 1.105 154 181 212
-0.0484135 0.0398685 1.105 161 188 219
-0.0466551 0.0398324 1.104 157 184 215
-0.0449406 0.0398324 1.104 144 160 184
-0.043226 0.0398324 1.104 155 171 195
-0.0415491 0.0398685 1.105 237 245 252
-0.039869 0.0399045 1.106 245 253 255
-0.0381514 0.0399045 1.106 251 255 254
-0.0364337 0.0399045 1.106 251 255 254
-0.0347161 0.0399045 1.106 251 255 254
-0.0329984 0.0399045 1.106 251 255 254
-0.0312807 0.0399045 1.106 251 255 254
-0.0295631 0.0399045 1.106 251 255 254
-0.0278203 0.0398685 1.105 251 255 254
-0.0261042 0.0398685 1.105 251 255 254
-0.0243881 0.0398685 1.105 251 255 254
-0.022672 0.0398685 1.105 251 255 254
-0.0209369 0.0398324 1.104 251 255 254
-0.0192397 0.0398685 1.105 251 255 254
-0.0175236 0.0398685 1.105 251 255 254
-0.0158075 0.0398685 1.105 251 255 254
-0.0140914 0.0398685 1.105 251 255 254
-0.0123753 0.0398685 1.105 251 255 254
-0.0106689 0.0399045 1.106 251 255 254
-0.00723357 0.0399045 1.106 251 255 254
-0.0055209 0.0399406 1.107 251 255 254
-0.00380169 0.0399406 1.107 251 255 254
-0.0020806 0.0399045 1.106 251 255 254
-0.000362947 0.0399045 1.106 251 255 254
0.00135471 0.0399045 1.106 251 255 254
0.00307236 0.0399045 1.106 251 255 254
0.00479002 0.0399045 1.106 251 255 254
0.00650768 0.0399045 1.106 251 255 254
0.00821789 0.0398685 1.105 251 255 254
0.009934 0.0398685 1.105 251 255 254
0.0116396 0.0398324 1.104 251 255 254
0.013342 0.0397963 1.103 252 252 252
0.015055 0.0397963 1.103 229 229 229
0.0167528 0.0397602 1.102 227 223 224
0.0184475 0.0397241 1.101 229 225 226
0.0201574 0.0397241 1.101 241 234 236
0.0218474 0.0396881 1.1 244 237 239
0.0235557 0.0396881 1.1 246 245 249
0.0252411 0.039652 1.099 253 252 255
0.0269234 0.0396159 1.098 247 252 255
0.0286025 0.0395798 1.097 240 245 255
0.0303062 0.0395798 1.097 130 139 170
0.0320099 0.0395798 1.097 100 109 140
0.0336828 0.0395437 1.096 103 119 156
0.035385 0.0395437 1.096 106 122 159
0.0371209 0.0395798 1.097 110 131 167
0.0388246 0.0395798 1.097 146 167 203
0.0405652 0.0396159 1.098 172 196 243
0.0440558 0.0396881 1.1 10 24 82
0.0489398 0.0409148 1.134 11 26 45
0.0520422 0.0419972 1.164 12 27 46
0.0559924 0.0422498 1.171 22 35 27
0.0580085 0.0423941 1.175 21 36 23
0.0600879 0.0425745 1.18 20 35 22
0.0622353 0.042791 1.186 20 35 22
0.0641313 0.042827 1.187 20 35 22
0.0659747 0.042827 1.187 21 36 23
0.0678182 0.042827 1.187 20 35 22
0.0697203 0.0428631 1.188 20 36 21
0.0716858 0.0429353 1.19 20 36 21
0.0735339 0.0429353 1.19 21 37 22
0.075382 0.0429353 1.19 23 39 24
0.077295 0.0429714 1.191 30 46 29
0.0791447 0.0429714 1.191 28 44 27
0.0810624 0.0430074 1.192 30 47 27
0.0829136 0.0430074 1.192 30 47 27
0.0847648 0.0430074 1.192 31 48 28
0.086616 0.0430074 1.192 31 48 28
0.0884672 0.0430074 1.192 31 48 28
0.0902427 0.0429714 1.191 31 48 28
0.092015 0.0429353 1.19 30 47 27
0.0938631 0.0429353 1.19 31 48 28
0.0957112 0.0429353 1.19 32 50 28
0.0975593 0.0429353 1.19 32 50 28
0.0993239 0.0428992 1.189 31 49 27
0.10117 0.0428992 1.189 32 50 28
0.10293 0.0428631 1.188 34 52 30
0.104775 0.0428631 1.188 34 52 30
0.10662 0.0428631 1.188 34 53 28
0.108465 0.0428631 1.188 32 51 26
0.11031 0.0428631 1.188 32 51 26
0.11225 0.0428992 1.189 34 53 28
0.114096 0.0428992 1.189 34 53 28
0.11604 0.0429353 1.19 34 53 28
0.117889 0.0429353 1.19 34 54 27
0.119737 0.0429353 1.19 34 54 27
0.121687 0.0429714 1.191 34 54 27
0.123537 0.0429714 1.191 35 55 28
0.125386 0.0429714 1.191 35 55 26
0.127343 0.0430074 1.192 35 55 26
0.129194 0.0430074 1.192 35 55 26
0.131045 0.0430074 1.192 36 56 27
0.132896 0.0430074 1.192 39 60 28
0.134748 0.0430074 1.192 39 60 28
0.136713 0.0430435 1.193 39 60 28
0.138566 0.0430435 1.193 41 62 30
0.140419 0.0430435 1.193 45 66 34
0.142272 0.0430435 1.193 44 65 33
0.144125 0.0430435 1.193 44 65 33
0.145977 0.0430435 1.193 43 64 32
0.14783 0.0430435 1.193 45 66 34
0.149683 0.0430435 1.193 45 66 34
0.151409 0.0430074 1.192 46 68 34
0.15326 0.0430074 1.192 46 68 34
0.155111 0.0430074 1.192 49 71 37
0.156831 0.0429714 1.191 49 71 37
0.15868 0.0429714 1.191 48 71 34
0.160395 0.0429353 1.19 49 72 35
0.162243 0.0429353 1.19 48 71 34
0.163953 0.0428992 1.189 50 73 36
0.165661 0.0428631 1.188 46 70 31
0.167365 0.042827 1.187 49 73 34
0.169065 0.042791 1.186 55 79 40
0.170763 0.0427549 1.185 55 79 40
0.172604 0.0427549 1.185 55 79 40
0.174444 0.0427549 1.185 55 79 40
0.176136 0.0427188 1.184 52 76 35
0.177974 0.0427188 1.184 56 80 39
0.179813 0.0427188 1.184 57 82 38
0.181652 0.0427188 1.184 56 81 37
0.183646 0.0427549 1.185 56 81 37
0.185643 0.042791 1.186 57 82 38
0.187643 0.042827 1.187 52 77 33
0.189805 0.0428992 1.189 60 85 41
0.191813 0.0429353 1.19 63 88 44
0.193987 0.0430074 1.192 64 89 45
0.195838 0.0430074 1.192 67 90 46
0.197855 0.0430435 1.193 68 91 47
0.199875 0.0430796 1.194 67 92 48
0.20156 0.0430435 1.193 65 90 46
0.203413 0.0430435 1.193 65 91 45
0.205094 0.0430074 1.192 63 89 43
0.206945 0.0430074 1.192 57 83 37
0.208446 0.0429353 1.19 62 88 42
0.210294 0.0429353 1.19 66 92 46
0.212142 0.0429353 1.19 66 92 46
0.21381 0.0428992 1.189 64 90 44
0.215657 0.0428992 1.189 67 93 47
0.217321 0.0428631 1.188 71 97 51
0.219166 0.0428631 1.188 71 97 51
0.221011 0.0428631 1.188 70 96 50
0.223043 0.0428992 1.189 70 96 50
0.22489 0.0428992 1.189 66 92 46
0.226927 0.0429353 1.19 65 91 45
0.228775 0.0429353 1.19 67 93 47
0.231011 0.0430074 1.192 59 85 39
0.232862 0.0430074 1.192 55 78 34
0.23491 0.0430435 1.193 61 84 40
0.236961 0.0430796 1.194 59 82 38
0.238816 0.0430796 1.194 59 82 38
0.240872 0.0431157 1.195 61 80 42
0.242728 0.0431157 1.195 54 73 35
0.244583 0.0431157 1.195 49 66 33
0.246439 0.0431157 1.195 48 65 32
0.248295 0.0431157 1.195 43 60 27
0.250151 0.0431157 1.195 45 62 29
0.252429 0.0431878 1.197 39 55 24
0.254288 0.0431878 1.197 38 54 23
0.256361 0.0432239 1.198 39 55 24
0.258437 0.04326 1.199 38 54 23
0.260516 0.0432961 1.2 36 52 21
0.262598 0.0433322 1.201 39 55 24
0.264463 0.0433322 1.201 40 56 25
0.26655 0.0433682 1.202 39 55 24
0.268417 0.0433682 1.202 40 55 27
0.270284 0.0433682 1.202 35 50 22
0.271924 0.0433322 1.201 39 54 26
0.273789 0.0433322 1.201 40 55 27
0.275655 0.0433322 1.201 40 55 27
0.277289 0.0432961 1.2 39 54 26
0.279152 0.0432961 1.2 39 54 26
0.281016 0.0432961 1.2 39 54 26
0.282644 0.04326 1.199 40 55 27
0.284269 0.0432239 1.198 39 54 26
0.286129 0.0432239 1.198 39 54 26
0.287749 0.0431878 1.197 39 54 26
0.289608 0.0431878 1.197 36 51 23
0.291467 0.0431878 1.197 36 51 23
0.293326 0.0431878 1.197 36 51 23
0.295185 0.0431878 1.197 36 51 23
0.297044 0.0431878 1.197 36 51 23
0.298903 0.0431878 1.197 36 51 23
0.300762 0.0431878 1.197 36 51 23
0.302621 0.0431878 1.197 36 51 23
0.30448 0.0431878 1.197 33 51 22
0.306083 0.0431518 1.196 34 52 23
0.307941 0.0431518 1.196 36 54 25
0.309539 0.0431157 1.195 36 54 25
0.311395 0.0431157 1.195 34 52 23
0.313251 0.0431157 1.195 36 54 25
0.315107 0.0431157 1.195 36 54 25
0.316697 0.0430796 1.194 38 56 27
0.318285 0.0430435 1.193 39 57 28
0.320138 0.0430435 1.193 38 56 27
0.321721 0.0430074 1.192 38 56 27
0.323572 0.0430074 1.192 38 56 27
0.32515 0.0429714 1.191 41 59 30
0.326725 0.0429353 1.19 43 61 32
0.328573 0.0429353 1.19 41 59 30
0.329866 0.0428631 1.188 47 65 36
0.331711 0.0428631 1.188 53 71 42
0.333556 0.0428631 1.188 52 70 41
0.335683 0.0428992 1.189 52 70 43
0.339662 0.0429353 1.19 55 73 46
0.34151 0.0429353 1.19 57 75 48
0.343358 0.0429353 1.19 53 71 44
0.345496 0.0429714 1.191 55 73 46
0.347346 0.0429714 1.191 55 73 46
0.349196 0.0429714 1.191 55 73 46
0.35075 0.0429353 1.19 57 75 48
0.352302 0.0428992 1.189 55 73 46
0.353851 0.0428631 1.188 55 73 46
0.355397 0.042827 1.187 57 75 48
0.356638 0.0427549 1.185 58 75 50
0.358176 0.0427188 1.184 58 75 50
0.359711 0.0426827 1.183 48 63 43
0.360937 0.0426106 1.181 57 72 52
0.362464 0.0425745 1.18 74 83 69
0.363988 0.0425384 1.179 41 50 36
0.363957 0.0423219 1.173 39 49 37
0.363596 0.0420694 1.166 35 45 33
0.361646 0.0416364 1.154 50 57 53
0.361234 0.0413838 1.147 155 162 158
0.361432 0.0412034 1.142 169 175 182
0.362252 0.0410952 1.139 171 177 184
0.363701 0.0410591 1.138 190 198 205
0.365147 0.041023 1.137 200 208 215
0.367881 0.0411313 1.14 121 126 135
0.371273 0.0413117 1.145 100 105 114
-0.165039 0.044334 1.178 11 21 9
-0.163487 0.0444092 1.18 13 23 11
-0.161654 0.0444092 1.18 13 23 11
-0.159822 0.0444092 1.18 14 24 12
-0.158123 0.0444469 1.181 14 24 12
-0.156289 0.0444469 1.181 15 25 13
-0.154586 0.0444845 1.182 13 24 10
-0.15275 0.0444845 1.182 13 24 10
-0.150914 0.0444845 1.182 17 28 12
-0.149205 0.0445221 1.183 18 29 13
-0.147367 0.0445221 1.183 17 32 12
-0.145653 0.0445598 1.184 17 32 12
-0.143936 0.0445974 1.185 17 32 12
-0.142095 0.0445974 1.185 18 33 13
-0.140373 0.044635 1.186 20 35 15
-0.138648 0.0446727 1.187 19 34 14
-0.136805 0.0446727 1.187 19 34 14
-0.135189 0.0447479 1.189 20 35 15
-0.133342 0.0447479 1.189 20 35 15
-0.131606 0.0447856 1.19 20 35 15
-0.129758 0.0447856 1.19 20 35 15
-0.128018 0.0448232 1.191 23 38 18
-0.126274 0.0448609 1.192 23 38 18
-0.124423 0.0448609 1.192 22 37 17
-0.122777 0.0449361 1.194 23 38 18
-0.120923 0.0449361 1.194 22 37 17
-0.119168 0.0449738 1.195 23 38 18
-0.117312 0.0449738 1.195 24 39 19
-0.115553 0.0450114 1.196 23 38 18
-0.113696 0.0450114 1.196 22 37 17
-0.111932 0.045049 1.197 22 37 17
-0.110073 0.045049 1.197 22 37 17
-0.108214 0.045049 1.197 22 36 19
-0.106355 0.045049 1.197 23 37 20
-0.104496 0.045049 1.197 23 37 20
-0.102637 0.045049 1.197 24 38 21
-0.100694 0.0450114 1.196 22 36 19
-0.0988362 0.0450114 1.196 20 34 17
-0.0969788 0.0450114 1.196 22 37 17
-0.0950418 0.0449738 1.195 22 37 17
-0.0931859 0.0449738 1.195 24 36 17
-0.0912536 0.0449361 1.194 24 36 17
-0.0893244 0.0448985 1.193 24 36 17
-0.0873983 0.0448609 1.192 21 33 14
-0.0854036 0.0447856 1.19 20 32 13
-0.0832746 0.044635 1.186 20 32 13
-0.0812267 0.0445221 1.183 20 31 15
-0.0791882 0.0444092 1.18 20 31 15
-0.0771589 0.0442963 1.177 20 31 15
-0.075075 0.0441458 1.173 20 31 15
-0.0731284 0.0440705 1.171 20 31 17
-0.0711271 0.0439576 1.168 19 30 16
-0.0691351 0.0438447 1.165 20 30 18
-0.0665746 0.0433555 1.152 19 29 17
-0.0594008 0.0420759 1.118 4 15 33
-0.0573035 0.0418124 1.111 52 63 81
-0.055428 0.0416995 1.108 133 152 180
-0.0537072 0.0416995 1.108 158 177 205
-0.0519395 0.0416619 1.107 150 177 210
-0.050175 0.0416242 1.106 155 182 215
-0.0484135 0.0415866 1.105 154 181 214
-0.0466551 0.041549 1.104 136 163 196
-0.0449406 0.041549 1.104 139 154 180
-0.0432652 0.0415866 1.105 153 168 194
-0.0415491 0.0415866 1.105 244 252 255
-0.039869 0.0416242 1.106 245 253 255
-0.0381859 0.0416619 1.107 249 255 254
-0.0364996 0.0416995 1.108 249 255 254
-0.0347788 0.0416995 1.108 249 255 254
-0.0330581 0.0416995 1.108 249 255 254
-0.0313373 0.0416995 1.108 251 255 254
-0.0295898 0.0416619 1.107 251 255 254
-0.0278706 0.0416619 1.107 251 255 254
-0.0261278 0.0416242 1.106 251 255 254
-0.0244101 0.0416242 1.106 251 255 254
-0.0226925 0.0416242 1.106 251 255 254
-0.0209748 0.0416242 1.106 251 255 254
-0.0192572 0.0416242 1.106 251 255 254
-0.0175395 0.0416242 1.106 251 255 254
-0.0158218 0.0416242 1.106 251 255 254
-0.0141169 0.0416619 1.107 251 255 254
-0.0123977 0.0416619 1.107 251 255 254
-0.0106882 0.0416995 1.108 251 255 254
-0.00724665 0.0416995 1.108 251 255 254
-0.00552589 0.0416995 1.108 251 255 254
-0.00380513 0.0416995 1.108 251 255 254
-0.00208248 0.0416619 1.107 251 255 254
-0.000363603 0.0416995 1.108 251 255 254
0.00135593 0.0416619 1.107 251 255 254
0.00307514 0.0416619 1.107 251 255 254
0.00479002 0.0416242 1.106 251 255 254
0.00650768 0.0416242 1.106 251 255 254
0.00821789 0.0415866 1.105 251 255 254
0.009934 0.0415866 1.105 251 255 254
0.0116396 0.041549 1.104 251 255 254
0.013342 0.0415113 1.103 253 253 253
0.015055 0.0415113 1.103 240 240 240
0.016768 0.0415113 1.103 232 230 231
0.0184475 0.0414361 1.101 228 226 227
0.0201574 0.0414361 1.101 235 230 234
0.0218673 0.0414361 1.101 246 241 245
0.0235557 0.0413984 1.1 252 251 255
0.0252641 0.0413984 1.1 254 253 255
0.0269479 0.0413608 1.099 245 252 255
0.0286286 0.0413232 1.098 238 245 255
0.0303062 0.0412855 1.097 136 144 171
0.0320099 0.0412855 1.097 111 119 146
0.0336828 0.0412479 1.096 111 127 164
0.035385 0.0412479 1.096 113 129 166
0.0371209 0.0412855 1.097 114 136 170
0.0388246 0.0412855 1.097 153 175 209
0.0405283 0.0412855 1.097 177 201 241
0.0421935 0.0412479 1.096 136 160 200
0.0459722 0.0415866 1.105 0 11 56
0.054035 0.0439576 1.168 22 35 27
0.0561837 0.0442211 1.175 22 35 27
0.0581566 0.044334 1.178 22 37 24
0.0600879 0.0444092 1.18 22 37 24
0.0622353 0.044635 1.186 20 35 22
0.0641313 0.0446727 1.187 20 35 22
0.0659747 0.0446727 1.187 20 35 22
0.0678753 0.0447103 1.188 18 33 20
0.069779 0.0447479 1.189 21 37 22
0.0716858 0.0447856 1.19 29 45 30
0.0735957 0.0448232 1.191 28 44 29
0.0755087 0.0448609 1.192 27 43 28
0.0773599 0.0448609 1.192 28 44 27
0.0792111 0.0448609 1.192 29 45 28
0.0811304 0.0448985 1.193 29 46 26
0.0829831 0.0448985 1.193 30 47 27
0.0848359 0.0448985 1.193 31 48 28
0.0866887 0.0448985 1.193 30 47 27
0.0885414 0.0448985 1.193 31 48 28
0.0903942 0.0448985 1.193 31 48 28
0.0921697 0.0448609 1.192 32 50 28
0.0940209 0.0448609 1.192 32 50 28
0.0957917 0.0448232 1.191 32 50 28
0.0976413 0.0448232 1.191 34 52 30
0.0994075 0.0447856 1.19 32 50 28
0.101256 0.0447856 1.19 32 50 28
0.103104 0.0447856 1.19 31 49 27
0.104864 0.0447479 1.189 31 49 27
0.10662 0.0447103 1.188 32 50 28
0.108465 0.0447103 1.188 32 50 28
0.11031 0.0447103 1.188 32 51 26
0.112155 0.0447103 1.188 31 50 25
0.114 0.0447103 1.188 32 51 26
0.115845 0.0447103 1.188 34 53 28
0.117789 0.0447479 1.189 34 54 27
0.119737 0.0447856 1.19 32 52 25
0.121585 0.0447856 1.19 34 54 27
0.123433 0.0447856 1.19 35 55 28
0.125281 0.0447856 1.19 34 54 25
0.127236 0.0448232 1.191 34 54 25
0.129194 0.0448609 1.192 36 56 27
0.131045 0.0448609 1.192 37 57 28
0.132896 0.0448609 1.192 38 59 27
0.134748 0.0448609 1.192 39 60 28
0.136713 0.0448985 1.193 39 60 28
0.138566 0.0448985 1.193 39 60 28
0.140419 0.0448985 1.193 39 60 28
0.142272 0.0448985 1.193 41 62 30
0.144125 0.0448985 1.193 42 63 31
0.145977 0.0448985 1.193 41 62 30
0.14783 0.0448985 1.193 45 66 34
0.149683 0.0448985 1.193 51 72 40
0.151409 0.0448609 1.192 52 73 41
0.15326 0.0448609 1.192 48 69 37
0.155111 0.0448609 1.192 48 70 36
0.156831 0.0448232 1.191 46 68 34
0.158547 0.0447856 1.19 46 68 34
0.160395 0.0447856 1.19 46 68 34
0.162107 0.0447479 1.189 48 71 34
0.163816 0.0447103 1.188 50 73 36
0.165521 0.0446727 1.187 48 71 34
0.167365 0.0446727 1.187 48 71 34
0.169065 0.044635 1.186 50 74 35
0.170763 0.0445974 1.185 48 72 33
0.172604 0.0445974 1.185 52 76 37
0.174444 0.0445974 1.185 53 77 38
0.176284 0.0445974 1.185 52 76 37
0.177974 0.0445598 1.184 55 79 40
0.179813 0.0445598 1.184 56 80 39
0.181652 0.0445598 1.184 57 81 40
0.183646 0.0445974 1.185 58 83 39
0.185643 0.044635 1.186 59 84 40
0.187643 0.0446727 1.187 63 88 44
0.189805 0.0447479 1.189 64 89 45
0.191813 0.0447856 1.19 63 88 44
0.193987 0.0448609 1.192 63 88 44
0.195838 0.0448609 1.192 64 89 45
0.197855 0.0448985 1.193 66 91 47
0.199708 0.0448985 1.193 66 91 47
0.20156 0.0448985 1.193 65 90 46
0.203243 0.0448609 1.192 65 91 45
0.205094 0.0448609 1.192 66 92 46
0.206771 0.0448232 1.191 71 97 51
0.208446 0.0447856 1.19 67 93 47
0.210117 0.0447479 1.189 67 93 47
0.211964 0.0447479 1.189 70 96 50
0.213631 0.0447103 1.188 67 93 47
0.215476 0.0447103 1.188 67 93 47
0.217321 0.0447103 1.188 68 94 48
0.219166 0.0447103 1.188 68 94 48
0.221197 0.0447479 1.189 70 96 50
0.223043 0.0447479 1.189 71 97 51
0.225079 0.0447856 1.19 65 91 45
0.226927 0.0447856 1.19 65 91 45
0.228967 0.0448232 1.191 66 91 47
0.231011 0.0448609 1.192 63 88 44
0.233057 0.0448985 1.193 59 82 38
0.235107 0.0449361 1.194 61 84 40
0.23716 0.0449738 1.195 60 83 39
0.239016 0.0449738 1.195 58 81 37
0.240872 0.0449738 1.195 60 79 41
0.242728 0.0449738 1.195 55 74 36
0.244583 0.0449738 1.195 48 65 32
0.246439 0.0449738 1.195 48 65 32
0.248503 0.0450114 1.196 47 61 30
0.25036 0.0450114 1.196 54 68 37
0.252429 0.045049 1.197 39 55 24
0.254288 0.045049 1.197 38 54 23
0.256361 0.0450867 1.198 39 54 26
0.258437 0.0451243 1.199 38 53 25
0.260516 0.0451619 1.2 39 54 26
0.26238 0.0451619 1.2 40 55 27
0.264463 0.0451996 1.201 40 55 27
0.266329 0.0451996 1.201 39 54 26
0.268417 0.0452372 1.202 41 56 28
0.270284 0.0452372 1.202 36 51 23
0.271924 0.0451996 1.201 40 55 27
0.273789 0.0451996 1.201 40 55 27
0.275655 0.0451996 1.201 40 55 27
0.277289 0.0451619 1.2 39 54 26
0.279152 0.0451619 1.2 39 54 26
0.280782 0.0451243 1.199 38 53 25
0.282644 0.0451243 1.199 39 54 26
0.284269 0.0450867 1.198 40 55 27
0.286129 0.0450867 1.198 39 54 26
0.287749 0.045049 1.197 39 54 26
0.28985 0.0450867 1.198 38 53 25
0.291467 0.045049 1.197 40 55 27
0.293326 0.045049 1.197 40 55 27
0.295185 0.045049 1.197 40 55 27
0.297044 0.045049 1.197 39 54 26
0.298903 0.045049 1.197 36 51 23
0.300762 0.045049 1.197 39 54 26
0.302621 0.045049 1.197 40 55 27
0.30448 0.045049 1.197 40 55 27
0.306339 0.045049 1.197 40 55 27
0.308198 0.045049 1.197 39 54 26
0.309798 0.0450114 1.196 40 55 27
0.311656 0.0450114 1.196 38 53 25
0.313251 0.0449738 1.195 36 51 23
0.315107 0.0449738 1.195 37 55 26
0.316963 0.0449738 1.195 43 61 32
0.318818 0.0449738 1.195 40 58 29
0.320406 0.0449361 1.194 40 58 29
0.321721 0.0448609 1.192 40 58 29
0.323572 0.0448609 1.192 41 59 30
0.32515 0.0448232 1.191 43 61 32
0.327 0.0448232 1.191 40 58 29
0.328573 0.0447856 1.19 43 61 32
0.330144 0.0447479 1.189 46 64 35
0.331711 0.0447103 1.188 52 70 41
0.333556 0.0447103 1.188 52 70 41
0.335683 0.0447479 1.189 53 71 42
0.33753 0.0447479 1.189 53 71 42
0.34151 0.0447856 1.19 57 75 46
0.343358 0.0447856 1.19 57 75 46
0.345496 0.0448232 1.191 57 75 46
0.347346 0.0448232 1.191 55 73 44
0.349489 0.0448609 1.192 54 72 43
0.351045 0.0448232 1.191 55 73 44
0.352599 0.0447856 1.19 57 75 46
0.354149 0.0447479 1.189 55 73 46
0.355397 0.0446727 1.187 54 72 45
0.356939 0.044635 1.186 58 75 50
0.358478 0.0445974 1.185 51 68 43
0.360015 0.0445598 1.184 46 62 40
0.361242 0.0444845 1.182 65 81 59
0.362464 0.0444092 1.18 74 83 69
0.363988 0.0443716 1.179 36 45 31
0.364267 0.0441834 1.174 41 49 37
0.363908 0.04392 1.167 35 43 31
0.361234 0.0431673 1.147 157 163 162
0.361116 0.0429415 1.141 171 177 184
0.361934 0.0428286 1.138 180 186 193
0.363701 0.0428286 1.138 188 196 203
0.365469 0.0428286 1.138 195 203 210
0.367881 0.0429038 1.14 116 123 132
0.371273 0.043092 1.145 96 103 112
-0.165179 0.0462048 1.179 11 21 9
-0.163487 0.046244 1.18 12 22 10
-0.161654 0.046244 1.18 12 22 10
-0.159957 0.0462832 1.181 13 23 11
-0.158123 0.0462832 1.181 13 23 11
-0.156289 0.0462832 1.181 14 24 12
-0.154586 0.0463224 1.182 13 24 10
-0.15275 0.0463224 1.182 14 25 11
-0.150914 0.0463224 1.182 15 29 12
-0.149205 0.0463616 1.183 15 29 12
-0.147492 0.0464007 1.184 16 31 11
-0.145776 0.0464399 1.185 17 32 12
-0.143936 0.0464399 1.185 17 32 12
-0.142215 0.0464791 1.186 18 33 13
-0.140373 0.0464791 1.186 19 34 14
-0.138648 0.0465183 1.187 19 34 14
-0.13692 0.0465575 1.188 19 34 14
-0.135189 0.0465967 1.189 20 35 15
-0.133454 0.0466359 1.19 20 35 15
-0.131606 0.0466359 1.19 20 35 15
-0.129758 0.0466359 1.19 20 35 15
-0.12791 0.0466359 1.19 22 37 17
-0.126168 0.0466751 1.191 23 38 18
-0.124423 0.0467143 1.192 23 38 18
-0.122571 0.0467143 1.192 25 40 20
-0.120822 0.0467535 1.193 24 39 19
-0.119068 0.0467926 1.194 22 37 17
-0.117312 0.0468318 1.195 23 38 18
-0.115456 0.0468318 1.195 23 38 18
-0.113601 0.0468318 1.195 22 37 17
-0.111838 0.046871 1.196 22 37 17
-0.109981 0.046871 1.196 22 37 17
-0.108123 0.046871 1.196 20 34 17
-0.106266 0.046871 1.196 22 36 19
-0.104408 0.046871 1.196 22 36 19
-0.102551 0.046871 1.196 24 38 21
-0.100609 0.0468318 1.195 23 38 18
-0.0987536 0.0468318 1.195 20 35 15
-0.0968977 0.0468318 1.195 22 37 17
-0.0950418 0.0468318 1.195 22 37 17
-0.093108 0.0467926 1.194 22 37 17
-0.0911772 0.0467535 1.193 22 37 17
-0.0892496 0.0467143 1.192 24 36 17
-0.087325 0.0466751 1.191 21 33 14
-0.0854036 0.0466359 1.19 21 33 14
-0.0833448 0.0465183 1.187 21 33 14
-0.0812267 0.0463616 1.183 21 32 16
-0.0791882 0.046244 1.18 21 32 16
-0.0772245 0.0461656 1.178 20 31 15
-0.075203 0.046048 1.175 20 31 15
-0.0732533 0.0459697 1.173 20 31 17
-0.071188 0.0458129 1.169 20 31 17
-0.0693132 0.0457737 1.168 20 30 18
-0.0673836 0.0456953 1.166 22 32 20
-0.0648979 0.0452251 1.154 20 30 32
-0.0594008 0.0438142 1.118 5 19 36
-0.0573551 0.0435791 1.112 56 70 87
-0.055478 0.0434615 1.109 136 155 183
-0.0537072 0.0434223 1.108 155 174 202
-0.0519865 0.0434223 1.108 150 177 208
-0.050175 0.0433439 1.106 152 179 210
-0.0484135 0.0433048 1.105 149 176 209
-0.0466974 0.0433048 1.105 132 159 192
-0.0449406 0.0432656 1.104 135 153 178
-0.0432652 0.0433048 1.105 178 196 221
-0.0415867 0.0433439 1.106 242 252 255
-0.039869 0.0433439 1.106 243 253 255
-0.0382204 0.0434223 1.108 249 255 254
-0.0364996 0.0434223 1.108 249 255 254
-0.0347788 0.0434223 1.108 249 255 254
-0.0330581 0.0434223 1.108 249 255 254
-0.0313373 0.0434223 1.108 251 255 254
-0.0296166 0.0434223 1.108 251 255 254
-0.0278958 0.0434223 1.108 251 255 254
-0.0261514 0.0433831 1.107 251 255 254
-0.0244322 0.0433831 1.107 251 255 254
-0.022713 0.0433831 1.107 251 255 254
-0.0209748 0.0433439 1.106 251 255 254
-0.0192746 0.0433831 1.107 251 255 254
-0.0175712 0.0434223 1.108 251 255 254
-0.0158505 0.0434223 1.108 251 255 254
-0.0141297 0.0434223 1.108 251 255 254
-0.0124201 0.0434615 1.109 251 255 254
-0.0106978 0.0434615 1.109 251 255 254
-0.00897551 0.0434615 1.109 251 255 254
-0.00725973 0.0435007 1.11 251 255 254
-0.00553586 0.0435007 1.11 251 255 254
-0.003812 0.0435007 1.11 251 255 254
-0.00208437 0.0434223 1.108 251 255 254
-0.000363603 0.0434223 1.108 251 255 254
0.00135716 0.0434223 1.108 251 255 254
0.00307792 0.0434223 1.108 251 255 254
0.00479002 0.0433439 1.106 251 255 254
0.00650768 0.0433439 1.106 251 255 254
0.00821789 0.0433048 1.105 251 255 254
0.009934 0.0433048 1.105 251 255 254
0.0116396 0.0432656 1.104 251 255 254
0.0133541 0.0432656 1.104 254 254 254
0.015055 0.0432264 1.103 253 253 253
0.016768 0.0432264 1.103 246 242 242
0.018481 0.0432264 1.103 234 230 230
0.0201757 0.0431872 1.102 236 232 232
0.0218673 0.043148 1.101 246 242 242
0.0235772 0.043148 1.101 255 252 255
0.0252871 0.043148 1.101 255 253 255
0.0269724 0.0431088 1.1 247 252 255
0.0286286 0.0430304 1.098 242 247 255
0.0303338 0.0430304 1.098 138 148 177
0.0320099 0.0429912 1.097 114 124 153
0.0336828 0.042952 1.096 118 133 173
0.0353527 0.0429129 1.095 114 129 169
0.0370871 0.042952 1.096 118 138 177
0.0388246 0.0429912 1.097 157 177 216
0.0405283 0.0429912 1.097 182 204 243
0.042232 0.0429912 1.097 127 149 188
0.0459722 0.0433048 1.105 1 17 47
0.0542663 0.0459697 1.173 19 34 26
0.0563271 0.0461656 1.178 20 35 27
0.0582553 0.046244 1.18 22 37 24
0.0601898 0.0463224 1.182 21 36 23
0.0622353 0.0464791 1.186 20 35 22
0.0641313 0.0465183 1.187 18 33 20
0.0659747 0.0465183 1.187 18 33 20
0.0678753 0.0465575 1.188 18 33 20
0.0698377 0.0466359 1.19 22 38 23
0.0716858 0.0466359 1.19 24 40 25
0.0736575 0.0467143 1.192 25 41 26
0.0755087 0.0467143 1.192 25 41 26
0.0774897 0.0467926 1.194 27 43 26
0.079344 0.0467926 1.194 28 44 27
0.0812664 0.0468318 1.195 29 46 26
0.0831223 0.0468318 1.195 30 47 27
0.0849781 0.0468318 1.195 32 49 29
0.086834 0.0468318 1.195 31 48 28
0.0886899 0.0468318 1.195 34 51 31
0.0905458 0.0468318 1.195 32 49 29
0.0923243 0.0467926 1.194 34 52 30
0.0941786 0.0467926 1.194 34 52 30
0.0959525 0.0467535 1.193 32 50 28
0.0978053 0.0467535 1.193 32 50 28
0.0995745 0.0467143 1.192 31 49 27
0.101426 0.0467143 1.192 31 49 27
0.10319 0.0466751 1.191 31 49 27
0.104952 0.0466359 1.19 31 49 27
0.1068 0.0466359 1.19 32 51 26
0.108648 0.0466359 1.19 32 51 26
0.110403 0.0465967 1.189 34 53 28
0.112155 0.0465575 1.188 32 51 26
0.114 0.0465575 1.188 34 53 28
0.115748 0.0465183 1.187 32 51 26
0.11769 0.0465575 1.188 32 51 26
0.119535 0.0465575 1.188 34 53 28
0.121483 0.0465967 1.189 34 54 27
0.123433 0.0466359 1.19 35 55 28
0.125281 0.0466359 1.19 34 54 27
0.127129 0.0466359 1.19 32 52 25
0.129194 0.0467143 1.192 37 57 28
0.131045 0.0467143 1.192 36 56 27
0.132896 0.0467143 1.192 36 56 27
0.134748 0.0467143 1.192 37 57 28
0.136713 0.0467535 1.193 39 60 28
0.138566 0.0467535 1.193 39 60 28
0.140537 0.0467926 1.194 39 60 28
0.142391 0.0467926 1.194 39 60 28
0.144245 0.0467926 1.194 39 60 28
0.1461 0.0467926 1.194 41 62 30
0.14783 0.0467535 1.193 38 59 27
0.149683 0.0467535 1.193 42 63 31
0.151409 0.0467143 1.192 45 66 34
0.15326 0.0467143 1.192 44 65 33
0.154981 0.0466751 1.191 43 65 31
0.156831 0.0466751 1.191 44 66 32
0.158547 0.0466359 1.19 43 65 31
0.160395 0.0466359 1.19 45 67 33
0.162107 0.0465967 1.189 48 71 34
0.163816 0.0465575 1.188 49 72 35
0.165521 0.0465183 1.187 49 72 35
0.167365 0.0465183 1.187 49 72 35
0.169065 0.0464791 1.186 49 72 35
0.170763 0.0464399 1.185 51 74 37
0.172604 0.0464399 1.185 53 76 39
0.174444 0.0464399 1.185 52 75 38
0.176284 0.0464399 1.185 52 76 37
0.178125 0.0464399 1.185 53 77 38
0.179965 0.0464399 1.185 56 80 39
0.181805 0.0464399 1.185 55 79 38
0.183646 0.0464399 1.185 55 80 36
0.185643 0.0464791 1.186 55 80 36
0.187643 0.0465183 1.187 58 83 39
0.189805 0.0465967 1.189 63 88 44
0.191813 0.0466359 1.19 63 88 44
0.193824 0.0466751 1.191 62 87 43
0.195838 0.0467143 1.192 63 88 44
0.197689 0.0467143 1.192 67 92 48
0.19954 0.0467143 1.192 63 88 44
0.201391 0.0467143 1.192 65 90 46
0.203243 0.0467143 1.192 63 88 44
0.204922 0.0466751 1.191 66 91 47
0.206598 0.0466359 1.19 67 93 47
0.208271 0.0465967 1.189 66 92 46
0.210117 0.0465967 1.189 66 92 46
0.211786 0.0465575 1.188 68 94 48
0.213631 0.0465575 1.188 67 93 47
0.215476 0.0465575 1.188 67 93 47
0.217321 0.0465575 1.188 68 94 48
0.219166 0.0465575 1.188 70 96 50
0.221197 0.0465967 1.189 71 97 51
0.223231 0.0466359 1.19 71 97 51
0.225079 0.0466359 1.19 71 97 51
0.227118 0.0466751 1.191 68 94 48
0.22916 0.0467143 1.192 66 92 46
0.231205 0.0467535 1.193 65 91 45
0.233057 0.0467535 1.193 57 82 38
0.235304 0.0468318 1.195 59 84 40
0.23716 0.0468318 1.195 60 83 39
0.239016 0.0468318 1.195 59 82 38
0.240872 0.0468318 1.195 62 80 44
0.242931 0.046871 1.196 56 74 38
0.244788 0.046871 1.196 50 67 34
0.246646 0.046871 1.196 48 65 32
0.248503 0.046871 1.196 36 52 21
0.25057 0.0469102 1.197 42 58 27
0.252429 0.0469102 1.197 35 51 20
0.2545 0.0469494 1.198 38 54 23
0.256575 0.0469886 1.199 39 54 26
0.258437 0.0469886 1.199 40 55 27
0.260516 0.0470278 1.2 41 56 28
0.26238 0.0470278 1.2 41 56 28
0.264243 0.0470278 1.2 40 55 27
0.266329 0.047067 1.201 39 54 26
0.26797 0.0470278 1.2 41 56 28
0.269834 0.0470278 1.2 39 54 26
0.271698 0.0470278 1.2 40 55 27
0.273561 0.0470278 1.2 40 55 27
0.275425 0.0470278 1.2 39 54 26
0.277289 0.0470278 1.2 39 54 26
0.27892 0.0469886 1.199 38 53 25
0.280548 0.0469494 1.198 38 53 25
0.282644 0.0469886 1.199 39 54 26
0.284269 0.0469494 1.198 39 54 26
0.286129 0.0469494 1.198 39 54 26
0.287749 0.0469102 1.197 39 54 26
0.289608 0.0469102 1.197 38 53 25
0.291467 0.0469102 1.197 40 55 27
0.293326 0.0469102 1.197 41 56 28
0.295185 0.0469102 1.197 41 56 28
0.297044 0.0469102 1.197 41 56 28
0.298903 0.0469102 1.197 41 56 28
0.300762 0.0469102 1.197 40 55 27
0.302621 0.0469102 1.197 39 54 26
0.30448 0.0469102 1.197 38 53 25
0.306339 0.0469102 1.197 38 53 25
0.308198 0.0469102 1.197 37 55 26
0.309798 0.046871 1.196 37 55 26
0.311916 0.0469102 1.197 36 54 25
0.313513 0.046871 1.196 36 54 25
0.31537 0.046871 1.196 40 58 29
0.316963 0.0468318 1.195 40 58 29
0.318818 0.0468318 1.195 39 58 26
0.320406 0.0467926 1.194 41 60 28
0.32199 0.0467535 1.193 41 60 28
0.323572 0.0467143 1.192 43 62 30
0.325423 0.0467143 1.192 43 62 30
0.327 0.0466751 1.191 45 64 32
0.328573 0.0466359 1.19 45 64 32
0.330144 0.0465967 1.189 47 66 34
0.331711 0.0465575 1.188 53 72 40
0.333556 0.0465575 1.188 53 72 40
0.335401 0.0465575 1.188 54 72 43
0.33753 0.0465967 1.189 54 72 43
0.34151 0.0466359 1.19 55 73 44
0.343358 0.0466359 1.19 55 73 44
0.345496 0.0466751 1.191 55 73 44
0.347346 0.0466751 1.191 54 72 43
0.349489 0.0467143 1.192 54 72 43
0.35134 0.0467143 1.192 56 71 43
0.352599 0.0466359 1.19 57 72 44
0.354447 0.0466359 1.19 53 71 44
0.355696 0.0465575 1.188 55 73 46
0.35724 0.0465183 1.187 60 77 52
0.358781 0.0464791 1.186 45 62 37
0.360319 0.0464399 1.185 44 59 39
0.361548 0.0463616 1.183 65 80 60
0.363078 0.0463224 1.182 76 85 71
0.364296 0.046244 1.18 36 45 31
0.364577 0.046048 1.175 42 51 37
0.364219 0.0457737 1.168 37 46 32
0.361646 0.0452251 1.154 53 60 56
0.361234 0.0449507 1.147 157 164 160
0.361116 0.0447156 1.141 173 179 186
0.361934 0.044598 1.138 181 187 194
0.363701 0.044598 1.138 189 195 202
0.364826 0.0445196 1.136 201 207 214
0.367881 0.0446764 1.14 115 122 131
0.371273 0.0448723 1.145 96 103 112
-0.165319 0.0480787 1.18 11 21 9
-0.163487 0.0480787 1.18 12 22 10
-0.161791 0.0481195 1.181 12 22 10
-0.159957 0.0481195 1.181 12 22 10
-0.158123 0.0481195 1.181 13 23 11
-0.156421 0.0481602 1.182 14 24 12
-0.154586 0.0481602 1.182 14 25 11
-0.15275 0.0481602 1.182 14 25 11
-0.150914 0.0481602 1.182 18 29 15
-0.149205 0.048201 1.183 15 26 12
-0.147492 0.0482417 1.184 17 28 12
-0.145776 0.0482825 1.185 19 30 14
-0.143936 0.0482825 1.185 17 32 12
-0.142215 0.0483232 1.186 18 33 13
-0.140492 0.048364 1.187 20 35 15
-0.138648 0.048364 1.187 20 35 15
-0.13692 0.0484047 1.188 20 35 15
-0.135189 0.0484455 1.189 20 35 15
-0.133454 0.0484862 1.19 22 37 17
-0.131606 0.0484862 1.19 22 37 17
-0.129758 0.0484862 1.19 22 37 17
-0.12791 0.0484862 1.19 22 37 17
-0.126168 0.0485269 1.191 23 38 18
-0.124423 0.0485677 1.192 22 37 17
-0.122571 0.0485677 1.192 24 39 19
-0.12072 0.0485677 1.192 25 40 20
-0.118969 0.0486084 1.193 23 38 18
-0.117116 0.0486084 1.193 22 37 17
-0.11536 0.0486492 1.194 20 35 15
-0.113506 0.0486492 1.194 20 35 15
-0.111745 0.0486899 1.195 22 37 17
-0.109889 0.0486899 1.195 23 38 18
-0.108033 0.0486899 1.195 23 37 20
-0.106177 0.0486899 1.195 23 37 20
-0.104321 0.0486899 1.195 23 37 20
-0.102465 0.0486899 1.195 24 38 21
-0.100525 0.0486492 1.194 22 37 17
-0.0986709 0.0486492 1.194 20 35 15
-0.0968166 0.0486492 1.194 22 37 17
-0.0948827 0.0486084 1.193 22 37 17
-0.09303 0.0486084 1.193 22 37 17
-0.0911008 0.0485677 1.192 20 35 15
-0.0892496 0.0485677 1.192 24 36 17
-0.0872517 0.0484862 1.19 21 33 14
-0.0854036 0.0484862 1.19 21 33 14
-0.0832746 0.0483232 1.186 20 32 13
-0.0812954 0.0482417 1.184 20 31 15
-0.0792553 0.0481195 1.181 20 31 15
-0.0772245 0.0479973 1.178 20 31 15
-0.075203 0.047875 1.175 20 31 15
-0.0733157 0.0478343 1.174 20 31 17
-0.0713098 0.047712 1.171 19 30 16
-0.0694318 0.0476713 1.17 21 32 18
-0.0674992 0.0475898 1.168 22 33 19
-0.0649542 0.0470601 1.155 17 27 29
-0.0594008 0.0455526 1.118 3 17 34
-0.0573035 0.0452674 1.111 62 76 93
-0.055528 0.0452266 1.11 137 155 185
-0.0537557 0.0451859 1.109 149 167 197
-0.0520334 0.0451859 1.109 147 174 207
-0.0502203 0.0451044 1.107 140 167 200
-0.0484573 0.0450636 1.106 129 155 190
-0.0466974 0.0450229 1.105 129 155 190
-0.0449813 0.0450229 1.105 138 156 181
-0.0432652 0.0450229 1.105 212 230 255
-0.0415491 0.0450229 1.105 243 253 255
-0.039869 0.0450636 1.106 243 253 255
-0.0381859 0.0451044 1.107 247 255 254
-0.0364667 0.0451044 1.107 247 255 254
-0.0347474 0.0451044 1.107 249 255 254
-0.0330581 0.0451451 1.108 249 255 254
-0.0313373 0.0451451 1.108 249 255 254
-0.0296166 0.0451451 1.108 249 255 254
-0.0278958 0.0451451 1.108 251 255 254
-0.0261514 0.0451044 1.107 251 255 254
-0.0244322 0.0451044 1.107 251 255 254
-0.0227335 0.0451451 1.108 251 255 254
-0.0210127 0.0451451 1.108 251 255 254
-0.019292 0.0451451 1.108 251 255 254
-0.0175871 0.0451859 1.109 251 255 254
-0.0158505 0.0451451 1.108 251 255 254
-0.0141424 0.0451859 1.109 251 255 254
-0.0124201 0.0451859 1.109 251 255 254
-0.0107075 0.0452266 1.11 251 255 254
-0.0089836 0.0452266 1.11 251 255 254
-0.00725973 0.0452266 1.11 251 255 254
-0.00553586 0.0452266 1.11 251 255 254
-0.003812 0.0452266 1.11 251 255 254
-0.00208625 0.0451859 1.109 251 255 254
-0.000363932 0.0451859 1.109 251 255 254
0.00135716 0.0451451 1.108 251 255 254
0.00307792 0.0451451 1.108 251 255 254
0.00479435 0.0451044 1.107 251 255 254
0.00650768 0.0450636 1.106 251 255 254
0.00821789 0.0450229 1.105 251 255 254
0.009934 0.0450229 1.105 251 255 254
0.0116396 0.0449822 1.104 251 255 254
0.013342 0.0449414 1.103 254 254 254
0.015055 0.0449414 1.103 254 254 254
0.016768 0.0449414 1.103 253 249 250
0.018481 0.0449414 1.103 239 235 236
0.020194 0.0449414 1.103 239 235 236
0.0218871 0.0449007 1.102 248 244 245
0.0235986 0.0449007 1.102 255 251 255
0.0252871 0.0448599 1.101 255 252 255
0.0269724 0.0448192 1.1 247 252 255
0.0286808 0.0448192 1.1 242 247 255
0.0303338 0.0447377 1.098 138 147 172
0.0320099 0.0446969 1.097 121 130 155
0.0337136 0.0446969 1.097 117 133 170
0.0353527 0.0446154 1.095 117 133 170
0.0370871 0.0446562 1.096 124 144 176
0.0388246 0.0446969 1.097 162 182 214
0.0405283 0.0446969 1.097 185 207 241
0.042232 0.0446969 1.097 106 128 162
0.0457641 0.0448192 1.1 8 25 39
0.0544976 0.0479973 1.178 22 36 26
0.0563749 0.048038 1.179 21 35 25
0.0582553 0.0480787 1.18 22 37 24
0.0601388 0.0481195 1.181 22 37 24
0.0622353 0.0483232 1.186 21 36 23
0.0640772 0.0483232 1.186 23 38 25
0.0659747 0.048364 1.187 23 39 24
0.0678753 0.0484047 1.188 23 39 24
0.0698377 0.0484862 1.19 23 39 24
0.071746 0.0485269 1.191 23 39 24
0.0736575 0.0485677 1.192 24 40 23
0.0756354 0.0486492 1.194 24 40 23
0.0775546 0.0486899 1.195 25 41 24
0.0794105 0.0486899 1.195 25 41 24
0.0813344 0.0487307 1.196 29 46 26
0.0832614 0.0487714 1.197 31 48 28
0.0851204 0.0487714 1.197 30 47 27
0.0869793 0.0487714 1.197 30 47 27
0.0888383 0.0487714 1.197 30 48 26
0.0906973 0.0487714 1.197 31 49 27
0.092479 0.0487307 1.196 34 52 30
0.0942575 0.0486899 1.195 32 50 28
0.0961134 0.0486899 1.195 32 50 28
0.0979693 0.0486899 1.195 32 50 28
0.0998251 0.0486899 1.195 32 50 28
0.101596 0.0486492 1.194 32 50 28
0.103277 0.0485677 1.192 34 52 30
0.105128 0.0485677 1.192 35 53 31
0.10689 0.0485269 1.191 34 52 30
0.108648 0.0484862 1.19 34 52 30
0.110403 0.0484455 1.189 32 50 28
0.11225 0.0484455 1.189 31 49 27
0.113904 0.048364 1.187 32 51 26
0.115748 0.048364 1.187 32 51 26
0.117591 0.048364 1.187 32 51 26
0.119435 0.048364 1.187 34 53 28
0.12138 0.0484047 1.188 34 54 27
0.123225 0.0484047 1.188 35 55 28
0.125176 0.0484455 1.189 34 54 27
0.127129 0.0484862 1.19 32 52 25
0.128977 0.0484862 1.19 34 54 25
0.131045 0.0485677 1.192 35 55 26
0.132896 0.0485677 1.192 36 56 27
0.134748 0.0485677 1.192 37 57 28
0.136713 0.0486084 1.193 38 58 29
0.138566 0.0486084 1.193 39 59 30
0.140537 0.0486492 1.194 38 59 27
0.142391 0.0486492 1.194 37 58 26
0.144245 0.0486492 1.194 38 59 27
0.1461 0.0486492 1.194 39 60 28
0.147954 0.0486492 1.194 41 62 30
0.149683 0.0486084 1.193 41 62 30
0.151409 0.0485677 1.192 41 62 30
0.15326 0.0485677 1.192 41 62 30
0.154981 0.0485269 1.191 42 63 31
0.156699 0.0484862 1.19 44 65 33
0.158547 0.0484862 1.19 44 66 32
0.16026 0.0484455 1.189 45 67 33
0.161971 0.0484047 1.188 46 69 32
0.163678 0.048364 1.187 48 71 34
0.165521 0.048364 1.187 49 72 35
0.167224 0.0483232 1.186 49 72 35
0.168923 0.0482825 1.185 50 73 36
0.170763 0.0482825 1.185 51 74 37
0.172604 0.0482825 1.185 52 75 38
0.174444 0.0482825 1.185 53 76 39
0.176284 0.0482825 1.185 52 76 37
0.178125 0.0482825 1.185 51 75 36
0.179965 0.0482825 1.185 53 77 36
0.181805 0.0482825 1.185 53 77 36
0.183801 0.0483232 1.186 55 79 38
0.185799 0.048364 1.187 55 79 38
0.187801 0.0484047 1.188 57 82 38
0.189805 0.0484455 1.189 58 83 39
0.191813 0.0484862 1.19 59 84 40
0.193824 0.0485269 1.191 53 78 34
0.195838 0.0485677 1.192 57 82 38
0.197689 0.0485677 1.192 68 93 49
0.19954 0.0485677 1.192 65 90 46
0.201391 0.0485677 1.192 65 90 46
0.203072 0.0485269 1.191 64 89 45
0.20475 0.0484862 1.19 67 92 48
0.206598 0.0484862 1.19 66 92 46
0.208271 0.0484455 1.189 64 90 44
0.209941 0.0484047 1.188 66 92 46
0.211607 0.048364 1.187 70 96 50
0.213451 0.048364 1.187 67 93 47
0.215294 0.048364 1.187 66 92 46
0.217321 0.0484047 1.188 68 94 48
0.21935 0.0484455 1.189 68 94 48
0.221197 0.0484455 1.189 75 101 55
0.223231 0.0484862 1.19 77 103 57
0.225268 0.0485269 1.191 75 101 55
0.227118 0.0485269 1.191 74 100 54
