ply
format ascii 1.0
comment Created by Open3D
element vertex 1359
property double x
property double y
property double z
property uchar red
property uchar green
property uchar blue
end_header
0.211607 -0.145428 1.187 43 67 28
0.213451 -0.145428 1.187 42 66 25
0.215476 -0.145551 1.188 41 65 24
0.217321 -0.145551 1.188 41 65 24
0.21935 -0.145674 1.189 43 67 26
0.221197 -0.145674 1.189 49 73 32
0.223231 -0.145796 1.19 39 63 22
0.225079 -0.145796 1.19 38 62 21
0.226927 -0.145796 1.19 37 61 20
0.228775 -0.145796 1.19 35 59 20
0.230623 -0.145796 1.19 35 59 20
0.232471 -0.145796 1.19 34 55 18
0.23432 -0.145796 1.19 33 54 17
0.235969 -0.145674 1.189 33 54 17
0.237816 -0.145674 1.189 32 53 16
0.239864 -0.145796 1.19 30 51 14
0.241712 -0.145796 1.19 29 50 13
0.24356 -0.145796 1.19 29 50 13
0.245408 -0.145796 1.19 25 46 9
0.247256 -0.145796 1.19 23 44 7
0.249104 -0.145796 1.19 23 44 7
0.250953 -0.145796 1.19 25 42 9
0.252801 -0.145796 1.19 21 38 5
0.254649 -0.145796 1.19 19 35 4
0.256497 -0.145796 1.19 20 36 5
0.258345 -0.145796 1.19 18 36 7
0.260193 -0.145796 1.19 18 36 7
0.262041 -0.145796 1.19 18 36 7
0.263889 -0.145796 1.19 19 37 8
0.265737 -0.145796 1.19 19 37 8
0.267586 -0.145796 1.19 20 38 9
0.26966 -0.145919 1.191 19 37 8
0.271738 -0.146041 1.192 22 40 11
0.273589 -0.146041 1.192 20 38 11
0.27544 -0.146041 1.192 22 40 13
0.277291 -0.146041 1.192 20 38 11
0.279143 -0.146041 1.192 20 38 11
0.280994 -0.146041 1.192 22 39 14
0.282845 -0.146041 1.192 22 39 14
0.284696 -0.146041 1.192 19 36 11
0.286547 -0.146041 1.192 22 39 14
0.288399 -0.146041 1.192 20 36 14
0.290493 -0.146164 1.193 22 38 16
0.292346 -0.146164 1.193 23 39 17
0.294199 -0.146164 1.193 20 36 14
0.295803 -0.146041 1.192 19 35 13
0.297655 -0.146041 1.192 19 35 13
0.299003 -0.145796 1.19 18 34 12
0.300852 -0.145796 1.19 22 38 16
0.3027 -0.145796 1.19 20 36 14
0.304292 -0.145674 1.189 22 38 16
0.306138 -0.145674 1.189 22 38 16
0.308244 -0.145796 1.19 22 38 16
0.310092 -0.145796 1.19 20 36 14
0.31194 -0.145796 1.19 22 38 16
0.313788 -0.145796 1.19 24 40 18
0.315636 -0.145796 1.19 24 40 18
0.317484 -0.145796 1.19 24 40 18
0.319333 -0.145796 1.19 24 40 18
0.321451 -0.145919 1.191 24 40 18
0.3233 -0.145919 1.191 25 41 19
0.32515 -0.145919 1.191 25 41 19
0.327 -0.145919 1.191 25 41 19
0.328849 -0.145919 1.191 25 41 19
0.330699 -0.145919 1.191 26 42 20
0.332549 -0.145919 1.191 27 45 23
0.334398 -0.145919 1.191 25 43 21
0.335966 -0.145796 1.19 28 46 24
0.337814 -0.145796 1.19 27 45 23
0.339662 -0.145796 1.19 25 43 21
0.34151 -0.145796 1.19 25 43 21
0.34307 -0.145674 1.189 29 47 25
0.344626 -0.145551 1.188 27 45 23
0.346179 -0.145428 1.187 24 42 20
0.348023 -0.145428 1.187 24 42 20
0.349571 -0.145306 1.186 25 42 22
0.351117 -0.145183 1.185 25 42 22
0.352362 -0.144938 1.183 25 42 22
0.3539 -0.144816 1.182 25 42 22
0.355434 -0.144693 1.181 27 44 24
0.356966 -0.144571 1.18 28 45 25
0.357886 -0.144203 1.177 16 33 13
0.358797 -0.143836 1.174 14 31 11
0.359699 -0.143468 1.171 31 45 28
0.360592 -0.143101 1.168 10 24 7
0.361164 -0.142611 1.164 11 25 10
0.359854 -0.141385 1.154 16 30 15
0.360289 -0.14016 1.144 68 78 73
0.360483 -0.139548 1.139 105 114 113
0.361298 -0.13918 1.136 111 120 119
0.362423 -0.138935 1.134 121 130 129
0.363542 -0.13869 1.132 124 133 132
0.3653 -0.13869 1.132 72 76 81
0.367706 -0.138935 1.134 32 36 41
-0.145985 -0.126043 1.042 253 255 249
-0.144506 -0.126164 1.043 254 255 250
-0.142886 -0.126164 1.043 254 255 250
-0.141537 -0.126406 1.045 254 255 250
-0.140182 -0.126648 1.047 254 255 250
-0.138688 -0.126769 1.048 254 255 250
-0.137191 -0.12689 1.049 254 255 250
-0.134188 -0.127132 1.051 254 255 250
-0.132808 -0.127374 1.053 254 255 250
-0.131173 -0.127374 1.053 254 255 250
-0.129784 -0.127616 1.055 254 255 250
-0.128267 -0.127737 1.056 254 255 250
-0.126627 -0.127737 1.056 254 255 250
-0.125105 -0.127858 1.057 254 255 250
-0.123464 -0.127858 1.057 254 255 250
-0.121822 -0.127858 1.057 254 255 252
-0.120181 -0.127858 1.057 254 255 252
-0.118651 -0.127979 1.058 254 255 252
-0.117119 -0.1281 1.059 254 255 252
-0.115583 -0.128221 1.06 254 255 252
-0.113937 -0.128221 1.06 254 255 252
-0.112396 -0.128342 1.061 251 255 252
-0.110853 -0.128462 1.062 251 255 252
-0.109307 -0.128583 1.063 251 255 252
-0.107757 -0.128704 1.064 251 255 252
-0.106105 -0.128704 1.064 251 255 252
-0.10455 -0.128825 1.065 251 255 252
-0.102993 -0.128946 1.066 251 255 252
-0.101337 -0.128946 1.066 251 255 252
-0.0996819 -0.128946 1.066 251 255 252
-0.0980263 -0.128946 1.066 251 255 252
-0.0963708 -0.128946 1.066 251 255 252
-0.0947153 -0.128946 1.066 251 255 252
-0.0930597 -0.128946 1.066 251 255 252
-0.0915757 -0.129188 1.068 251 255 252
-0.0899171 -0.129188 1.068 251 255 252
-0.0883411 -0.129309 1.069 251 255 252
-0.0867619 -0.12943 1.07 251 255 252
-0.0852593 -0.129672 1.072 251 255 252
-0.0837504 -0.129914 1.074 251 255 252
-0.0822353 -0.130156 1.076 251 255 252
-0.080714 -0.130398 1.078 251 255 249
-0.0791864 -0.13064 1.08 249 255 247
-0.0775091 -0.13064 1.08 212 221 205
-0.0759021 -0.130761 1.081 114 123 107
-0.0742919 -0.130882 1.082 94 117 73
-0.0726115 -0.130882 1.082 96 119 75
-0.0709967 -0.131003 1.083 117 152 74
-0.0692508 -0.130882 1.082 111 146 68
-0.0675704 -0.130882 1.082 85 130 33
-0.06589 -0.130882 1.082 92 137 40
-0.0642096 -0.130882 1.082 130 178 67
-0.0625292 -0.130882 1.082 192 240 129
-0.0609051 -0.131003 1.083 188 236 130
-0.0592232 -0.131003 1.083 147 195 89
-0.0575944 -0.131124 1.084 173 220 111
-0.0559624 -0.131245 1.085 184 231 122
-0.0543774 -0.131487 1.087 172 212 93
-0.0527378 -0.131608 1.088 115 155 36
-0.0494491 -0.131849 1.09 125 163 51
-0.0478439 -0.132091 1.092 230 255 155
-0.0462325 -0.132333 1.094 252 255 177
-0.0445742 -0.132454 1.095 252 255 199
-0.042952 -0.132696 1.097 231 255 178
-0.0412859 -0.132817 1.098 222 255 164
-0.0395806 -0.132817 1.098 220 255 162
-0.0379444 -0.133059 1.1 202 239 124
-0.036269 -0.13318 1.101 123 160 45
-0.0345905 -0.133301 1.102 109 151 38
-0.0329089 -0.133422 1.103 123 165 52
-0.0311959 -0.133422 1.103 179 201 137
-0.0295364 -0.133664 1.105 247 255 205
-0.0278203 -0.133664 1.105 254 255 236
-0.0261278 -0.133785 1.106 254 255 236
-0.0244543 -0.134027 1.108 254 255 247
-0.022754 -0.134148 1.109 251 255 244
-0.0210317 -0.134148 1.109 254 255 247
-0.0193268 -0.134269 1.11 254 255 247
-0.0176188 -0.13439 1.111 254 255 244
-0.015922 -0.134632 1.113 254 255 244
-0.0142062 -0.134753 1.114 255 255 235
-0.0124873 -0.134874 1.115 235 237 211
-0.0108329 -0.135841 1.123 209 214 173
-0.00740362 -0.13693 1.132 58 67 21
-0.0039528 -0.139228 1.151 45 58 14
-0.000381324 -0.140559 1.162 45 64 19
0.00143433 -0.141647 1.171 44 63 18
0.00328349 -0.142978 1.182 43 63 20
0.00512783 -0.14322 1.184 43 63 20
0.00697251 -0.143341 1.185 42 61 21
0.00882773 -0.143583 1.187 41 60 20
0.0106712 -0.143583 1.187 41 60 20
0.0125252 -0.143704 1.188 41 60 20
0.0143823 -0.143825 1.189 41 60 20
0.0162425 -0.143946 1.19 41 60 20
0.0181058 -0.144067 1.191 38 60 19
0.0199722 -0.144188 1.192 37 59 18
0.0218234 -0.144188 1.192 37 59 20
0.0237144 -0.14443 1.194 38 60 21
0.0255901 -0.144551 1.195 39 61 22
0.027446 -0.144551 1.195 40 62 23
0.0293264 -0.144672 1.196 38 60 21
0.0311577 -0.144551 1.195 38 60 21
0.0330689 -0.144792 1.197 38 60 21
0.0349278 -0.144792 1.197 40 62 23
0.0367254 -0.144551 1.195 39 61 22
0.0385812 -0.144551 1.195 38 60 21
0.0404033 -0.14443 1.194 36 60 21
0.0422222 -0.144309 1.193 37 61 22
0.044038 -0.144188 1.192 36 60 21
0.0458892 -0.144188 1.192 37 61 22
0.0477405 -0.144188 1.192 36 60 21
0.0495501 -0.144067 1.191 35 59 20
0.0513997 -0.144067 1.191 35 59 20
0.0532494 -0.144067 1.191 36 60 21
0.0550991 -0.144067 1.191 37 61 22
0.0569487 -0.144067 1.191 37 61 22
0.0588478 -0.144188 1.192 38 62 23
0.0606481 -0.144067 1.191 39 63 24
0.0624977 -0.144067 1.191 38 62 23
0.0643474 -0.144067 1.191 39 63 24
0.0661415 -0.143946 1.19 38 62 23
0.0679896 -0.143946 1.19 39 63 24
0.0698377 -0.143946 1.19 37 61 22
0.0716256 -0.143825 1.189 36 60 21
0.0734103 -0.143704 1.188 36 60 21
0.075192 -0.143583 1.187 36 60 21
0.0770354 -0.143583 1.187 36 60 21
0.0788789 -0.143583 1.187 37 61 22
0.0806543 -0.143462 1.186 36 60 21
0.0824267 -0.143341 1.185 37 61 22
0.084267 -0.143341 1.185 37 60 23
0.0860347 -0.14322 1.184 37 60 23
0.0878735 -0.14322 1.184 37 60 23
0.0897881 -0.143341 1.185 35 58 21
0.0915511 -0.14322 1.184 36 59 22
0.0933899 -0.14322 1.184 38 61 24
0.0952287 -0.14322 1.184 39 62 25
0.0970675 -0.14322 1.184 38 61 24
0.0989062 -0.14322 1.184 39 63 24
0.10066 -0.143099 1.183 38 62 23
0.102497 -0.143099 1.183 42 66 27
0.104334 -0.143099 1.183 42 66 27
0.106082 -0.142978 1.182 38 62 23
0.107918 -0.142978 1.182 38 62 23
0.109846 -0.143099 1.183 38 62 23
0.111683 -0.143099 1.183 39 63 24
0.113521 -0.143099 1.183 37 61 22
0.115455 -0.14322 1.184 38 62 23
0.117294 -0.14322 1.184 39 63 24
0.119234 -0.143341 1.185 37 61 22
0.121074 -0.143341 1.185 37 61 22
0.122914 -0.143341 1.185 38 62 23
0.12486 -0.143462 1.186 38 62 23
0.126702 -0.143462 1.186 38 62 23
0.128544 -0.143462 1.186 38 62 23
0.130386 -0.143462 1.186 38 62 23
0.132227 -0.143462 1.186 38 62 23
0.134069 -0.143462 1.186 38 62 23
0.135797 -0.143341 1.185 38 62 23
0.137637 -0.143341 1.185 38 62 23
0.139477 -0.143341 1.185 37 61 22
0.141318 -0.143341 1.185 37 61 22
0.143158 -0.143341 1.185 38 62 23
0.144998 -0.143341 1.185 39 63 24
0.146715 -0.14322 1.184 38 62 23
0.148554 -0.14322 1.184 39 63 24
0.150265 -0.143099 1.183 39 63 24
0.152103 -0.143099 1.183 38 62 23
0.15381 -0.142978 1.182 39 63 24
0.155645 -0.142978 1.182 41 65 26
0.157481 -0.142978 1.182 39 63 22
0.159317 -0.142978 1.182 41 65 24
0.161153 -0.142978 1.182 38 62 21
0.162988 -0.142978 1.182 38 62 21
0.164824 -0.142978 1.182 39 62 18
0.16666 -0.142978 1.182 39 62 18
0.168495 -0.142978 1.182 41 64 20
0.170331 -0.142978 1.182 43 66 22
0.172167 -0.142978 1.182 43 66 22
0.174002 -0.142978 1.182 40 63 19
0.175838 -0.142978 1.182 41 64 20
0.177824 -0.143099 1.183 41 64 20
0.179661 -0.143099 1.183 43 66 22
0.181652 -0.14322 1.184 41 64 20
0.183491 -0.14322 1.184 39 63 22
0.185486 -0.143341 1.185 41 65 24
0.187326 -0.143341 1.185 42 66 25
0.189167 -0.143341 1.185 42 66 25
0.191007 -0.143341 1.185 42 66 25
0.192847 -0.143341 1.185 42 66 25
0.194688 -0.143341 1.185 42 66 25
0.196694 -0.143462 1.186 43 67 26
0.198368 -0.143341 1.185 42 66 25
0.200378 -0.143462 1.186 41 65 24
0.20222 -0.143462 1.186 43 67 26
0.204062 -0.143462 1.186 51 75 34
0.205903 -0.143462 1.186 48 72 31
0.207745 -0.143462 1.186 42 66 25
0.209587 -0.143462 1.186 43 67 26
0.211607 -0.143583 1.187 41 65 24
0.213451 -0.143583 1.187 41 65 24
0.215294 -0.143583 1.187 41 65 24
0.217321 -0.143704 1.188 41 65 24
0.219166 -0.143704 1.188 43 67 26
0.221197 -0.143825 1.189 43 67 26
0.223043 -0.143825 1.189 41 65 24
0.22489 -0.143825 1.189 38 62 21
0.226927 -0.143946 1.19 37 61 20
0.228775 -0.143946 1.19 36 60 21
0.230623 -0.143946 1.19 35 59 20
0.232471 -0.143946 1.19 34 55 18
0.23432 -0.143946 1.19 33 54 17
0.235969 -0.143825 1.189 32 53 16
0.237816 -0.143825 1.189 27 48 11
0.239864 -0.143946 1.19 29 50 13
0.241712 -0.143946 1.19 27 48 11
0.24356 -0.143946 1.19 27 48 11
0.245408 -0.143946 1.19 26 47 10
0.247256 -0.143946 1.19 25 42 9
0.249104 -0.143946 1.19 25 42 9
0.250953 -0.143946 1.19 24 41 8
0.252801 -0.143946 1.19 22 39 6
0.254649 -0.143946 1.19 20 36 5
0.256497 -0.143946 1.19 19 35 4
0.258345 -0.143946 1.19 18 36 7
0.260193 -0.143946 1.19 18 36 7
0.262041 -0.143946 1.19 19 37 8
0.263889 -0.143946 1.19 19 37 8
0.265737 -0.143946 1.19 19 37 8
0.26781 -0.144067 1.191 20 38 9
0.26966 -0.144067 1.191 19 37 8
0.271738 -0.144188 1.192 22 40 11
0.273589 -0.144188 1.192 22 40 11
0.27544 -0.144188 1.192 22 40 11
0.277291 -0.144188 1.192 20 38 11
0.279143 -0.144188 1.192 19 37 10
0.280994 -0.144188 1.192 20 38 11
0.282845 -0.144188 1.192 19 37 10
0.284696 -0.144188 1.192 20 37 12
0.286547 -0.144188 1.192 20 37 12
0.288399 -0.144188 1.192 20 36 14
0.290493 -0.144309 1.193 19 35 13
0.292346 -0.144309 1.193 22 38 16
0.294199 -0.144309 1.193 18 34 12
0.296052 -0.144309 1.193 19 35 13
0.297655 -0.144188 1.192 20 36 14
0.299506 -0.144188 1.192 20 36 14
0.301104 -0.144067 1.191 23 39 17
0.3027 -0.143946 1.19 22 38 16
0.304548 -0.143946 1.19 22 38 16
0.306653 -0.144067 1.191 22 38 16
0.308503 -0.144067 1.191 23 39 17
0.310353 -0.144067 1.191 22 38 16
0.314316 -0.144188 1.192 23 39 17
0.316167 -0.144188 1.192 23 39 17
0.318018 -0.144188 1.192 23 39 17
0.319869 -0.144188 1.192 23 39 17
0.321721 -0.144188 1.192 24 40 18
0.323572 -0.144188 1.192 25 41 19
0.325423 -0.144188 1.192 25 41 19
0.327274 -0.144188 1.192 25 41 19
0.329125 -0.144188 1.192 25 41 19
0.330977 -0.144188 1.192 25 41 19
0.332549 -0.144067 1.191 24 42 20
0.334398 -0.144067 1.191 23 41 19
0.335966 -0.143946 1.19 25 43 21
0.337814 -0.143946 1.19 28 46 24
0.339376 -0.143825 1.189 25 43 21
0.341223 -0.143825 1.189 24 42 20
0.34307 -0.143825 1.189 25 43 21
0.344626 -0.143704 1.188 24 42 20
0.346179 -0.143583 1.187 24 42 20
0.348023 -0.143583 1.187 24 42 20
0.349277 -0.143341 1.185 25 42 22
0.351117 -0.143341 1.185 27 44 24
0.352362 -0.143099 1.183 25 42 22
0.3539 -0.142978 1.182 25 42 22
0.355434 -0.142857 1.181 25 42 22
0.356663 -0.142615 1.179 31 48 28
0.357886 -0.142373 1.177 14 31 11
0.358797 -0.14201 1.174 10 27 7
0.359699 -0.141647 1.171 31 45 28
0.360592 -0.141285 1.168 10 24 7
0.359303 -0.140075 1.158 12 26 11
0.359542 -0.13947 1.153 15 29 14
0.359452 -0.138744 1.147 13 23 18
0.359974 -0.13826 1.143 66 76 71
0.360483 -0.137777 1.139 104 113 111
0.36098 -0.137293 1.135 114 123 121
0.361784 -0.13693 1.132 123 132 131
0.363542 -0.13693 1.132 124 133 132
0.3653 -0.13693 1.132 75 79 84
0.367706 -0.137172 1.134 32 36 41
-0.146126 -0.124542 1.043 254 255 252
-0.144506 -0.124542 1.043 254 255 252
-0.14316 -0.124781 1.045 254 255 252
-0.141672 -0.124901 1.046 254 255 252
-0.140316 -0.125139 1.048 254 255 250
-0.137191 -0.125259 1.049 254 255 250
-0.135821 -0.125498 1.051 254 255 250
-0.134316 -0.125617 1.052 254 255 250
-0.132808 -0.125737 1.053 254 255 250
-0.131422 -0.125975 1.055 254 255 250
-0.129907 -0.126095 1.056 254 255 250
-0.128388 -0.126214 1.057 254 255 252
-0.126747 -0.126214 1.057 254 255 252
-0.125224 -0.126334 1.058 254 255 252
-0.123697 -0.126453 1.059 254 255 252
-0.122053 -0.126453 1.059 254 255 252
-0.120294 -0.126334 1.058 254 255 252
-0.118763 -0.126453 1.059 254 255 252
-0.117229 -0.126572 1.06 254 255 252
-0.115583 -0.126572 1.06 254 255 252
-0.114044 -0.126692 1.061 254 255 252
-0.112502 -0.126811 1.062 254 255 252
-0.111062 -0.12705 1.064 254 255 252
-0.109512 -0.127169 1.065 251 255 252
-0.107858 -0.127169 1.065 251 255 252
-0.106304 -0.127289 1.066 251 255 252
-0.104648 -0.127289 1.066 251 255 252
-0.103186 -0.127528 1.068 251 255 252
-0.101528 -0.127528 1.068 251 255 252
-0.0998689 -0.127528 1.068 251 255 252
-0.0982103 -0.127528 1.068 251 255 252
-0.0965516 -0.127528 1.068 251 255 252
-0.094893 -0.127528 1.068 251 255 252
-0.0932343 -0.127528 1.068 251 255 252
-0.0916614 -0.127647 1.069 251 255 252
-0.0900012 -0.127647 1.069 251 255 252
-0.0884237 -0.127766 1.07 251 255 252
-0.0869241 -0.128005 1.072 251 255 252
-0.0853388 -0.128125 1.073 251 255 252
-0.0838284 -0.128364 1.075 251 255 250
-0.0823117 -0.128602 1.077 251 255 250
-0.0807888 -0.128841 1.079 254 255 247
-0.0791864 -0.128961 1.08 254 255 247
-0.0775809 -0.12908 1.081 246 252 234
-0.0759723 -0.129199 1.082 130 136 118
-0.0742919 -0.129199 1.082 90 111 66
-0.0726115 -0.129199 1.082 96 117 72
-0.0709967 -0.129319 1.083 118 150 73
-0.0692508 -0.129199 1.082 110 142 65
-0.0675704 -0.129199 1.082 86 130 36
-0.06589 -0.129199 1.082 97 141 47
-0.0642096 -0.129199 1.082 143 189 83
-0.0625292 -0.129199 1.082 191 237 131
-0.0609051 -0.129319 1.083 186 232 126
-0.0592778 -0.129438 1.084 138 184 78
-0.0576475 -0.129558 1.085 174 219 110
-0.056014 -0.129677 1.086 172 217 108
-0.0543774 -0.129796 1.087 168 212 92
-0.0527862 -0.130035 1.089 104 148 28
-0.0494945 -0.130274 1.091 171 210 95
-0.0479315 -0.130632 1.094 221 252 141
-0.0462748 -0.130752 1.095 232 255 152
-0.0446149 -0.130871 1.096 244 255 184
-0.042952 -0.13099 1.097 235 255 175
-0.0412859 -0.13111 1.098 221 255 160
-0.0396527 -0.131349 1.1 211 248 150
-0.0379444 -0.131349 1.1 178 217 96
-0.0363019 -0.131588 1.102 126 165 44
-0.0346219 -0.131707 1.103 111 153 40
-0.0329089 -0.131707 1.103 121 163 50
-0.0311959 -0.131707 1.103 186 212 147
-0.0295364 -0.131946 1.105 247 255 208
-0.0278203 -0.131946 1.105 251 255 238
-0.0261278 -0.132065 1.106 251 255 238
-0.0244543 -0.132304 1.108 251 255 246
-0.0227335 -0.132304 1.108 250 255 245
-0.0210317 -0.132423 1.109 253 255 245
-0.0193268 -0.132543 1.11 254 255 246
-0.0176188 -0.132662 1.111 255 255 242
-0.015922 -0.132901 1.113 255 255 242
-0.0141935 -0.132901 1.113 255 255 234
-0.0124873 -0.13314 1.115 230 232 206
-0.0108425 -0.134214 1.124 203 207 169
-0.0074167 -0.135409 1.134 51 59 16
-0.00038198 -0.138991 1.164 43 63 20
0.001438 -0.140185 1.174 43 63 20
0.00328904 -0.141379 1.184 45 65 22
0.00513216 -0.141498 1.185 43 63 20
0.00698428 -0.141737 1.187 43 62 22
0.00883517 -0.141857 1.188 40 59 19
0.0106892 -0.141976 1.189 41 60 20
0.0125463 -0.142095 1.19 41 60 20
0.0143944 -0.142095 1.19 42 61 21
0.0162698 -0.142334 1.192 42 61 21
0.018121 -0.142334 1.192 39 58 18
0.019989 -0.142454 1.193 40 59 19
0.0218784 -0.142692 1.195 39 61 20
0.0237342 -0.142692 1.195 39 61 20
0.0255901 -0.142692 1.195 39 61 20
0.0274689 -0.142812 1.196 40 62 21
0.0293509 -0.142931 1.197 39 61 20
0.0312099 -0.142931 1.197 38 60 19
0.0330689 -0.142931 1.197 37 59 18
0.0349278 -0.142931 1.197 40 62 21
0.0367868 -0.142931 1.197 41 63 22
0.0386135 -0.142812 1.196 40 62 21
0.0404371 -0.142692 1.195 38 62 21
0.042293 -0.142692 1.195 38 62 21
0.0441489 -0.142692 1.195 37 61 20
0.0459662 -0.142573 1.194 36 60 19
0.0477805 -0.142454 1.193 35 59 18
0.0496333 -0.142454 1.193 36 60 19
0.0514861 -0.142454 1.193 35 59 18
0.0533388 -0.142454 1.193 36 60 19
0.0552379 -0.142573 1.194 35 59 18
0.0570922 -0.142573 1.194 36 60 19
0.0588971 -0.142454 1.193 37 61 20
0.060699 -0.142334 1.192 39 63 22
0.0625502 -0.142334 1.192 37 61 20
0.0644014 -0.142334 1.192 38 62 21
0.0662526 -0.142334 1.192 38 62 21
0.0680467 -0.142215 1.191 38 62 21
0.0698377 -0.142095 1.19 37 61 20
0.0716858 -0.142095 1.19 37 61 20
0.0734103 -0.141857 1.188 36 60 21
0.0752553 -0.141857 1.188 36 60 21
0.0770354 -0.141737 1.187 36 60 21
0.0788789 -0.141737 1.187 36 60 21
0.0806543 -0.141618 1.186 36 59 22
0.0824267 -0.141498 1.185 37 60 23
0.084267 -0.141498 1.185 38 61 24
0.0861074 -0.141498 1.185 37 60 23
0.0879477 -0.141498 1.185 38 61 24
0.0897123 -0.141379 1.184 37 60 23
0.0916284 -0.141498 1.185 37 60 23
0.0934687 -0.141498 1.185 38 61 24
0.0953091 -0.141498 1.185 39 62 25
0.0971494 -0.141498 1.185 39 62 25
0.0989898 -0.141498 1.185 39 62 25
0.10083 -0.141498 1.185 39 62 25
0.102584 -0.141379 1.184 42 66 27
0.104423 -0.141379 1.184 41 65 26
0.106261 -0.141379 1.184 38 62 23
0.1081 -0.141379 1.184 38 62 23
0.109939 -0.141379 1.184 36 60 21
0.111872 -0.141498 1.185 38 62 23
0.113713 -0.141498 1.185 37 61 22
0.115553 -0.141498 1.185 38 62 23
0.117492 -0.141618 1.186 39 63 24
0.119334 -0.141618 1.186 38 62 23
0.121176 -0.141618 1.186 38 62 23
0.123122 -0.141737 1.187 39 63 24
0.12486 -0.141618 1.186 38 62 23
0.126702 -0.141618 1.186 39 63 24
0.128544 -0.141618 1.186 39 63 24
0.130386 -0.141618 1.186 39 63 24
0.132227 -0.141618 1.186 39 63 24
0.134069 -0.141618 1.186 38 62 23
0.135797 -0.141498 1.185 37 61 22
0.137637 -0.141498 1.185 37 61 22
0.139477 -0.141498 1.185 37 61 22
0.141318 -0.141498 1.185 38 62 23
0.143158 -0.141498 1.185 39 63 24
0.144998 -0.141498 1.185 39 63 24
0.146715 -0.141379 1.184 37 61 22
0.148428 -0.14126 1.183 37 61 22
0.150265 -0.14126 1.183 37 61 22
0.151974 -0.14114 1.182 38 62 23
0.15381 -0.14114 1.182 41 65 26
0.155645 -0.14114 1.182 41 65 26
0.157481 -0.14114 1.182 41 65 24
0.159317 -0.14114 1.182 39 63 22
0.161153 -0.14114 1.182 39 63 22
0.162988 -0.14114 1.182 38 62 21
0.164824 -0.14114 1.182 40 63 19
0.16666 -0.14114 1.182 40 63 19
0.168495 -0.14114 1.182 40 63 19
0.170331 -0.14114 1.182 41 64 20
0.172167 -0.14114 1.182 41 65 19
0.174002 -0.14114 1.182 41 65 19
0.175838 -0.14114 1.182 43 67 21
0.177674 -0.14114 1.182 43 67 21
0.179661 -0.14126 1.183 44 67 23
0.181652 -0.141379 1.184 43 66 22
0.183491 -0.141379 1.184 41 64 20
0.185486 -0.141498 1.185 44 67 23
0.187326 -0.141498 1.185 42 66 25
0.189167 -0.141498 1.185 43 67 26
0.191007 -0.141498 1.185 42 66 25
0.192847 -0.141498 1.185 43 67 26
0.194688 -0.141498 1.185 44 68 27
0.196694 -0.141618 1.186 43 67 26
0.198368 -0.141498 1.185 42 66 25
0.200209 -0.141498 1.185 42 66 25
0.20222 -0.141618 1.186 43 67 26
0.204062 -0.141618 1.186 44 68 27
0.205903 -0.141618 1.186 46 70 29
0.207745 -0.141618 1.186 43 67 26
0.209587 -0.141618 1.186 44 68 27
0.211607 -0.141737 1.187 42 66 25
0.213451 -0.141737 1.187 41 65 24
0.215294 -0.141737 1.187 41 65 24
0.217138 -0.141737 1.187 41 65 24
0.219166 -0.141857 1.188 42 66 25
0.221011 -0.141857 1.188 41 65 24
0.223043 -0.141976 1.189 39 63 22
0.22489 -0.141976 1.189 37 61 20
0.226736 -0.141976 1.189 37 61 20
0.228775 -0.142095 1.19 37 61 22
0.230623 -0.142095 1.19 35 59 20
0.232471 -0.142095 1.19 36 57 20
0.23432 -0.142095 1.19 34 55 18
0.236168 -0.142095 1.19 36 57 20
0.238016 -0.142095 1.19 32 53 16
0.239864 -0.142095 1.19 29 50 13
0.241712 -0.142095 1.19 27 48 11
0.24356 -0.142095 1.19 26 47 10
0.245408 -0.142095 1.19 25 46 9
0.247464 -0.142215 1.191 25 43 7
0.249314 -0.142215 1.191 24 42 6
0.251163 -0.142215 1.191 22 39 6
0.253013 -0.142215 1.191 21 38 5
0.254863 -0.142215 1.191 18 37 5
0.256497 -0.142095 1.19 18 37 5
0.258562 -0.142215 1.191 18 36 7
0.260412 -0.142215 1.191 19 37 8
0.262261 -0.142215 1.191 18 36 7
0.264111 -0.142215 1.191 20 38 9
0.265961 -0.142215 1.191 20 38 9
0.26781 -0.142215 1.191 20 38 9
0.269886 -0.142334 1.192 19 37 8
0.271738 -0.142334 1.192 20 38 9
0.273589 -0.142334 1.192 20 38 9
0.27544 -0.142334 1.192 20 38 9
0.277291 -0.142334 1.192 20 38 11
0.279143 -0.142334 1.192 20 38 11
0.280994 -0.142334 1.192 22 40 13
0.282845 -0.142334 1.192 22 40 13
0.284696 -0.142334 1.192 23 40 15
0.286788 -0.142454 1.193 23 40 15
0.288883 -0.142573 1.194 23 39 17
0.290737 -0.142573 1.194 24 40 18
0.292591 -0.142573 1.194 25 41 19
0.294445 -0.142573 1.194 13 29 7
0.2963 -0.142573 1.194 20 36 14
0.297904 -0.142454 1.193 20 36 14
0.299757 -0.142454 1.193 20 36 14
0.301357 -0.142334 1.192 22 38 16
0.303208 -0.142334 1.192 20 36 14
0.30506 -0.142334 1.192 22 38 16
0.306911 -0.142334 1.192 20 36 14
0.308762 -0.142334 1.192 23 39 17
0.310874 -0.142454 1.193 23 39 17
0.312727 -0.142454 1.193 23 39 17
0.314579 -0.142454 1.193 23 39 17
0.316697 -0.142573 1.194 22 38 16
0.318552 -0.142573 1.194 22 38 16
0.320406 -0.142573 1.194 22 38 16
0.32226 -0.142573 1.194 24 40 18
0.323843 -0.142454 1.193 25 41 19
0.325696 -0.142454 1.193 23 39 17
0.327274 -0.142334 1.192 24 40 18
0.329125 -0.142334 1.192 25 41 19
0.330977 -0.142334 1.192 25 41 19
0.332549 -0.142215 1.191 26 42 20
0.334117 -0.142095 1.19 26 42 20
0.335966 -0.142095 1.19 25 41 19
0.33753 -0.141976 1.189 25 41 19
0.339376 -0.141976 1.189 25 41 19
0.340936 -0.141857 1.188 25 41 19
0.342492 -0.141737 1.187 24 42 20
0.344336 -0.141737 1.187 24 42 20
0.346179 -0.141737 1.187 24 42 20
0.34773 -0.141618 1.186 24 42 20
0.349277 -0.141498 1.185 25 43 21
0.351117 -0.141498 1.185 27 45 23
0.352362 -0.14126 1.183 27 45 23
0.3539 -0.14114 1.182 25 43 21
0.355434 -0.141021 1.181 24 42 20
0.356663 -0.140782 1.179 31 49 27
0.357886 -0.140543 1.177 13 30 10
0.358797 -0.140185 1.174 13 30 10
0.359699 -0.139827 1.171 31 46 26
0.360592 -0.139468 1.168 12 27 7
0.359303 -0.138274 1.158 16 30 13
0.359542 -0.137677 1.153 16 30 13
0.359452 -0.136961 1.147 13 23 18
0.359659 -0.136364 1.142 64 74 69
0.360167 -0.135886 1.138 102 111 109
0.36098 -0.135528 1.135 114 123 121
0.361784 -0.13517 1.132 125 134 133
0.363542 -0.13517 1.132 125 134 133
0.3653 -0.13517 1.132 77 81 86
0.367706 -0.135409 1.134 29 33 38
-0.146266 -0.123039 1.044 251 255 252
-0.144783 -0.123156 1.045 251 255 252
-0.143297 -0.123274 1.046 253 254 251
-0.141808 -0.123392 1.047 251 252 249
-0.138821 -0.123628 1.049 253 252 249
-0.137191 -0.123628 1.049 251 252 249
-0.13595 -0.123981 1.052 252 253 250
-0.134444 -0.124099 1.053 253 254 251
-0.133061 -0.124335 1.055 254 255 252
-0.131547 -0.124453 1.056 251 255 254
-0.13003 -0.124571 1.057 251 255 254
-0.12851 -0.124689 1.058 251 255 252
-0.126987 -0.124806 1.059 251 255 252
-0.12546 -0.124924 1.06 251 255 252
-0.123814 -0.124924 1.06 251 255 252
-0.122283 -0.125042 1.061 251 255 252
-0.120522 -0.124924 1.06 251 255 252
-0.118875 -0.124924 1.06 254 255 252
-0.117229 -0.124924 1.06 254 255 252
-0.115692 -0.125042 1.061 254 255 252
-0.114152 -0.12516 1.062 254 255 252
-0.112714 -0.125396 1.064 254 255 252
-0.111166 -0.125513 1.065 254 255 252
-0.109615 -0.125631 1.066 251 255 252
-0.10796 -0.125631 1.066 251 255 252
-0.106503 -0.125867 1.068 251 255 252
-0.104943 -0.125985 1.069 251 255 252
-0.103283 -0.125985 1.069 251 255 252
-0.101718 -0.126103 1.07 251 255 252
-0.100056 -0.126103 1.07 251 255 252
-0.0983942 -0.126103 1.07 251 255 252
-0.096642 -0.125985 1.069 251 255 252
-0.0950707 -0.126103 1.07 251 255 252
-0.0934089 -0.126103 1.07 251 255 252
-0.0917472 -0.126103 1.07 251 255 252
-0.0901696 -0.126221 1.071 251 255 252
-0.088589 -0.126338 1.072 251 255 252
-0.0870052 -0.126456 1.073 251 255 252
-0.0854979 -0.126692 1.075 251 255 252
-0.0839063 -0.12681 1.076 251 255 250
-0.0823881 -0.127046 1.078 251 255 250
-0.0808637 -0.127281 1.08 251 255 249
-0.0792597 -0.127399 1.081 251 255 249
-0.0775809 -0.127399 1.081 247 252 237
-0.0759723 -0.127517 1.082 150 155 140
-0.0743606 -0.127635 1.083 103 123 80
-0.0726786 -0.127635 1.083 97 117 74
-0.0709967 -0.127635 1.083 116 147 73
-0.0692508 -0.127517 1.082 112 143 69
-0.0675704 -0.127517 1.082 90 135 38
-0.06589 -0.127517 1.082 103 148 51
-0.0642096 -0.127517 1.082 157 205 87
-0.062587 -0.127635 1.083 193 241 123
-0.0609613 -0.127753 1.084 183 231 114
-0.0592778 -0.127753 1.084 136 184 67
-0.0577006 -0.127988 1.086 147 193 73
-0.056014 -0.127988 1.086 145 191 71
-0.0544275 -0.128224 1.088 139 179 55
-0.0511419 -0.12846 1.09 105 144 23
-0.0495398 -0.128696 1.092 187 226 105
-0.0479315 -0.128931 1.094 192 227 112
-0.0462748 -0.129049 1.095 179 214 99
-0.0446556 -0.129285 1.097 153 186 89
-0.0429911 -0.129403 1.098 138 171 74
-0.0413235 -0.12952 1.099 161 196 92
-0.0396527 -0.129638 1.1 181 216 112
-0.0379789 -0.129756 1.101 132 174 45
-0.0363349 -0.129992 1.103 121 163 34
-0.0346533 -0.13011 1.104 108 149 39
-0.0329686 -0.130228 1.105 120 161 51
-0.0312242 -0.13011 1.104 183 208 146
-0.0295364 -0.130228 1.105 249 255 212
-0.0278203 -0.130228 1.105 251 255 239
-0.0261278 -0.130345 1.106 251 255 239
-0.0244543 -0.130581 1.108 251 255 246
-0.0227335 -0.130581 1.108 251 255 246
-0.0210127 -0.130581 1.108 250 255 245
-0.0193268 -0.130817 1.11 250 255 245
-0.0176188 -0.130935 1.111 255 255 241
-0.0158934 -0.130935 1.111 255 255 242
-0.0141935 -0.13117 1.113 255 255 233
-0.0124985 -0.131524 1.116 233 234 205
-0.0108522 -0.132585 1.125 193 195 157
-0.00742324 -0.133763 1.135 51 58 17
-0.000382637 -0.137417 1.166 45 65 22
0.00144167 -0.138713 1.177 43 63 20
0.0032946 -0.139774 1.186 43 62 22
0.0051365 -0.139774 1.186 43 62 22
0.00699016 -0.140009 1.188 43 62 22
0.00885004 -0.140245 1.19 40 59 19
0.0106982 -0.140245 1.19 40 59 21
0.0125568 -0.140363 1.191 42 61 23
0.0144186 -0.140481 1.192 42 61 23
0.0162834 -0.140599 1.193 42 61 23
0.0181514 -0.140717 1.194 39 61 22
0.0200225 -0.140834 1.195 39 61 22
0.0218967 -0.140952 1.196 39 61 22
0.0237541 -0.140952 1.196 40 62 23
0.0256329 -0.14107 1.197 40 62 23
0.0274919 -0.14107 1.197 39 61 22
0.0293509 -0.14107 1.197 40 62 23
0.0312099 -0.14107 1.197 36 58 19
0.0330965 -0.141188 1.198 38 60 21
0.034957 -0.141188 1.198 39 61 22
0.0367868 -0.14107 1.197 40 62 23
0.0386458 -0.14107 1.197 41 63 24
0.0405048 -0.14107 1.197 41 63 24
0.0423638 -0.14107 1.197 40 62 23
0.0442228 -0.14107 1.197 37 61 22
0.0460432 -0.140952 1.196 36 60 21
0.0478606 -0.140834 1.195 36 60 21
0.0497165 -0.140834 1.195 37 61 22
0.0516155 -0.140952 1.196 36 60 21
0.0534282 -0.140834 1.195 37 61 22
0.0552841 -0.140834 1.195 36 60 21
0.05714 -0.140834 1.195 35 59 20
0.0589959 -0.140834 1.195 37 61 22
0.0608008 -0.140717 1.194 39 63 24
0.0626551 -0.140717 1.194 36 60 21
0.0644554 -0.140599 1.193 38 62 23
0.0662526 -0.140481 1.192 38 62 23
0.0681038 -0.140481 1.192 38 62 23
0.0698964 -0.140363 1.191 37 61 22
0.0716858 -0.140245 1.19 37 61 22
0.0734721 -0.140127 1.189 37 61 22
0.0752553 -0.140009 1.188 38 62 23
0.0770354 -0.139892 1.187 37 61 22
0.0788789 -0.139892 1.187 36 60 21
0.0806543 -0.139774 1.186 37 60 23
0.0824267 -0.139656 1.185 38 61 24
0.084267 -0.139656 1.185 38 61 24
0.0861074 -0.139656 1.185 37 60 23
0.0879477 -0.139656 1.185 39 62 25
0.0897881 -0.139656 1.185 39 62 25
0.0916284 -0.139656 1.185 38 61 24
0.0934687 -0.139656 1.185 38 61 24
0.0953091 -0.139656 1.185 38 61 24
0.0971494 -0.139656 1.185 38 61 24
0.0989898 -0.139656 1.185 38 61 24
0.10083 -0.139656 1.185 38 61 24
0.102757 -0.139774 1.186 38 62 23
0.104511 -0.139656 1.185 37 61 22
0.106351 -0.139656 1.185 38 62 23
0.108192 -0.139656 1.185 38 62 23
0.110125 -0.139774 1.186 37 61 20
0.111872 -0.139656 1.185 39 63 22
0.113809 -0.139774 1.186 38 62 21
0.11565 -0.139774 1.186 39 63 22
0.117591 -0.139892 1.187 39 63 22
0.119435 -0.139892 1.187 38 62 21
0.121278 -0.139892 1.187 38 62 23
0.123122 -0.139892 1.187 39 63 24
0.124965 -0.139892 1.187 39 63 24
0.126809 -0.139892 1.187 41 65 26
0.128652 -0.139892 1.187 41 65 26
0.130386 -0.139774 1.186 41 65 26
0.132227 -0.139774 1.186 38 62 23
0.133956 -0.139656 1.185 37 61 22
0.135797 -0.139656 1.185 37 61 22
0.137637 -0.139656 1.185 37 61 22
0.139477 -0.139656 1.185 37 61 22
0.141318 -0.139656 1.185 37 61 22
0.143158 -0.139656 1.185 38 62 23
0.144998 -0.139656 1.185 39 63 24
0.146715 -0.139538 1.184 37 61 22
0.148554 -0.139538 1.184 39 63 24
0.150265 -0.13942 1.183 38 62 23
0.152103 -0.13942 1.183 38 62 23
0.15394 -0.13942 1.183 39 63 24
0.155777 -0.13942 1.183 38 62 23
0.157614 -0.13942 1.183 39 63 22
0.159317 -0.139302 1.182 39 63 22
0.161153 -0.139302 1.182 41 63 22
0.162988 -0.139302 1.182 40 62 21
0.164963 -0.13942 1.183 40 63 19
0.16666 -0.139302 1.182 43 66 22
0.168638 -0.13942 1.183 43 66 22
0.170331 -0.139302 1.182 43 66 22
0.172167 -0.139302 1.182 41 65 19
0.174002 -0.139302 1.182 41 65 19
0.175987 -0.13942 1.183 43 67 21
0.177674 -0.139302 1.182 43 67 21
0.179661 -0.13942 1.183 44 67 23
0.181652 -0.139538 1.184 44 67 23
0.183491 -0.139538 1.184 43 66 22
0.185329 -0.139538 1.184 44 67 23
0.187168 -0.139538 1.184 42 66 25
0.189167 -0.139656 1.185 43 67 26
0.191007 -0.139656 1.185 43 67 26
0.192847 -0.139656 1.185 44 68 27
0.194688 -0.139656 1.185 43 67 26
0.196528 -0.139656 1.185 42 66 25
0.198368 -0.139656 1.185 43 67 26
0.200378 -0.139774 1.186 45 69 28
0.20222 -0.139774 1.186 44 68 27
0.204062 -0.139774 1.186 43 67 26
0.205903 -0.139774 1.186 43 67 26
0.207745 -0.139774 1.186 42 66 25
0.209587 -0.139774 1.186 43 67 26
0.211607 -0.139892 1.187 41 65 24
0.213451 -0.139892 1.187 42 66 25
0.215294 -0.139892 1.187 42 66 25
0.217138 -0.139892 1.187 42 66 25
0.218981 -0.139892 1.187 43 67 26
0.220825 -0.139892 1.187 41 65 24
0.222856 -0.140009 1.188 41 65 24
0.224701 -0.140009 1.188 38 62 23
0.226736 -0.140127 1.189 37 61 22
0.228583 -0.140127 1.189 37 61 22
0.23043 -0.140127 1.189 35 59 20
0.232471 -0.140245 1.19 34 57 20
0.23432 -0.140245 1.19 32 55 18
0.236168 -0.140245 1.19 36 57 20
0.238016 -0.140245 1.19 37 58 21
0.239864 -0.140245 1.19 36 57 20
0.241712 -0.140245 1.19 33 54 17
0.24356 -0.140245 1.19 27 48 11
0.245614 -0.140363 1.191 25 46 9
0.247464 -0.140363 1.191 25 42 9
0.249523 -0.140481 1.192 24 41 8
0.251374 -0.140481 1.192 22 39 6
0.253226 -0.140481 1.192 21 38 5
0.255077 -0.140481 1.192 19 38 6
0.256928 -0.140481 1.192 23 42 10
0.258562 -0.140363 1.191 22 40 11
0.26063 -0.140481 1.192 22 40 11
0.262482 -0.140481 1.192 20 38 9
0.264333 -0.140481 1.192 22 40 11
0.266184 -0.140481 1.192 20 38 9
0.268035 -0.140481 1.192 20 38 9
0.269886 -0.140481 1.192 20 38 9
0.271738 -0.140481 1.192 22 40 11
0.273818 -0.140599 1.193 22 40 11
0.275671 -0.140599 1.193 22 40 11
0.277524 -0.140599 1.193 20 38 11
0.279377 -0.140599 1.193 20 38 11
0.281229 -0.140599 1.193 20 38 11
0.283082 -0.140599 1.193 20 38 11
0.285174 -0.140717 1.194 22 39 14
0.287269 -0.140834 1.195 23 40 15
0.289124 -0.140834 1.195 23 40 15
0.29098 -0.140834 1.195 24 41 16
0.292836 -0.140834 1.195 23 39 17
0.294692 -0.140834 1.195 13 29 7
0.296548 -0.140834 1.195 22 38 16
0.298404 -0.140834 1.195 23 39 17
0.30026 -0.140834 1.195 22 38 16
0.301863 -0.140717 1.194 23 39 17
0.303717 -0.140717 1.194 22 38 16
0.305571 -0.140717 1.194 23 39 17
0.307683 -0.140834 1.195 20 36 14
0.309539 -0.140834 1.195 23 39 17
0.311395 -0.140834 1.195 23 39 17
0.313251 -0.140834 1.195 22 38 16
0.315107 -0.140834 1.195 20 36 14
0.316963 -0.140834 1.195 20 36 14
0.318818 -0.140834 1.195 20 36 14
0.320674 -0.140834 1.195 22 38 16
0.32253 -0.140834 1.195 24 40 18
0.324115 -0.140717 1.194 25 41 19
0.325423 -0.140481 1.192 24 40 18
0.327274 -0.140481 1.192 23 39 17
0.328849 -0.140363 1.191 25 41 19
0.330699 -0.140363 1.191 29 45 23
0.332269 -0.140245 1.19 29 45 23
0.334117 -0.140245 1.19 29 45 23
0.335683 -0.140127 1.189 26 42 20
0.337246 -0.140009 1.188 25 41 19
0.339091 -0.140009 1.188 25 42 17
0.340649 -0.139892 1.187 25 42 17
0.342492 -0.139892 1.187 26 43 18
0.344336 -0.139892 1.187 26 43 18
0.346179 -0.139892 1.187 24 42 20
0.34773 -0.139774 1.186 24 42 20
0.349277 -0.139656 1.185 25 43 21
0.350821 -0.139538 1.184 27 45 23
0.352362 -0.13942 1.183 25 43 21
0.3539 -0.139302 1.182 25 43 21
0.355434 -0.139184 1.181 24 42 20
0.356663 -0.138949 1.179 31 49 27
0.357886 -0.138713 1.177 14 31 11
0.358797 -0.138359 1.174 18 35 15
0.359699 -0.138006 1.171 31 46 26
0.359974 -0.137417 1.166 17 32 12
0.358992 -0.136356 1.157 19 33 16
0.358918 -0.135649 1.151 16 30 13
0.359139 -0.13506 1.146 16 26 21
0.359659 -0.134588 1.142 62 72 67
0.360167 -0.134117 1.138 102 111 109
0.360662 -0.133645 1.134 114 123 121
0.361784 -0.13341 1.132 124 133 132
0.363542 -0.13341 1.132 126 135 134
0.3653 -0.13341 1.132 78 82 87
0.367382 -0.133527 1.133 28 32 37
-0.146546 -0.121648 1.046 254 255 252
-0.14506 -0.121764 1.047 253 254 251
-0.143434 -0.121764 1.047 237 236 233
-0.141943 -0.12188 1.048 201 200 197
-0.138821 -0.121997 1.049 198 195 192
-0.137453 -0.122229 1.051 206 206 207
-0.13595 -0.122346 1.052 220 220 221
-0.134572 -0.122578 1.054 237 242 238
-0.133187 -0.122811 1.056 248 253 249
-0.131671 -0.122927 1.057 248 254 253
-0.130153 -0.123043 1.058 247 253 252
-0.128631 -0.12316 1.059 247 253 252
-0.127106 -0.123276 1.06 247 253 252
-0.11282 -0.123858 1.065 251 255 252
-0.111271 -0.123974 1.066 251 255 252
-0.109615 -0.123974 1.066 251 255 252
-0.108162 -0.124206 1.068 251 255 252
-0.106603 -0.124323 1.069 250 255 251
-0.105041 -0.124439 1.07 250 255 251
-0.103476 -0.124555 1.071 251 255 254
-0.101908 -0.124672 1.072 251 255 254
-0.100243 -0.124672 1.072 250 254 253
-0.0985781 -0.124672 1.072 250 254 253
-0.0969132 -0.124672 1.072 250 255 251
-0.0952484 -0.124672 1.072 251 255 252
-0.0935835 -0.124672 1.072 251 255 252
-0.0920044 -0.124788 1.073 251 255 252
-0.090338 -0.124788 1.073 254 255 250
-0.0887543 -0.124904 1.074 254 255 250
-0.0871674 -0.125021 1.075 254 255 250
-0.0855774 -0.125137 1.076 254 255 250
-0.0839843 -0.125253 1.077 254 255 249
-0.0824646 -0.125486 1.079 253 255 248
-0.0809386 -0.125718 1.081 254 255 247
-0.0792597 -0.125718 1.081 254 255 247
-0.0776527 -0.125835 1.082 251 255 243
-0.0759723 -0.125835 1.082 194 199 186
-0.0743606 -0.125951 1.083 112 132 89
-0.0726115 -0.125835 1.082 103 123 80
-0.0709967 -0.125951 1.083 114 145 71
-0.0692508 -0.125835 1.082 113 144 70
-0.0675704 -0.125835 1.082 98 142 43
-0.06589 -0.125835 1.082 103 147 48
-0.0642096 -0.125835 1.082 161 209 91
-0.062587 -0.125951 1.083 194 242 124
-0.0609613 -0.126067 1.084 174 221 107
-0.0593325 -0.126183 1.085 135 182 68
-0.0577006 -0.1263 1.086 176 222 102
-0.0560656 -0.126416 1.087 167 213 93
-0.0544775 -0.126649 1.089 119 161 37
-0.0511888 -0.126881 1.091 105 147 23
-0.0495398 -0.126998 1.092 104 146 22
-0.0479315 -0.12723 1.094 110 145 41
-0.046317 -0.127463 1.096 121 156 52
-0.0446556 -0.127579 1.097 123 161 65
-0.0429911 -0.127695 1.098 128 166 70
-0.0413611 -0.127928 1.1 122 161 57
-0.0396888 -0.128044 1.101 116 155 51
-0.0380134 -0.128161 1.102 119 162 35
-0.0363349 -0.128277 1.103 109 152 25
-0.0346847 -0.128509 1.105 105 146 36
-0.0329686 -0.128509 1.105 121 162 52
-0.0312525 -0.128509 1.105 175 201 141
-0.0295364 -0.128509 1.105 242 255 208
-0.0278454 -0.128626 1.106 249 255 241
-0.0261514 -0.128742 1.107 249 255 241
-0.0244543 -0.128858 1.108 249 255 246
-0.022754 -0.128975 1.109 248 255 245
-0.0210317 -0.128975 1.109 229 234 219
-0.0193268 -0.129091 1.11 225 230 215
-0.0176188 -0.129207 1.111 243 246 226
-0.0158934 -0.129207 1.111 255 255 241
-0.0141935 -0.12944 1.113 255 255 237
-0.0125097 -0.129905 1.117 232 234 210
-0.00912119 -0.131068 1.127 79 82 48
-0.00742978 -0.132115 1.136 50 56 18
-0.000383293 -0.135836 1.168 46 68 27
0.00144412 -0.137116 1.179 45 67 26
0.00329737 -0.138046 1.187 43 65 24
0.00514083 -0.138046 1.187 41 63 22
0.00700193 -0.138395 1.19 41 63 24
0.00885748 -0.138511 1.191 39 61 22
0.0107161 -0.138627 1.192 40 59 21
0.0125673 -0.138627 1.192 42 61 23
0.0144307 -0.138744 1.193 42 61 23
0.0163107 -0.138976 1.195 42 61 23
0.0181666 -0.138976 1.195 39 61 22
0.0200392 -0.139093 1.196 39 61 22
0.021915 -0.139209 1.197 40 62 23
0.023774 -0.139209 1.197 41 63 24
0.0256329 -0.139209 1.197 41 63 24
0.0274919 -0.139209 1.197 40 62 23
0.0293509 -0.139209 1.197 40 62 23
0.031236 -0.139325 1.198 38 60 21
0.0330965 -0.139325 1.198 40 62 23
0.034957 -0.139325 1.198 39 61 22
0.0368176 -0.139325 1.198 40 62 23
0.0386781 -0.139325 1.198 40 62 23
0.0405386 -0.139325 1.198 40 62 23
0.0423638 -0.139209 1.197 41 63 24
0.0442597 -0.139325 1.198 37 61 22
0.0460817 -0.139209 1.197 36 60 21
0.0479407 -0.139209 1.197 36 60 21
0.0497997 -0.139209 1.197 37 61 22
0.0517018 -0.139325 1.198 37 61 20
0.0535177 -0.139209 1.197 37 61 20
0.0553766 -0.139209 1.197 37 61 20
0.0572356 -0.139209 1.197 37 61 20
0.0590452 -0.139093 1.196 37 61 20
0.0608517 -0.138976 1.195 38 62 21
0.0627076 -0.138976 1.195 36 60 19
0.0644554 -0.138744 1.193 38 62 21
0.0662526 -0.138627 1.192 37 61 20
0.0681038 -0.138627 1.192 38 62 21
0.0698377 -0.138395 1.19 38 62 23
0.0716858 -0.138395 1.19 38 62 23
0.0734103 -0.138162 1.188 38 62 23
0.075192 -0.138046 1.187 37 61 22
0.0770354 -0.138046 1.187 37 61 22
0.0788124 -0.13793 1.186 37 61 22
0.0806543 -0.13793 1.186 38 61 24
0.0824267 -0.137813 1.185 38 61 24
0.084267 -0.137813 1.185 38 61 24
0.0861074 -0.137813 1.185 39 62 25
0.0879477 -0.137813 1.185 39 62 25
0.0897881 -0.137813 1.185 39 62 25
0.0916284 -0.137813 1.185 39 62 25
0.0934687 -0.137813 1.185 38 61 24
0.0953091 -0.137813 1.185 38 61 24
0.0971494 -0.137813 1.185 38 61 24
0.0989898 -0.137813 1.185 38 61 24
0.100915 -0.13793 1.186 37 60 23
0.102757 -0.13793 1.186 38 62 23
0.104599 -0.13793 1.186 37 61 22
0.106441 -0.13793 1.186 38 62 23
0.108374 -0.138046 1.187 38 62 23
0.110125 -0.13793 1.186 37 61 20
0.112061 -0.138046 1.187 38 62 21
0.113904 -0.138046 1.187 37 61 20
0.115748 -0.138046 1.187 38 62 21
0.117591 -0.138046 1.187 39 63 22
0.119435 -0.138046 1.187 38 62 21
0.121278 -0.138046 1.187 39 63 24
0.123122 -0.138046 1.187 39 63 24
0.124965 -0.138046 1.187 39 63 24
0.126809 -0.138046 1.187 41 65 26
0.128652 -0.138046 1.187 41 65 26
0.130386 -0.13793 1.186 39 63 24
0.132227 -0.13793 1.186 37 61 22
0.133956 -0.137813 1.185 37 61 22
0.135797 -0.137813 1.185 38 62 23
0.137637 -0.137813 1.185 38 62 23
0.139477 -0.137813 1.185 38 62 23
0.141318 -0.137813 1.185 37 61 22
0.143158 -0.137813 1.185 37 61 22
0.144876 -0.137697 1.184 38 62 23
0.146715 -0.137697 1.184 38 62 23
0.148554 -0.137697 1.184 39 63 24
0.150392 -0.137697 1.184 38 62 23
0.152103 -0.137581 1.183 39 63 24
0.15394 -0.137581 1.183 39 63 24
0.155777 -0.137581 1.183 41 65 26
0.157614 -0.137581 1.183 42 66 25
0.159586 -0.137697 1.184 42 66 25
0.161289 -0.137581 1.183 43 65 24
0.163264 -0.137697 1.184 40 62 21
0.164963 -0.137581 1.183 41 64 20
0.166801 -0.137581 1.183 40 63 19
0.16878 -0.137697 1.184 40 63 19
0.170619 -0.137697 1.184 40 63 19
0.172312 -0.137581 1.183 40 64 18
0.174297 -0.137697 1.184 40 64 18
0.175987 -0.137581 1.183 40 64 18
0.177824 -0.137581 1.183 41 65 19
0.179813 -0.137697 1.184 43 67 21
0.181652 -0.137697 1.184 43 67 21
0.183491 -0.137697 1.184 41 64 20
0.185329 -0.137697 1.184 43 66 22
0.187168 -0.137697 1.184 43 66 22
0.189167 -0.137813 1.185 44 67 23
0.191007 -0.137813 1.185 43 67 26
0.192847 -0.137813 1.185 43 67 26
0.194688 -0.137813 1.185 42 66 25
0.196528 -0.137813 1.185 43 67 26
0.198368 -0.137813 1.185 43 67 26
0.200209 -0.137813 1.185 44 68 27
0.202049 -0.137813 1.185 45 69 28
0.204062 -0.13793 1.186 44 68 27
0.205903 -0.13793 1.186 43 67 26
0.207745 -0.13793 1.186 43 67 26
0.209587 -0.13793 1.186 43 67 26
0.211429 -0.13793 1.186 43 67 26
0.213451 -0.138046 1.187 44 68 27
0.215294 -0.138046 1.187 43 67 26
0.217138 -0.138046 1.187 43 67 26
0.218981 -0.138046 1.187 42 66 25
0.220825 -0.138046 1.187 39 63 22
0.222668 -0.138046 1.187 41 65 24
0.224701 -0.138162 1.188 41 65 26
0.226546 -0.138162 1.188 38 62 23
0.228583 -0.138279 1.189 36 60 21
0.23043 -0.138279 1.189 35 59 20
0.232276 -0.138279 1.189 35 58 21
0.23432 -0.138395 1.19 34 57 20
0.236168 -0.138395 1.19 37 58 21
0.238016 -0.138395 1.19 36 57 20
0.239864 -0.138395 1.19 40 61 24
0.241712 -0.138395 1.19 36 57 20
0.243765 -0.138511 1.191 27 44 11
0.245614 -0.138511 1.191 26 43 10
0.247672 -0.138627 1.192 25 42 9
0.249523 -0.138627 1.192 24 41 8
0.251374 -0.138627 1.192 24 40 9
0.253226 -0.138627 1.192 22 38 7
0.255077 -0.138627 1.192 20 39 7
0.256928 -0.138627 1.192 22 41 9
0.258779 -0.138627 1.192 23 41 12
0.26063 -0.138627 1.192 22 40 11
0.262482 -0.138627 1.192 20 38 9
0.264333 -0.138627 1.192 20 38 9
0.266184 -0.138627 1.192 18 36 7
0.268035 -0.138627 1.192 19 37 8
0.270113 -0.138744 1.193 19 37 8
0.272194 -0.13886 1.194 20 38 9
0.274277 -0.138976 1.195 22 40 13
0.276133 -0.138976 1.195 20 38 11
0.277989 -0.138976 1.195 22 40 13
0.279845 -0.138976 1.195 20 38 11
0.281701 -0.138976 1.195 20 37 12
0.283557 -0.138976 1.195 20 37 12
0.285652 -0.139093 1.196 20 37 12
0.287509 -0.139093 1.196 22 39 14
0.289366 -0.139093 1.196 22 39 14
0.291224 -0.139093 1.196 23 40 15
0.293081 -0.139093 1.196 24 41 16
0.294939 -0.139093 1.196 22 39 14
0.296796 -0.139093 1.196 24 40 18
0.298404 -0.138976 1.195 24 40 18
0.30026 -0.138976 1.195 22 38 16
0.302116 -0.138976 1.195 22 38 16
0.303971 -0.138976 1.195 20 36 14
0.305827 -0.138976 1.195 22 38 16
0.307683 -0.138976 1.195 20 36 14
0.309798 -0.139093 1.196 23 39 17
0.311916 -0.139209 1.197 23 39 17
0.313775 -0.139209 1.197 22 38 16
0.315634 -0.139209 1.197 22 38 16
0.317493 -0.139209 1.197 22 38 16
0.319085 -0.139093 1.196 23 39 17
0.320943 -0.139093 1.196 22 38 16
0.32253 -0.138976 1.195 23 39 17
0.324115 -0.13886 1.194 24 40 18
0.325423 -0.138627 1.192 23 39 17
0.327274 -0.138627 1.192 24 40 18
0.328573 -0.138395 1.19 25 41 19
0.330421 -0.138395 1.19 27 43 21
0.33199 -0.138279 1.189 29 45 23
0.333556 -0.138162 1.188 27 43 21
0.335119 -0.138046 1.187 26 43 18
0.336962 -0.138046 1.187 25 42 17
0.338806 -0.138046 1.187 25 42 17
0.340362 -0.13793 1.186 25 42 17
0.342204 -0.13793 1.186 25 42 17
0.344046 -0.13793 1.186 26 43 18
0.345596 -0.137813 1.185 27 43 21
0.347436 -0.137813 1.185 26 42 20
0.349277 -0.137813 1.185 24 42 20
0.350821 -0.137697 1.184 24 42 20
0.352064 -0.137464 1.182 24 42 20
0.3539 -0.137464 1.182 24 42 20
0.355133 -0.137232 1.18 24 42 20
0.356663 -0.137116 1.179 29 47 25
0.357886 -0.136883 1.177 14 32 10
0.358797 -0.136534 1.174 17 35 13
0.359699 -0.136185 1.171 31 46 26
0.360283 -0.13572 1.167 18 33 13
0.359303 -0.134673 1.158 20 34 17
0.35923 -0.133975 1.152 16 30 13
0.359452 -0.133394 1.147 21 28 24
0.359659 -0.132812 1.142 67 74 70
0.360167 -0.132347 1.138 101 110 109
0.36098 -0.131998 1.135 112 121 120
0.362103 -0.131766 1.133 122 131 130
0.363221 -0.131533 1.131 128 137 136
0.364977 -0.131533 1.131 81 84 92
0.366733 -0.131533 1.131 31 34 42
-0.146686 -0.120136 1.047 251 255 254
-0.145199 -0.120251 1.048 249 253 252
-0.143571 -0.120251 1.048 220 220 221
-0.14045 -0.120366 1.049 182 182 183
-0.138953 -0.12048 1.05 201 201 202
-0.137453 -0.120595 1.051 207 206 210
-0.136079 -0.120825 1.053 213 212 216
-0.134699 -0.121054 1.055 212 215 218
-0.133187 -0.121169 1.056 214 217 220
-0.131671 -0.121284 1.057 224 229 232
-0.130399 -0.121628 1.06 219 224 227
-0.128874 -0.121743 1.061 218 223 226
-0.127346 -0.121857 1.062 220 225 228
-0.112926 -0.122316 1.066 251 255 252
-0.111271 -0.122316 1.066 251 255 252
-0.109821 -0.122546 1.068 251 255 252
-0.108263 -0.122661 1.069 249 254 250
-0.106703 -0.122775 1.07 228 233 229
-0.105139 -0.12289 1.071 225 230 226
-0.103669 -0.12312 1.073 251 255 254
-0.102003 -0.12312 1.073 250 254 253
-0.10043 -0.123234 1.074 234 240 239
-0.098762 -0.123234 1.074 219 225 224
-0.097094 -0.123234 1.074 235 239 239
-0.0953372 -0.12312 1.073 249 253 253
-0.0936708 -0.12312 1.073 251 255 252
-0.0921759 -0.123349 1.075 250 255 251
-0.0905064 -0.123349 1.075 250 255 249
-0.0888369 -0.123349 1.075 250 255 249
-0.0872485 -0.123464 1.076 254 255 250
-0.0856569 -0.123579 1.077 254 255 250
-0.0841403 -0.123808 1.079 251 255 250
-0.082541 -0.123923 1.08 251 255 250
-0.0809386 -0.124037 1.081 251 255 250
-0.0793331 -0.124152 1.082 251 255 250
-0.0776527 -0.124152 1.082 250 255 246
-0.0759723 -0.124152 1.082 220 228 216
-0.0743606 -0.124267 1.083 117 136 96
-0.0726786 -0.124267 1.083 106 125 85
-0.0709967 -0.124267 1.083 111 146 68
-0.0692508 -0.124152 1.082 112 147 69
-0.0675704 -0.124152 1.082 105 151 45
-0.0659509 -0.124267 1.083 101 147 41
-0.064269 -0.124267 1.083 151 201 78
-0.062587 -0.124267 1.083 193 243 120
-0.0610176 -0.124496 1.085 137 185 67
-0.0593872 -0.124611 1.086 133 181 63
-0.0577006 -0.124611 1.086 192 238 113
-0.0561172 -0.124841 1.088 192 238 113
-0.0544775 -0.124955 1.089 112 154 30
-0.0511888 -0.125185 1.091 115 157 33
-0.0495398 -0.1253 1.092 146 188 64
-0.0479754 -0.125644 1.095 118 153 49
-0.0463593 -0.125873 1.097 112 147 43
-0.0446963 -0.125988 1.098 127 166 68
-0.0429911 -0.125988 1.098 147 186 88
-0.0413611 -0.126218 1.1 142 179 70
-0.0396888 -0.126332 1.101 114 151 42
-0.0380479 -0.126562 1.103 114 157 30
-0.0363678 -0.126677 1.104 114 157 30
-0.0346847 -0.126791 1.105 109 148 43
-0.0329686 -0.126791 1.105 125 164 59
-0.0312525 -0.126791 1.105 180 208 150
-0.0295364 -0.126791 1.105 233 255 203
-0.0278454 -0.126906 1.106 249 255 242
-0.0261514 -0.127021 1.107 249 255 242
-0.0244543 -0.127136 1.108 249 255 246
-0.022754 -0.12725 1.109 249 255 246
-0.0210317 -0.12725 1.109 243 248 233
-0.0193268 -0.127365 1.11 207 212 197
-0.0176188 -0.12748 1.111 217 218 203
-0.0159077 -0.127595 1.112 255 255 242
-0.0141935 -0.127709 1.113 255 255 239
-0.0125209 -0.128283 1.118 232 230 211
-0.00912928 -0.12943 1.128 70 73 39
-0.00744286 -0.130578 1.138 51 60 23
-0.000384606 -0.134479 1.172 46 68 27
0.0014478 -0.135627 1.182 46 68 27
0.00330015 -0.136315 1.188 43 65 24
0.00515382 -0.136544 1.19 41 63 22
0.00700193 -0.136544 1.19 41 63 22
0.00886491 -0.136774 1.192 39 61 20
0.0107161 -0.136774 1.192 39 61 22
0.0125779 -0.136889 1.193 40 62 23
0.0144428 -0.137003 1.194 40 62 23
0.0163107 -0.137118 1.195 39 61 22
0.0181666 -0.137118 1.195 39 61 22
0.0200392 -0.137233 1.196 38 60 21
0.021915 -0.137348 1.197 41 63 24
0.023774 -0.137348 1.197 43 65 26
0.0256329 -0.137348 1.197 41 63 24
0.0274919 -0.137348 1.197 40 62 23
0.0293509 -0.137348 1.197 39 61 22
0.0312099 -0.137348 1.197 37 59 20
0.0330689 -0.137348 1.197 39 61 22
0.0349278 -0.137348 1.197 38 60 21
0.0367868 -0.137348 1.197 39 61 22
