ply
format ascii 1.0
comment Created by Open3D
element vertex 1329
property double x
property double y
property double z
property uchar red
property uchar green
property uchar blue
end_header
-0.121328 0.0953808 1.198 29 43 19
-0.119368 0.0953012 1.197 31 45 21
-0.11741 0.0952216 1.196 28 42 18
-0.115456 0.095142 1.195 27 41 17
-0.113506 0.0950623 1.194 27 41 17
-0.111464 0.0949031 1.192 27 41 17
-0.109521 0.0948235 1.191 26 40 16
-0.107581 0.0947439 1.19 27 39 15
-0.105644 0.0946643 1.189 27 39 15
-0.103623 0.094505 1.187 27 39 15
-0.101351 0.0941069 1.182 24 36 12
-0.0992624 0.0938681 1.179 19 29 10
-0.0971008 0.0935496 1.175 24 34 15
-0.0948705 0.0931515 1.17 19 27 20
-0.0925763 0.0926738 1.164 22 30 23
-0.0903787 0.0922758 1.159 76 88 90
-0.087738 0.0914 1.148 77 89 91
-0.0855807 0.0910019 1.143 57 70 83
-0.0835123 0.0906834 1.139 59 72 85
-0.0815281 0.0904446 1.136 77 92 113
-0.0796235 0.0902853 1.134 100 115 136
-0.077725 0.0901261 1.132 150 171 194
-0.0758327 0.0899669 1.13 188 209 232
-0.0740778 0.0899669 1.13 198 222 244
-0.0722589 0.0898873 1.129 204 228 250
-0.0705055 0.0898873 1.129 191 216 240
-0.0687521 0.0898873 1.129 120 145 169
-0.0669988 0.0898873 1.129 120 146 168
-0.0652454 0.0898873 1.129 138 164 186
-0.063492 0.0898873 1.129 146 172 194
-0.0617933 0.0899669 1.13 145 171 193
-0.0600384 0.0899669 1.13 137 160 184
-0.0582835 0.0899669 1.13 137 160 184
-0.0565285 0.0899669 1.13 139 162 186
-0.0547736 0.0899669 1.13 135 158 182
-0.0530187 0.0899669 1.13 128 152 174
-0.0513091 0.0900465 1.131 137 161 183
-0.0495964 0.0901261 1.132 154 178 200
-0.0478384 0.0901261 1.132 145 169 191
-0.0460804 0.0901261 1.132 132 156 178
-0.0443615 0.0902057 1.133 133 157 179
-0.0426019 0.0902057 1.133 154 177 201
-0.0408784 0.0902853 1.134 152 175 199
-0.0391172 0.0902853 1.134 134 157 181
-0.0373561 0.0902853 1.134 135 158 182
-0.0355949 0.0902853 1.134 156 179 203
-0.0338338 0.0902853 1.134 153 176 200
-0.0320727 0.0902853 1.134 142 165 189
-0.0302848 0.0902057 1.133 137 160 184
-0.0285 0.0901261 1.132 148 171 195
-0.0267656 0.0902057 1.133 145 168 192
-0.024984 0.0901261 1.132 135 156 179
-0.0232259 0.0901261 1.132 167 188 211
-0.0214679 0.0901261 1.132 204 225 248
-0.0197099 0.0901261 1.132 189 210 233
-0.0179518 0.0901261 1.132 141 161 181
-0.0161795 0.0900465 1.131 141 161 181
-0.014423 0.0900465 1.131 167 186 209
-0.0126553 0.0899669 1.13 165 184 207
-0.0109004 0.0899669 1.13 160 180 200
-0.00914547 0.0899669 1.13 148 168 188
-0.00739054 0.0899669 1.13 159 174 195
-0.00563561 0.0899669 1.13 171 186 207
-0.00387725 0.0898873 1.129 179 190 208
-0.00212575 0.0899669 1.13 196 207 225
-0.000370823 0.0899669 1.13 223 234 247
0.00138411 0.0899669 1.13 237 248 255
0.00313903 0.0899669 1.13 237 249 255
0.00489396 0.0899669 1.13 237 249 255
0.00664301 0.0898873 1.129 239 249 255
0.00839638 0.0898873 1.129 239 249 255
0.0101408 0.0898076 1.128 237 244 248
0.0118926 0.0898076 1.128 242 249 253
0.0136444 0.0898076 1.128 253 253 254
0.0153826 0.089728 1.127 254 254 255
0.0171329 0.089728 1.127 255 254 254
0.0188831 0.089728 1.127 253 251 251
0.0206517 0.0898076 1.128 248 246 246
0.0224234 0.0898873 1.129 248 246 246
0.0259531 0.0899669 1.13 251 247 247
0.027708 0.0899669 1.13 253 249 249
0.029463 0.0899669 1.13 251 247 247
0.0312731 0.0901261 1.132 254 252 253
0.0330312 0.0901261 1.132 255 254 255
0.0347892 0.0901261 1.132 255 254 255
0.0365472 0.0901261 1.132 255 254 255
0.0383053 0.0901261 1.132 255 254 255
0.0399925 0.0899669 1.13 255 253 254
0.0417475 0.0899669 1.13 255 250 251
0.0434639 0.0898873 1.129 255 246 247
0.0452173 0.0898873 1.129 253 244 245
0.046929 0.0898076 1.128 244 235 236
0.0486809 0.0898076 1.128 236 225 226
0.050388 0.089728 1.127 234 223 224
0.0521382 0.089728 1.127 226 215 216
0.0539363 0.0898076 1.128 230 219 220
0.0557375 0.0898873 1.129 228 219 220
0.0574909 0.0898873 1.129 228 219 220
0.0592443 0.0898873 1.129 226 219 220
0.0609976 0.0898873 1.129 222 215 216
0.0628066 0.0899669 1.13 221 214 216
0.0645615 0.0899669 1.13 219 212 214
0.0663165 0.0899669 1.13 220 212 217
0.0680714 0.0899669 1.13 219 211 216
0.0698263 0.0899669 1.13 217 209 214
0.0715812 0.0899669 1.13 219 211 216
0.0732713 0.0898873 1.129 220 212 217
0.0750247 0.0898873 1.129 220 212 217
0.076778 0.0898873 1.129 222 214 219
0.0784618 0.0898076 1.128 221 213 218
0.0801426 0.089728 1.127 220 213 215
0.0818928 0.089728 1.127 221 214 216
0.0835689 0.0896484 1.126 219 212 214
0.0852418 0.0895688 1.125 217 210 212
0.0869117 0.0894892 1.124 217 210 212
0.0886573 0.0894892 1.124 222 215 217
0.0904029 0.0894892 1.124 221 218 227
0.0921485 0.0894892 1.124 194 191 200
0.0939776 0.0895688 1.125 114 117 133
0.0957248 0.0895688 1.125 122 125 141
0.0975586 0.0896484 1.126 121 131 151
0.0993955 0.089728 1.127 120 130 150
0.101236 0.0898076 1.128 116 131 152
0.103079 0.0898873 1.129 116 131 152
0.104832 0.0898873 1.129 116 131 152
0.106491 0.0898076 1.128 114 129 150
0.108243 0.0898076 1.128 116 131 152
0.109995 0.0898076 1.128 111 126 147
0.111746 0.0898076 1.128 125 140 161
0.113498 0.0898076 1.128 126 141 162
0.11525 0.0898076 1.128 118 133 154
0.116898 0.089728 1.127 117 132 153
0.118754 0.0898076 1.128 118 133 154
0.120506 0.0898076 1.128 116 131 152
0.122366 0.0898873 1.129 114 129 150
0.124119 0.0898873 1.129 116 131 152
0.125984 0.0899669 1.13 117 131 155
0.127739 0.0899669 1.13 117 131 155
0.129379 0.0898873 1.129 112 128 152
0.131133 0.0898873 1.129 112 128 152
0.132886 0.0898873 1.129 112 128 152
0.134639 0.0898873 1.129 111 127 151
0.136272 0.0898076 1.128 110 126 150
0.137901 0.089728 1.127 111 127 151
0.139652 0.089728 1.127 112 128 152
0.141151 0.0895688 1.125 112 128 152
0.142898 0.0895688 1.125 112 128 152
0.144517 0.0894892 1.124 111 127 151
0.146132 0.0894096 1.123 114 130 154
0.147876 0.0894096 1.123 112 128 152
0.14962 0.0894096 1.123 114 130 154
0.151364 0.0894096 1.123 112 128 152
0.152972 0.0893299 1.122 112 128 152
0.154715 0.0893299 1.122 112 128 152
0.156457 0.0893299 1.122 114 130 154
0.1582 0.0893299 1.122 112 128 152
0.1598 0.0892503 1.121 105 121 145
0.161685 0.0893299 1.122 115 131 155
0.163573 0.0894096 1.123 117 133 157
0.165317 0.0894096 1.123 117 133 157
0.167358 0.0895688 1.125 117 133 157
0.169256 0.0896484 1.126 118 134 158
0.17146 0.0898873 1.129 126 140 164
0.173367 0.0899669 1.13 128 142 166
0.175742 0.0902853 1.134 102 110 132
0.177816 0.0904446 1.136 6 14 36
0.180371 0.0908427 1.141 5 18 24
0.18456 0.0911611 1.145 83 94 86
0.186989 0.0914796 1.149 25 36 28
0.189595 0.0918777 1.154 27 41 26
0.192382 0.0923554 1.16 34 48 33
0.194853 0.0926738 1.164 36 48 29
0.197506 0.0930719 1.169 36 48 29
0.200003 0.0933904 1.173 36 51 25
0.202685 0.0937885 1.178 40 55 29
0.206694 0.0939477 1.18 45 60 32
0.209057 0.0941866 1.183 51 69 40
0.211251 0.0943458 1.185 50 68 39
0.213451 0.094505 1.187 52 71 39
0.215294 0.094505 1.187 52 71 39
0.217138 0.094505 1.187 52 70 41
0.219166 0.0945846 1.188 61 79 50
0.221197 0.0946643 1.189 62 81 49
0.223043 0.0946643 1.189 55 74 42
0.225079 0.0947439 1.19 53 72 40
0.226927 0.0947439 1.19 52 71 39
0.228775 0.0947439 1.19 52 72 38
0.230623 0.0947439 1.19 51 71 37
0.232276 0.0946643 1.189 48 68 34
0.234123 0.0946643 1.189 48 68 34
0.235969 0.0946643 1.189 48 68 34
0.237816 0.0946643 1.189 48 68 34
0.239461 0.0945846 1.188 47 67 33
0.241306 0.0945846 1.188 47 67 33
0.243151 0.0945846 1.188 47 67 33
0.244996 0.0945846 1.188 46 66 32
0.246841 0.0945846 1.188 45 65 31
0.248686 0.0945846 1.188 45 65 31
0.250742 0.0946643 1.189 45 65 31
0.252588 0.0946643 1.189 45 65 31
0.254649 0.0947439 1.19 45 65 31
0.256497 0.0947439 1.19 43 63 29
0.258562 0.0948235 1.191 43 63 29
0.260412 0.0948235 1.191 43 63 29
0.262482 0.0949031 1.192 44 64 30
0.264333 0.0949031 1.192 44 64 30
0.266184 0.0949031 1.192 44 64 30
0.26826 0.0949827 1.193 44 64 30
0.270113 0.0949827 1.193 43 63 29
0.271966 0.0949827 1.193 43 63 29
0.274048 0.0950623 1.194 43 63 29
0.276133 0.095142 1.195 44 64 30
0.277989 0.095142 1.195 43 63 29
0.279845 0.095142 1.195 44 64 30
0.281937 0.0952216 1.196 44 64 30
0.283794 0.0952216 1.196 44 64 30
0.28589 0.0953012 1.197 44 64 30
0.287749 0.0953012 1.197 44 64 30
0.289608 0.0953012 1.197 44 64 30
0.291467 0.0953012 1.197 44 64 30
0.293326 0.0953012 1.197 45 65 31
0.295185 0.0953012 1.197 45 65 31
0.297044 0.0953012 1.197 46 66 32
0.298903 0.0953012 1.197 46 66 32
0.300762 0.0953012 1.197 45 65 31
0.302621 0.0953012 1.197 47 67 33
0.30448 0.0953012 1.197 50 70 36
0.306083 0.0952216 1.196 47 67 33
0.307683 0.095142 1.195 50 70 36
0.309539 0.095142 1.195 46 66 32
0.311395 0.095142 1.195 45 65 31
0.312989 0.0950623 1.194 46 66 32
0.314843 0.0950623 1.194 47 67 33
0.316432 0.0949827 1.193 48 68 34
0.318285 0.0949827 1.193 50 70 36
0.320138 0.0949827 1.193 51 71 37
0.321721 0.0949031 1.192 48 68 34
0.323572 0.0949031 1.192 61 81 47
0.32515 0.0948235 1.191 66 86 52
0.327 0.0948235 1.191 64 84 50
0.328849 0.0948235 1.191 67 87 53
0.330421 0.0947439 1.19 70 90 56
0.332269 0.0947439 1.19 69 90 53
0.334117 0.0947439 1.19 68 89 52
0.335966 0.0947439 1.19 69 90 53
0.337814 0.0947439 1.19 68 89 52
0.339662 0.0947439 1.19 67 88 51
0.34151 0.0947439 1.19 68 89 52
0.343358 0.0947439 1.19 68 89 52
0.345206 0.0947439 1.19 68 89 52
0.347054 0.0947439 1.19 69 90 53
0.348902 0.0947439 1.19 68 89 52
0.35075 0.0947439 1.19 74 91 58
0.352302 0.0946643 1.189 72 89 56
0.353851 0.0945846 1.188 70 87 54
0.355696 0.0945846 1.188 69 86 53
0.35724 0.094505 1.187 66 72 42
0.359084 0.094505 1.187 59 65 35
0.360927 0.094505 1.187 120 126 96
0.362465 0.0944254 1.186 94 100 70
0.364307 0.0944254 1.186 60 63 34
0.365222 0.0941866 1.183 66 69 40
0.364267 0.09347 1.174 55 59 36
0.359029 0.090763 1.14 217 223 200
0.358268 0.0901261 1.132 210 217 197
0.360344 0.0902057 1.133 231 238 218
0.362103 0.0902057 1.133 243 247 247
0.363863 0.0902057 1.133 127 131 131
0.3653 0.0901261 1.132 105 108 111
0.367382 0.0902057 1.133 114 117 120
-0.16672 0.0965942 1.19 12 27 7
-0.164872 0.0965942 1.19 12 27 7
-0.163024 0.0965942 1.19 17 32 12
-0.161176 0.0965942 1.19 16 31 11
-0.159328 0.0965942 1.19 17 33 11
-0.15748 0.0965942 1.19 17 33 11
-0.155632 0.0965942 1.19 18 34 12
-0.153784 0.0965942 1.19 19 35 13
-0.152063 0.0966753 1.191 18 35 10
-0.15034 0.0967565 1.192 19 36 11
-0.148613 0.0968377 1.193 22 36 12
-0.147006 0.097 1.195 25 39 15
-0.145272 0.0970812 1.196 25 39 15
-0.143534 0.0971624 1.197 26 40 16
-0.141794 0.0972435 1.198 27 41 17
-0.14005 0.0973247 1.199 27 41 17
-0.138303 0.0974059 1.2 27 41 17
-0.13644 0.0974059 1.2 26 40 16
-0.134576 0.0974059 1.2 27 41 17
-0.132712 0.0974059 1.2 27 41 17
-0.130849 0.0974059 1.2 27 40 19
-0.128985 0.0974059 1.2 27 40 19
-0.127121 0.0974059 1.2 27 40 19
-0.125258 0.0974059 1.2 27 40 19
-0.123291 0.0973247 1.199 27 41 17
-0.121328 0.0972435 1.198 27 41 17
-0.119368 0.0971624 1.197 28 42 18
-0.11741 0.0970812 1.196 28 42 18
-0.115456 0.097 1.195 28 42 18
-0.113315 0.0967565 1.192 29 43 19
-0.111464 0.0967565 1.192 28 42 18
-0.109429 0.0965942 1.19 27 41 17
-0.107581 0.0965942 1.19 27 39 15
-0.105555 0.0964318 1.188 27 39 15
-0.103448 0.0961883 1.185 27 39 15
-0.101351 0.0959448 1.182 27 39 15
-0.0991782 0.0956201 1.178 21 31 12
-0.0971008 0.0953766 1.175 28 38 19
-0.0949516 0.0950519 1.171 19 27 20
-0.0926558 0.0945649 1.165 24 32 25
-0.0904566 0.094159 1.16 78 90 92
-0.0878144 0.0932661 1.149 76 88 90
-0.0856556 0.0928603 1.144 56 68 83
-0.0835857 0.0925356 1.14 61 73 88
-0.0815281 0.0922109 1.136 74 89 110
-0.0796235 0.0920486 1.134 104 119 140
-0.0776563 0.0918051 1.131 154 175 198
-0.0758327 0.0917239 1.13 189 210 233
-0.0740123 0.0916427 1.129 196 220 242
-0.0722589 0.0916427 1.129 205 229 251
-0.0704431 0.0915615 1.128 186 210 237
-0.0686912 0.0915615 1.128 116 140 167
-0.0669988 0.0916427 1.129 120 145 169
-0.0652454 0.0916427 1.129 138 163 187
-0.063492 0.0916427 1.129 146 171 195
-0.0617386 0.0916427 1.129 146 171 195
-0.0599853 0.0916427 1.129 134 157 181
-0.0582319 0.0916427 1.129 137 160 184
-0.0564785 0.0916427 1.129 138 161 185
-0.0547736 0.0917239 1.13 135 158 182
-0.0530187 0.0917239 1.13 130 154 176
-0.0513091 0.0918051 1.131 141 165 187
-0.0495964 0.0918862 1.132 154 178 200
-0.0478384 0.0918862 1.132 149 173 195
-0.0460804 0.0918862 1.132 133 157 179
-0.0443615 0.0919674 1.133 133 157 179
-0.0426019 0.0919674 1.133 154 177 201
-0.0408784 0.0920486 1.134 153 176 200
-0.0390827 0.0919674 1.133 135 159 181
-0.0373561 0.0920486 1.134 139 163 185
-0.0355949 0.0920486 1.134 161 185 207
-0.0338338 0.0920486 1.134 153 177 199
-0.0320727 0.0920486 1.134 137 161 183
-0.0302848 0.0919674 1.133 137 161 183
-0.0285252 0.0919674 1.133 158 182 204
-0.0267656 0.0919674 1.133 149 173 195
-0.025006 0.0919674 1.133 143 164 187
-0.0232259 0.0918862 1.132 174 195 218
-0.0214679 0.0918862 1.132 195 216 239
-0.0197099 0.0918862 1.132 186 207 230
-0.0179518 0.0918862 1.132 150 170 190
-0.0161938 0.0918862 1.132 138 158 178
-0.014423 0.0918051 1.131 160 179 202
-0.0126665 0.0918051 1.131 156 175 198
-0.0109004 0.0917239 1.13 155 175 195
-0.00914547 0.0917239 1.13 155 175 195
-0.00739054 0.0917239 1.13 161 177 201
-0.00563561 0.0917239 1.13 164 180 204
-0.00388068 0.0917239 1.13 155 170 191
-0.00212575 0.0917239 1.13 145 160 181
-0.000370823 0.0917239 1.13 157 167 187
0.00138411 0.0917239 1.13 163 173 193
0.00313903 0.0917239 1.13 159 170 188
0.00489396 0.0917239 1.13 157 168 186
0.00664301 0.0916427 1.129 166 176 191
0.00839638 0.0916427 1.129 179 189 204
0.0101408 0.0915615 1.128 190 196 210
0.0118926 0.0915615 1.128 197 203 217
0.0136444 0.0915615 1.128 236 237 245
0.0153826 0.0914804 1.127 246 247 255
0.0171329 0.0914804 1.127 247 249 254
0.0188831 0.0914804 1.127 247 249 254
0.0206517 0.0915615 1.128 247 251 251
0.0224234 0.0916427 1.129 248 252 252
0.0241768 0.0916427 1.129 253 251 255
0.027708 0.0917239 1.13 254 252 255
0.029463 0.0917239 1.13 253 251 255
0.0312455 0.0918051 1.131 254 253 255
0.033002 0.0918051 1.131 254 253 255
0.0347892 0.0918862 1.132 254 253 255
0.0365472 0.0918862 1.132 254 253 255
0.0383053 0.0918862 1.132 255 254 255
0.0399925 0.0917239 1.13 254 250 251
0.0417475 0.0917239 1.13 253 249 249
0.0434639 0.0916427 1.129 251 247 247
0.0451772 0.0915615 1.128 252 244 242
0.046929 0.0915615 1.128 248 240 238
0.0486377 0.0914804 1.127 239 231 229
0.050388 0.0914804 1.127 231 223 221
0.0521382 0.0914804 1.127 223 214 215
0.0538885 0.0914804 1.127 224 215 216
0.0556388 0.0914804 1.127 219 212 213
0.05744 0.0915615 1.128 219 212 213
0.0592443 0.0916427 1.129 218 214 215
0.0609976 0.0916427 1.129 220 216 217
0.062751 0.0916427 1.129 218 214 215
0.0645044 0.0916427 1.129 214 210 211
0.0662578 0.0916427 1.129 214 209 213
0.0680111 0.0916427 1.129 215 210 214
0.0697645 0.0916427 1.129 215 210 214
0.0715179 0.0916427 1.129 221 216 220
0.0732713 0.0916427 1.129 222 217 221
0.0749582 0.0915615 1.128 219 214 218
0.07671 0.0915615 1.128 220 215 219
0.0783923 0.0914804 1.127 220 215 219
0.0801426 0.0914804 1.127 222 214 219
0.0818202 0.0913992 1.126 223 215 220
0.0835689 0.0913992 1.126 221 214 216
0.0852418 0.091318 1.125 219 212 214
0.0869117 0.0912369 1.124 215 211 212
0.0886573 0.0912369 1.124 224 220 221
0.0904029 0.0912369 1.124 223 220 229
0.0921485 0.0912369 1.124 182 179 188
0.0939776 0.091318 1.125 116 119 135
0.0957248 0.091318 1.125 122 125 141
0.0975586 0.0913992 1.126 121 131 153
0.0993073 0.0913992 1.126 120 130 152
0.101146 0.0914804 1.127 116 131 152
0.102987 0.0915615 1.128 117 132 153
0.104739 0.0915615 1.128 116 130 154
0.106397 0.0914804 1.127 114 128 152
0.108147 0.0914804 1.127 114 128 152
0.109897 0.0914804 1.127 109 123 147
0.111647 0.0914804 1.127 126 140 164
0.113398 0.0914804 1.127 121 135 159
0.115148 0.0914804 1.127 120 134 158
0.116898 0.0914804 1.127 116 130 154
0.118754 0.0915615 1.128 118 132 156
0.120506 0.0915615 1.128 119 133 157
0.122366 0.0916427 1.129 118 132 156
0.124119 0.0916427 1.129 117 131 155
0.125873 0.0916427 1.129 116 132 156
0.127626 0.0916427 1.129 116 132 156
0.129379 0.0916427 1.129 114 130 154
0.131133 0.0916427 1.129 112 128 152
0.132886 0.0916427 1.129 112 128 152
0.134639 0.0916427 1.129 112 128 152
0.136393 0.0916427 1.129 111 127 151
0.138024 0.0915615 1.128 110 126 150
0.139652 0.0914804 1.127 114 130 154
0.141402 0.0914804 1.127 112 128 152
0.142898 0.091318 1.125 112 128 152
0.144645 0.091318 1.125 112 128 152
0.146393 0.091318 1.125 112 128 152
0.148008 0.0912369 1.124 112 128 152
0.149754 0.0912369 1.124 114 130 154
0.151499 0.0912369 1.124 111 127 151
0.153109 0.0911557 1.123 112 128 152
0.154853 0.0911557 1.123 112 128 152
0.156597 0.0911557 1.123 114 130 154
0.158341 0.0911557 1.123 114 130 154
0.160085 0.0911557 1.123 111 127 151
0.161829 0.0911557 1.123 119 135 159
0.163573 0.0911557 1.123 118 134 158
0.165317 0.0911557 1.123 117 133 157
0.167358 0.091318 1.125 117 133 157
0.169406 0.0914804 1.127 123 139 163
0.17146 0.0916427 1.129 127 141 165
0.173521 0.0918051 1.131 124 138 162
0.175742 0.0920486 1.134 83 93 115
0.177973 0.0922921 1.137 0 8 30
0.180371 0.0926168 1.141 6 15 24
0.184721 0.0930226 1.146 84 95 87
0.187314 0.0934285 1.151 24 35 27
0.189923 0.0938343 1.156 28 39 25
0.192714 0.0943214 1.162 38 49 35
0.195355 0.0947272 1.167 36 48 29
0.198012 0.0951331 1.172 36 48 29
0.200515 0.0954578 1.176 38 50 26
0.204862 0.0957825 1.18 42 57 29
0.207045 0.0959448 1.182 36 51 23
0.209234 0.0961071 1.184 43 58 30
0.211251 0.0961883 1.185 47 62 34
0.213451 0.0963507 1.187 46 64 35
0.215294 0.0963507 1.187 48 66 37
0.217321 0.0964318 1.188 52 70 41
0.219166 0.0964318 1.188 59 77 48
0.221197 0.096513 1.189 57 75 46
0.223043 0.096513 1.189 52 70 41
0.22489 0.096513 1.189 52 71 39
0.226736 0.096513 1.189 52 71 39
0.228583 0.096513 1.189 51 70 38
0.23043 0.096513 1.189 50 69 37
0.232081 0.0964318 1.188 48 68 34
0.233926 0.0964318 1.188 48 68 34
0.235771 0.0964318 1.188 48 68 34
0.237416 0.0963507 1.187 47 67 33
0.239259 0.0963507 1.187 47 67 33
0.241103 0.0963507 1.187 47 67 33
0.242946 0.0963507 1.187 47 67 33
0.24479 0.0963507 1.187 46 66 32
0.246633 0.0963507 1.187 45 65 31
0.248686 0.0964318 1.188 45 65 31
0.250742 0.096513 1.189 45 65 31
0.252588 0.096513 1.189 45 65 31
0.254649 0.0965942 1.19 45 65 31
0.256712 0.0966753 1.191 44 64 30
0.258562 0.0966753 1.191 44 64 30
0.260412 0.0966753 1.191 43 63 29
0.262482 0.0967565 1.192 43 63 29
0.264333 0.0967565 1.192 43 63 29
0.266407 0.0968377 1.193 43 63 29
0.268485 0.0969189 1.194 41 61 27
0.270113 0.0968377 1.193 43 63 29
0.272422 0.097 1.195 43 63 29
0.274277 0.097 1.195 44 64 30
0.276133 0.097 1.195 45 65 31
0.278222 0.0970812 1.196 44 64 30
0.280079 0.0970812 1.196 43 63 29
0.281937 0.0970812 1.196 44 64 30
0.284031 0.0971624 1.197 44 64 30
0.28589 0.0971624 1.197 44 64 30
0.287749 0.0971624 1.197 44 64 30
0.289608 0.0971624 1.197 44 64 30
0.291467 0.0971624 1.197 43 63 29
0.293326 0.0971624 1.197 44 64 30
0.295432 0.0972435 1.198 43 63 29
0.297292 0.0972435 1.198 44 64 30
0.299153 0.0972435 1.198 45 65 31
0.301014 0.0972435 1.198 45 65 31
0.302621 0.0971624 1.197 45 65 31
0.30448 0.0971624 1.197 47 67 33
0.306083 0.0970812 1.196 46 66 32
0.307941 0.0970812 1.196 48 68 34
0.309539 0.097 1.195 46 66 32
0.311395 0.097 1.195 46 66 32
0.312989 0.0969189 1.194 50 70 36
0.314579 0.0968377 1.193 48 68 34
0.316167 0.0967565 1.192 48 68 34
0.318018 0.0967565 1.192 50 70 36
0.319869 0.0967565 1.192 51 71 37
0.321721 0.0967565 1.192 47 67 33
0.3233 0.0966753 1.191 55 75 41
0.324877 0.0965942 1.19 62 82 48
0.326725 0.0965942 1.19 61 81 47
0.328573 0.0965942 1.19 66 87 50
0.330421 0.0965942 1.19 72 93 56
0.33199 0.096513 1.189 69 90 53
0.333837 0.096513 1.189 69 90 53
0.335683 0.096513 1.189 69 90 53
0.33753 0.096513 1.189 69 90 53
0.339662 0.0965942 1.19 68 89 52
0.34151 0.0965942 1.19 68 89 52
0.343358 0.0965942 1.19 68 89 52
0.345206 0.0965942 1.19 70 91 54
0.347054 0.0965942 1.19 69 90 53
0.348902 0.0965942 1.19 69 90 53
0.35075 0.0965942 1.19 72 89 56
0.352302 0.096513 1.189 72 89 56
0.354149 0.096513 1.189 72 89 56
0.355696 0.0964318 1.188 74 91 58
0.357541 0.0964318 1.188 63 72 40
0.359084 0.0963507 1.187 57 66 34
0.360927 0.0963507 1.187 125 132 100
0.36277 0.0963507 1.187 97 104 72
0.364614 0.0963507 1.187 61 64 35
0.36584 0.0961883 1.185 67 70 41
0.364577 0.0953766 1.175 54 57 37
0.359344 0.0926168 1.141 216 222 199
0.358584 0.0919674 1.133 202 208 190
0.360662 0.0920486 1.134 232 238 220
0.362423 0.0920486 1.134 243 247 247
0.363863 0.0919674 1.133 127 131 131
0.3653 0.0918862 1.132 106 110 110
0.367382 0.0919674 1.133 114 118 118
-0.167001 0.0986099 1.192 12 27 7
-0.165149 0.0986099 1.192 12 27 7
-0.163161 0.0985272 1.191 13 29 7
-0.161312 0.0985272 1.191 12 28 6
-0.159462 0.0985272 1.191 12 28 6
-0.157612 0.0985272 1.191 18 34 12
-0.155763 0.0985272 1.191 18 34 12
-0.154042 0.0986099 1.192 18 34 12
-0.152191 0.0986099 1.192 18 34 12
-0.150466 0.0986927 1.193 17 33 11
-0.148862 0.0988581 1.195 24 38 14
-0.147129 0.0989408 1.196 25 39 15
-0.145393 0.0990236 1.197 24 38 14
-0.143534 0.0990236 1.197 25 39 15
-0.141912 0.099189 1.199 27 41 17
-0.140167 0.0992717 1.2 27 41 17
-0.138303 0.0992717 1.2 28 42 18
-0.13644 0.0992717 1.2 28 42 18
-0.134688 0.0993545 1.201 29 42 21
-0.132823 0.0993545 1.201 29 42 21
-0.130958 0.0993545 1.201 29 42 21
-0.129093 0.0993545 1.201 28 41 20
-0.127227 0.0993545 1.201 28 41 20
-0.125258 0.0992717 1.2 28 41 20
-0.123394 0.0992717 1.2 28 42 18
-0.121328 0.0991063 1.198 27 41 17
-0.119368 0.0990236 1.197 26 40 16
-0.11741 0.0989408 1.196 28 42 18
-0.11536 0.0987754 1.194 29 43 19
-0.113315 0.0986099 1.192 29 43 19
-0.111371 0.0985272 1.191 29 43 19
-0.109429 0.0984445 1.19 28 42 18
-0.107491 0.0983618 1.189 28 40 16
-0.105466 0.0981963 1.187 28 40 16
-0.103361 0.0979481 1.184 28 40 16
-0.101265 0.0976999 1.181 27 39 15
-0.0991782 0.0974518 1.178 27 38 17
-0.0971008 0.0972036 1.175 28 39 18
-0.0949516 0.0968727 1.171 19 28 19
-0.0927354 0.096459 1.166 26 35 26
-0.0904566 0.0959627 1.16 83 96 95
-0.0878144 0.0950527 1.149 82 95 94
-0.0856556 0.0946391 1.144 58 70 85
-0.0835857 0.0943082 1.14 62 74 89
-0.0815281 0.0939773 1.136 69 83 107
-0.0796235 0.0938118 1.134 105 119 143
-0.0775877 0.0934809 1.13 163 181 206
-0.0758327 0.0934809 1.13 193 211 236
-0.0740123 0.0933982 1.129 193 218 242
-0.0722589 0.0933982 1.129 204 229 253
-0.0704431 0.0933154 1.128 179 205 232
-0.0686912 0.0933154 1.128 113 139 166
-0.0669394 0.0933154 1.128 120 145 169
-0.0652454 0.0933982 1.129 143 168 192
-0.063492 0.0933982 1.129 147 172 196
-0.0617386 0.0933982 1.129 140 165 189
-0.0599853 0.0933982 1.129 130 153 177
-0.0582319 0.0933982 1.129 138 161 185
-0.0564785 0.0933982 1.129 137 160 184
-0.0547736 0.0934809 1.13 135 158 182
-0.0530187 0.0934809 1.13 131 155 177
-0.0512637 0.0934809 1.13 142 166 188
-0.0495526 0.0935636 1.131 152 176 198
-0.0478384 0.0936463 1.132 145 169 191
-0.0460804 0.0936463 1.132 134 158 180
-0.0443615 0.0937291 1.133 137 161 183
-0.0426019 0.0937291 1.133 154 177 201
-0.0408784 0.0938118 1.134 153 176 200
-0.0390827 0.0937291 1.133 138 161 185
-0.0373231 0.0937291 1.133 146 169 193
-0.0355636 0.0937291 1.133 161 186 210
-0.033804 0.0937291 1.133 151 176 200
-0.0320444 0.0937291 1.133 132 158 180
-0.0302848 0.0937291 1.133 136 162 184
-0.0285252 0.0937291 1.133 161 184 208
-0.0267656 0.0937291 1.133 158 181 205
-0.025006 0.0937291 1.133 151 172 195
-0.0232464 0.0937291 1.133 164 185 208
-0.0214679 0.0936463 1.132 185 204 227
-0.0197099 0.0936463 1.132 186 205 228
-0.0179518 0.0936463 1.132 169 189 209
-0.0161938 0.0936463 1.132 142 162 182
-0.0144358 0.0936463 1.132 157 177 197
-0.0126665 0.0935636 1.131 164 184 204
-0.01091 0.0935636 1.131 159 179 199
-0.00914547 0.0934809 1.13 159 179 199
-0.00739054 0.0934809 1.13 176 196 216
-0.00563561 0.0934809 1.13 177 197 217
-0.00388068 0.0934809 1.13 153 173 193
-0.00212575 0.0934809 1.13 146 166 186
-0.000370823 0.0934809 1.13 156 170 194
0.00138411 0.0934809 1.13 157 171 195
0.00313903 0.0934809 1.13 157 172 193
0.00489396 0.0934809 1.13 155 170 191
0.00664301 0.0933982 1.129 155 168 187
0.00839638 0.0933982 1.129 155 168 187
0.0101408 0.0933154 1.128 154 167 186
0.0118926 0.0933154 1.128 151 164 183
0.0136323 0.0932327 1.127 158 163 179
0.0153826 0.0932327 1.127 166 171 187
0.0171329 0.0932327 1.127 175 179 193
0.0188831 0.0932327 1.127 168 172 186
0.0206334 0.0932327 1.127 167 172 181
0.0224234 0.0933982 1.129 196 201 210
0.0241768 0.0933982 1.129 219 220 235
0.027708 0.0934809 1.13 242 244 255
0.029463 0.0934809 1.13 245 247 255
0.033002 0.0935636 1.131 248 248 255
0.0347585 0.0935636 1.131 252 250 255
0.036515 0.0935636 1.131 252 250 255
0.0382714 0.0935636 1.131 255 252 255
0.0399925 0.0934809 1.13 255 252 255
0.0417105 0.0933982 1.129 255 253 254
0.0434639 0.0933982 1.129 251 249 250
0.0452173 0.0933982 1.129 248 244 244
0.046929 0.0933154 1.128 243 239 239
0.0486377 0.0932327 1.127 242 235 236
0.050388 0.0932327 1.127 234 227 228
0.0521382 0.0932327 1.127 223 216 217
0.0538885 0.0932327 1.127 217 210 211
0.0556388 0.0932327 1.127 215 211 211
0.0573891 0.0932327 1.127 220 216 216
0.0591918 0.0933154 1.128 219 215 216
0.0609436 0.0933154 1.128 218 214 215
0.0626954 0.0933154 1.128 218 214 215
0.0645044 0.0933982 1.129 217 213 214
0.0662578 0.0933982 1.129 215 211 212
0.0680111 0.0933982 1.129 214 210 211
0.0697027 0.0933154 1.128 212 208 209
0.0714546 0.0933154 1.128 214 210 211
0.0731415 0.0932327 1.127 215 210 214
0.0748917 0.0932327 1.127 224 219 223
0.076642 0.0932327 1.127 226 221 225
0.0783923 0.0932327 1.127 227 222 226
0.0800714 0.09315 1.126 226 218 223
0.0818202 0.09315 1.126 227 219 224
0.0835689 0.09315 1.126 226 218 223
0.0852418 0.0930673 1.125 221 213 218
0.0869117 0.0929845 1.124 218 214 215
0.0886573 0.0929845 1.124 228 224 225
0.0904029 0.0929845 1.124 226 223 232
0.0922305 0.0930673 1.125 173 170 179
0.0939776 0.0930673 1.125 116 121 137
0.0957248 0.0930673 1.125 120 125 141
0.097472 0.0930673 1.125 122 132 152
0.0992191 0.0930673 1.125 120 130 150
0.101146 0.0932327 1.127 116 131 152
0.102896 0.0932327 1.127 117 132 153
0.104646 0.0932327 1.127 117 132 153
0.106397 0.0932327 1.127 114 129 150
0.108147 0.0932327 1.127 113 127 151
0.109897 0.0932327 1.127 111 125 149
0.111647 0.0932327 1.127 123 137 161
0.113398 0.0932327 1.127 120 134 158
0.115148 0.0932327 1.127 121 135 159
0.116898 0.0932327 1.127 117 131 155
0.118648 0.0932327 1.127 119 133 157
0.120506 0.0933154 1.128 119 133 157
0.122257 0.0933154 1.128 119 133 157
0.124119 0.0933982 1.129 119 133 157
0.125873 0.0933982 1.129 118 132 156
0.127626 0.0933982 1.129 117 131 155
0.129379 0.0933982 1.129 116 132 156
0.131133 0.0933982 1.129 112 128 152
0.132886 0.0933982 1.129 111 127 151
0.134639 0.0933982 1.129 111 127 151
0.136393 0.0933982 1.129 112 128 152
0.138024 0.0933154 1.128 111 127 151
0.139776 0.0933154 1.128 114 130 154
0.141402 0.0932327 1.127 112 128 152
0.143152 0.0932327 1.127 112 128 152
0.144903 0.0932327 1.127 112 128 152
0.146523 0.09315 1.126 112 128 152
0.14814 0.0930673 1.125 112 128 152
0.149887 0.0930673 1.125 114 130 154
0.151634 0.0930673 1.125 114 130 154
0.153381 0.0930673 1.125 114 130 154
0.15499 0.0929845 1.124 114 130 154
0.156736 0.0929845 1.124 115 131 155
0.158341 0.0929018 1.123 114 130 154
0.160085 0.0929018 1.123 112 128 152
0.161829 0.0929018 1.123 117 133 157
0.163573 0.0929018 1.123 118 134 158
0.165464 0.0929845 1.124 117 133 157
0.167358 0.0930673 1.125 117 134 155
0.169406 0.0932327 1.127 118 135 156
0.17146 0.0933982 1.129 126 140 164
0.173521 0.0935636 1.131 119 133 157
0.175742 0.0938118 1.134 68 78 100
0.177973 0.09406 1.137 9 19 41
0.180529 0.0944736 1.142 4 16 26
0.184882 0.0948872 1.147 85 97 92
0.18764 0.0953836 1.153 20 32 27
0.190252 0.0957972 1.158 27 38 24
0.193045 0.0962936 1.164 38 49 35
0.195523 0.0966245 1.168 38 50 31
0.19835 0.0971209 1.174 34 46 27
0.200856 0.0974518 1.178 33 45 21
0.205035 0.0976999 1.181 39 54 28
0.207395 0.0979481 1.184 38 53 27
0.209411 0.0980309 1.185 40 55 27
0.211429 0.0981136 1.186 42 57 29
0.213451 0.0981963 1.187 37 55 26
0.215294 0.0981963 1.187 47 65 36
0.217321 0.098279 1.188 53 71 42
0.219166 0.098279 1.188 54 72 43
0.221197 0.0983618 1.189 52 70 41
0.223043 0.0983618 1.189 51 69 40
0.22489 0.0983618 1.189 48 67 35
0.226736 0.0983618 1.189 50 69 37
0.228583 0.0983618 1.189 50 69 37
0.230236 0.098279 1.188 48 67 35
0.231885 0.0981963 1.187 50 70 36
0.233729 0.0981963 1.187 47 67 33
0.235572 0.0981963 1.187 45 65 31
0.237416 0.0981963 1.187 47 67 33
0.239259 0.0981963 1.187 47 67 33
0.241103 0.0981963 1.187 47 67 33
0.242946 0.0981963 1.187 46 66 32
0.24479 0.0981963 1.187 46 66 32
0.246633 0.0981963 1.187 46 66 32
0.248686 0.098279 1.188 45 65 31
0.250742 0.0983618 1.189 44 64 30
0.252588 0.0983618 1.189 44 64 30
0.254649 0.0984445 1.19 44 64 30
0.256712 0.0985272 1.191 45 65 31
0.258562 0.0985272 1.191 45 65 31
0.26063 0.0986099 1.192 44 64 30
0.262482 0.0986099 1.192 44 64 30
0.264555 0.0986927 1.193 43 63 29
0.266631 0.0987754 1.194 44 64 30
0.268485 0.0987754 1.194 43 63 29
0.270566 0.0988581 1.195 44 64 30
0.272422 0.0988581 1.195 44 64 30
0.274277 0.0988581 1.195 45 65 31
0.276364 0.0989408 1.196 45 65 31
0.278222 0.0989408 1.196 46 66 32
0.280313 0.0990236 1.197 45 65 31
0.282172 0.0990236 1.197 46 66 32
0.284031 0.0990236 1.197 52 72 38
0.28589 0.0990236 1.197 48 68 34
0.28799 0.0991063 1.198 46 66 32
0.289608 0.0990236 1.197 47 67 33
0.291711 0.0991063 1.198 45 65 31
0.293571 0.0991063 1.198 44 64 30
0.295679 0.099189 1.199 43 63 29
0.297541 0.099189 1.199 46 66 32
0.299403 0.099189 1.199 46 66 32
0.301265 0.099189 1.199 46 66 32
0.302874 0.0991063 1.198 48 68 34
0.30448 0.0990236 1.197 50 70 36
0.306339 0.0990236 1.197 50 70 36
0.307941 0.0989408 1.196 50 70 36
0.309539 0.0988581 1.195 50 70 36
0.311395 0.0988581 1.195 50 70 36
0.312989 0.0987754 1.194 51 71 37
0.314579 0.0986927 1.193 51 71 37
0.316167 0.0986099 1.192 51 71 37
0.318018 0.0986099 1.192 52 72 38
0.319869 0.0986099 1.192 52 72 38
0.321451 0.0985272 1.191 50 70 36
0.323029 0.0984445 1.19 54 74 40
0.324877 0.0984445 1.19 61 81 47
0.32645 0.0983618 1.189 65 85 51
0.328297 0.0983618 1.189 66 86 52
0.329866 0.098279 1.188 70 90 56
0.331711 0.098279 1.188 72 93 56
0.333556 0.098279 1.188 70 91 54
0.335119 0.0981963 1.187 70 91 54
0.337246 0.098279 1.188 69 90 53
0.339091 0.098279 1.188 68 89 52
0.340936 0.098279 1.188 68 89 52
0.342781 0.098279 1.188 67 88 51
0.346763 0.0983618 1.189 70 91 54
0.348609 0.0983618 1.189 69 90 53
0.350456 0.0983618 1.189 72 92 58
0.352302 0.0983618 1.189 72 92 58
0.354149 0.0983618 1.189 78 95 62
0.355696 0.098279 1.188 76 93 60
0.357541 0.098279 1.188 63 72 40
0.359084 0.0981963 1.187 60 69 37
0.360927 0.0981963 1.187 126 135 103
0.36277 0.0981963 1.187 100 109 77
0.364614 0.0981963 1.187 60 63 34
0.36584 0.0980309 1.185 65 68 39
0.364577 0.0972036 1.175 54 57 37
0.359029 0.0943082 1.14 217 223 200
0.358584 0.0937291 1.133 194 200 182
0.360344 0.0937291 1.133 236 242 224
0.362103 0.0937291 1.133 243 246 249
0.364184 0.0938118 1.134 126 129 132
0.365622 0.0937291 1.133 105 110 113
0.367706 0.0938118 1.134 114 119 122
-0.167281 0.100632 1.194 21 39 17
-0.165427 0.100632 1.194 17 35 13
-0.163435 0.100548 1.193 13 31 9
-0.161582 0.100548 1.193 11 29 7
-0.159596 0.100463 1.192 11 29 7
-0.157877 0.100548 1.193 11 29 7
-0.156024 0.100548 1.193 10 29 4
-0.154301 0.100632 1.194 10 29 4
-0.152446 0.100632 1.194 15 32 7
-0.150718 0.100716 1.195 20 37 12
-0.148987 0.1008 1.196 23 40 15
-0.147252 0.100885 1.197 23 40 15
-0.145515 0.100969 1.198 24 41 16
-0.143654 0.100969 1.198 25 42 17
-0.142031 0.101138 1.2 26 43 18
-0.140167 0.101138 1.2 25 42 17
-0.138303 0.101138 1.2 27 44 19
-0.13644 0.101138 1.2 26 43 18
-0.1348 0.101306 1.202 27 43 21
-0.132823 0.101222 1.201 27 43 21
-0.130958 0.101222 1.201 27 43 21
-0.1292 0.101306 1.202 27 43 21
-0.127227 0.101222 1.201 26 42 20
-0.125258 0.101138 1.2 27 43 21
-0.123394 0.101138 1.2 28 41 20
-0.121328 0.100969 1.198 26 39 18
-0.119368 0.100885 1.197 27 41 17
-0.117312 0.100716 1.195 28 42 18
-0.11536 0.100632 1.194 29 43 19
-0.113315 0.100463 1.192 29 43 19
-0.111371 0.100379 1.191 29 43 19
-0.109429 0.100295 1.19 28 42 18
-0.1074 0.100126 1.188 29 41 17
-0.105289 0.0998734 1.185 30 42 18
-0.103274 0.0997048 1.183 29 41 17
-0.101179 0.099452 1.18 28 40 16
-0.0991782 0.0992834 1.178 27 37 18
-0.0971008 0.0990306 1.175 26 36 17
-0.0949516 0.0986934 1.171 18 27 18
-0.0927354 0.098272 1.166 26 35 26
-0.0904566 0.0977664 1.16 90 102 104
-0.0878144 0.0968393 1.149 86 98 100
-0.0857305 0.0965021 1.145 60 72 87
-0.0835857 0.0960807 1.14 64 76 91
-0.0815999 0.0958279 1.137 69 84 105
-0.0795532 0.0954908 1.133 112 127 148
-0.0775877 0.0952379 1.13 174 192 217
-0.0757656 0.0951536 1.129 193 211 236
-0.0740123 0.0951536 1.129 195 220 244
-0.0721949 0.0950693 1.128 206 231 255
-0.0704431 0.0950693 1.128 170 194 221
-0.0686912 0.0950693 1.128 114 138 165
-0.0669394 0.0950693 1.128 120 145 169
-0.0652454 0.0951536 1.129 147 172 196
-0.063492 0.0951536 1.129 146 171 195
-0.0617386 0.0951536 1.129 135 160 184
-0.0599853 0.0951536 1.129 128 153 177
-0.0582319 0.0951536 1.129 140 165 189
-0.0564785 0.0951536 1.129 140 165 189
-0.0547251 0.0951536 1.129 131 156 180
-0.0530187 0.0952379 1.13 127 151 173
-0.0512637 0.0952379 1.13 144 168 190
-0.0495526 0.0953222 1.131 153 177 199
-0.0477962 0.0953222 1.131 142 166 188
-0.0460804 0.0954065 1.132 135 158 182
-0.0443223 0.0954065 1.132 146 169 193
-0.0426019 0.0954908 1.133 153 178 202
-0.0408423 0.0954908 1.133 147 172 196
-0.0390827 0.0954908 1.133 135 161 183
-0.0373231 0.0954908 1.133 147 173 195
-0.0355636 0.0954908 1.133 160 186 208
-0.033804 0.0954908 1.133 149 175 197
-0.0320444 0.0954908 1.133 133 159 181
-0.0302581 0.0954065 1.132 139 165 187
-0.0285252 0.0954908 1.133 165 188 212
-0.026742 0.0954065 1.132 161 184 208
-0.025006 0.0954908 1.133 150 172 192
-0.0232259 0.0954065 1.132 155 177 197
-0.0214679 0.0954065 1.132 184 205 228
-0.0197099 0.0954065 1.132 184 205 228
-0.0179518 0.0954065 1.132 159 179 199
-0.0161938 0.0954065 1.132 150 170 190
-0.0144358 0.0954065 1.132 176 196 216
-0.0126777 0.0954065 1.132 179 199 219
-0.0109197 0.0954065 1.132 170 190 210
-0.00915356 0.0953222 1.131 166 186 206
-0.00739708 0.0953222 1.131 178 200 220
-0.0056406 0.0953222 1.131 177 199 219
-0.00388068 0.0952379 1.13 160 177 198
-0.00212575 0.0952379 1.13 153 170 191
-0.000370823 0.0952379 1.13 166 183 204
0.00138411 0.0952379 1.13 172 189 210
0.00313903 0.0952379 1.13 161 176 197
0.00489396 0.0952379 1.13 154 169 190
0.00664301 0.0951536 1.129 160 175 196
0.00838895 0.0950693 1.128 167 182 203
0.0101318 0.0949851 1.127 156 169 190
0.011882 0.0949851 1.127 149 162 183
0.0136323 0.0949851 1.127 163 171 191
0.0153826 0.0949851 1.127 181 189 209
0.0171329 0.0949851 1.127 155 158 179
0.0188831 0.0949851 1.127 130 133 154
0.0206334 0.0949851 1.127 134 140 159
0.0224035 0.0950693 1.128 143 149 168
0.0241768 0.0951536 1.129 150 153 176
0.027708 0.0952379 1.13 158 161 182
0.029463 0.0952379 1.13 165 168 189
0.0312179 0.0952379 1.13 178 181 197
0.0329728 0.0952379 1.13 186 189 205
0.036515 0.0953222 1.131 213 218 229
0.0382714 0.0953222 1.131 232 233 241
0.0399925 0.0952379 1.13 237 238 246
0.0417105 0.0951536 1.129 239 241 246
0.0434639 0.0951536 1.129 241 243 248
0.0452173 0.0951536 1.129 244 242 243
0.046929 0.0950693 1.128 242 240 241
0.0486377 0.0949851 1.127 240 238 239
0.050388 0.0949851 1.127 237 235 236
0.0521382 0.0949851 1.127 234 230 236
0.0538885 0.0949851 1.127 230 226 232
0.0556388 0.0949851 1.127 228 226 232
0.0573891 0.0949851 1.127 226 224 230
0.0591393 0.0949851 1.127 224 222 228
0.0608896 0.0949851 1.127 223 221 227
0.0626399 0.0949851 1.127 220 218 224
0.0644473 0.0950693 1.128 216 214 220
0.0661404 0.0949851 1.127 213 212 216
0.0678907 0.0949851 1.127 208 207 211
0.0696409 0.0949851 1.127 209 206 210
0.0713912 0.0949851 1.127 203 200 204
0.0730766 0.0949008 1.126 209 206 210
0.0748253 0.0949008 1.126 220 217 221
0.076574 0.0949008 1.126 224 221 225
0.0783227 0.0949008 1.126 227 224 228
0.0800003 0.0948165 1.125 225 220 224
0.0817475 0.0948165 1.125 225 220 224
0.0834947 0.0948165 1.125 224 219 223
0.0852418 0.0948165 1.125 220 215 219
0.0869117 0.0947322 1.124 225 222 226
0.0886573 0.0947322 1.124 231 228 232
0.0904029 0.0947322 1.124 223 225 235
0.0921485 0.0947322 1.124 160 162 172
0.0939776 0.0948165 1.125 115 120 136
0.0957248 0.0948165 1.125 121 126 142
0.097472 0.0948165 1.125 120 130 150
0.0992191 0.0948165 1.125 120 130 150
0.100966 0.0948165 1.125 116 131 152
0.102805 0.0949008 1.126 117 132 153
0.104553 0.0949008 1.126 116 131 152
0.106302 0.0949008 1.126 116 131 152
0.108051 0.0949008 1.126 116 130 154
0.1098 0.0949008 1.126 117 131 155
0.111548 0.0949008 1.126 119 133 157
0.113398 0.0949851 1.127 118 132 156
0.115148 0.0949851 1.127 120 134 158
0.116898 0.0949851 1.127 118 132 156
0.118648 0.0949851 1.127 119 133 157
0.120399 0.0949851 1.127 119 133 157
0.122257 0.0950693 1.128 118 131 157
0.124009 0.0950693 1.128 118 131 157
0.125761 0.0950693 1.128 117 130 156
0.127513 0.0950693 1.128 112 125 151
0.129379 0.0951536 1.129 109 124 150
0.131133 0.0951536 1.129 110 125 151
0.132886 0.0951536 1.129 110 125 151
0.134639 0.0951536 1.129 111 126 152
0.136393 0.0951536 1.129 112 128 152
0.138146 0.0951536 1.129 114 130 154
0.1399 0.0951536 1.129 114 130 154
0.141527 0.0950693 1.128 112 128 152
0.143279 0.0950693 1.128 112 128 152
0.144903 0.0949851 1.127 112 128 152
0.146653 0.0949851 1.127 112 128 152
0.148403 0.0949851 1.127 114 130 154
0.15002 0.0949008 1.126 117 133 157
0.151769 0.0949008 1.126 115 131 155
0.153381 0.0948165 1.125 115 131 155
0.155128 0.0948165 1.125 112 128 152
0.156876 0.0948165 1.125 112 128 152
0.158482 0.0947322 1.124 112 128 152
0.160085 0.0946479 1.123 115 131 155
0.161829 0.0946479 1.123 117 133 157
0.163719 0.0947322 1.124 118 134 158
0.165464 0.0947322 1.124 117 133 157
0.167358 0.0948165 1.125 117 134 155
0.169406 0.0949851 1.127 119 136 157
0.17146 0.0951536 1.129 132 146 170
0.173521 0.0953222 1.131 110 124 148
0.175742 0.095575 1.134 65 78 97
0.178129 0.0959122 1.138 17 30 49
0.180529 0.0962493 1.142 19 31 41
0.185043 0.096755 1.148 86 98 93
0.187802 0.0972607 1.154 20 32 27
0.19058 0.0977664 1.16 25 36 22
0.193211 0.0981878 1.165 32 43 29
0.196025 0.0986934 1.171 34 44 25
0.198519 0.0990306 1.175 34 44 25
0.203029 0.099452 1.18 28 39 18
0.205383 0.0997048 1.183 36 49 23
0.20757 0.0998734 1.185 42 55 29
0.209587 0.0999577 1.186 39 54 26
0.211607 0.100042 1.187 40 55 27
0.213451 0.100042 1.187 41 59 30
0.215476 0.100126 1.188 46 64 35
0.217321 0.100126 1.188 46 64 35
0.219166 0.100126 1.188 46 64 35
0.221197 0.100211 1.189 51 69 40
0.223043 0.100211 1.189 51 69 40
0.22489 0.100211 1.189 50 68 39
0.226736 0.100211 1.189 48 66 37
0.228391 0.100126 1.188 48 67 35
0.230236 0.100126 1.188 46 65 33
0.231885 0.100042 1.187 47 66 34
0.233729 0.100042 1.187 45 64 32
0.235572 0.100042 1.187 45 65 31
0.237416 0.100042 1.187 46 66 32
0.239259 0.100042 1.187 46 66 32
0.241103 0.100042 1.187 47 67 33
0.242946 0.100042 1.187 46 66 32
0.24479 0.100042 1.187 45 65 31
0.246633 0.100042 1.187 45 65 31
0.248686 0.100126 1.188 45 65 31
0.250742 0.100211 1.189 44 64 30
0.252801 0.100295 1.19 43 63 29
0.254863 0.100379 1.191 44 64 30
0.256712 0.100379 1.191 46 66 32
0.258562 0.100379 1.191 45 65 31
0.26063 0.100463 1.192 44 64 30
0.262702 0.100548 1.193 44 64 30
0.264555 0.100548 1.193 43 63 29
0.266854 0.100716 1.195 43 63 29
0.26871 0.100716 1.195 43 63 29
0.270566 0.100716 1.195 44 64 30
0.272422 0.100716 1.195 43 63 29
0.274507 0.1008 1.196 43 63 29
0.276595 0.100885 1.197 44 64 30
0.278454 0.100885 1.197 44 64 30
0.280313 0.100885 1.197 44 64 30
0.282172 0.100885 1.197 45 65 31
0.284031 0.100885 1.197 53 73 39
0.28589 0.100885 1.197 48 68 34
0.287749 0.100885 1.197 45 65 31
0.28985 0.100969 1.198 46 66 32
0.291711 0.100969 1.198 46 66 32
0.293571 0.100969 1.198 44 64 30
0.295679 0.101053 1.199 43 63 29
0.297541 0.101053 1.199 46 66 32
0.299403 0.101053 1.199 47 67 33
0.301265 0.101053 1.199 48 68 34
0.302874 0.100969 1.198 48 68 34
0.30448 0.100885 1.197 48 70 36
0.306339 0.100885 1.197 48 70 36
0.308198 0.100885 1.197 48 70 36
0.309798 0.1008 1.196 48 70 36
0.311395 0.100716 1.195 49 71 37
0.312989 0.100632 1.194 49 71 37
0.314579 0.100548 1.193 49 71 37
0.316167 0.100463 1.192 49 71 37
0.318018 0.100463 1.192 49 71 37
0.319601 0.100379 1.191 49 71 37
0.321181 0.100295 1.19 53 73 39
0.322757 0.100211 1.189 52 72 38
0.324058 0.100042 1.187 65 85 51
0.325901 0.100042 1.187 73 93 59
0.327745 0.100042 1.187 74 94 60
0.329311 0.0999577 1.186 69 89 55
0.331153 0.0999577 1.186 72 93 56
0.332994 0.0999577 1.186 73 94 57
0.334836 0.0999577 1.186 72 93 56
0.336678 0.0999577 1.186 69 90 53
0.338806 0.100042 1.187 70 91 54
0.340649 0.100042 1.187 72 93 56
0.342492 0.100042 1.187 72 93 56
0.344626 0.100126 1.188 72 93 56
0.346471 0.100126 1.188 72 90 54
0.348316 0.100126 1.188 71 89 53
0.350161 0.100126 1.188 74 91 58
0.353851 0.100126 1.188 74 91 58
0.355995 0.100211 1.189 77 94 61
0.357541 0.100126 1.188 63 73 38
0.359386 0.100126 1.188 62 72 37
0.360927 0.100042 1.187 128 136 101
0.36277 0.100042 1.187 105 113 78
0.364614 0.100042 1.187 60 64 33
0.366149 0.0999577 1.186 66 70 39
0.365198 0.0991991 1.177 57 60 40
0.359344 0.096165 1.141 219 224 204
0.358584 0.0954908 1.133 195 201 183
0.360662 0.095575 1.134 238 244 226
0.362423 0.095575 1.134 243 247 247
0.364184 0.095575 1.134 123 127 127
0.365622 0.0954908 1.133 108 112 112
0.367706 0.095575 1.134 118 122 122
-0.167561 0.10266 1.196 48 69 44
-0.165704 0.10266 1.196 44 65 40
-0.163709 0.102574 1.195 39 60 35
-0.161853 0.102574 1.195 34 55 30
-0.159997 0.102574 1.195 30 49 24
-0.158142 0.102574 1.195 23 42 17
-0.156286 0.102574 1.195 15 34 9
-0.154559 0.10266 1.196 13 32 7
-0.152702 0.10266 1.196 16 33 8
-0.150844 0.10266 1.196 17 34 9
-0.149111 0.102746 1.197 17 34 9
-0.147375 0.102832 1.198 18 35 10
-0.145636 0.102918 1.199 25 39 15
-0.143774 0.102918 1.199 28 42 18
-0.142031 0.103003 1.2 31 45 21
-0.140167 0.103003 1.2 29 43 19
-0.138303 0.103003 1.2 29 43 19
-0.13644 0.103003 1.2 28 42 18
-0.134688 0.103089 1.201 26 39 18
-0.132823 0.103089 1.201 26 39 18
-0.130958 0.103089 1.201 25 38 17
-0.129093 0.103089 1.201 25 38 17
-0.127227 0.103089 1.201 25 38 17
-0.125258 0.103003 1.2 29 42 21
-0.123291 0.102918 1.199 27 40 19
-0.121328 0.102832 1.198 26 39 18
-0.119368 0.102746 1.197 29 43 19
-0.117312 0.102574 1.195 29 43 19
-0.115263 0.102403 1.193 33 47 23
-0.11322 0.102231 1.191 33 47 23
-0.111277 0.102145 1.19 33 47 23
-0.109337 0.102059 1.189 29 43 19
-0.10731 0.101888 1.187 27 41 17
-0.1052 0.10163 1.184 28 42 18
-0.103186 0.101458 1.182 31 43 19
-0.101179 0.101287 1.18 29 41 17
-0.099094 0.101029 1.177 27 38 17
-0.0970181 0.100772 1.174 22 33 12
-0.0949516 0.100514 1.171 19 28 19
-0.0927354 0.100085 1.166 27 36 27
-0.0904566 0.09957 1.16 94 107 106
-0.0878144 0.0986258 1.149 87 100 99
-0.0857305 0.0982825 1.145 58 74 86
-0.083659 0.0979391 1.141 69 85 97
-0.0815999 0.0975958 1.137 75 90 111
-0.0795532 0.0972524 1.133 125 140 161
-0.0775877 0.0969949 1.13 184 202 227
-0.0757656 0.0969091 1.129 185 203 228
-0.0740123 0.0969091 1.129 196 221 245
-0.0722589 0.0969091 1.129 206 231 255
-0.0704431 0.0968233 1.128 155 181 208
-0.0686912 0.0968233 1.128 107 133 160
-0.0669394 0.0968233 1.128 119 145 172
-0.0652454 0.0969091 1.129 145 171 198
-0.063492 0.0969091 1.129 147 172 196
-0.0617386 0.0969091 1.129 139 164 188
-0.0599853 0.0969091 1.129 128 153 177
-0.0582319 0.0969091 1.129 145 170 194
-0.0564785 0.0969091 1.129 142 167 191
-0.0547251 0.0969091 1.129 125 150 174
-0.0529718 0.0969091 1.129 126 147 170
-0.0512637 0.0969949 1.13 151 172 195
-0.0495088 0.0969949 1.13 153 177 199
-0.0477962 0.0970808 1.131 140 164 186
-0.0460804 0.0971666 1.132 137 160 184
-0.0443223 0.0971666 1.132 149 172 196
-0.0426019 0.0972524 1.133 153 178 202
-0.0408423 0.0972524 1.133 144 169 193
-0.0390482 0.0971666 1.132 135 160 184
-0.0372902 0.0971666 1.132 149 174 198
-0.0355322 0.0971666 1.132 157 184 208
-0.0337741 0.0971666 1.132 149 176 200
-0.0320161 0.0971666 1.132 135 163 185
-0.0302581 0.0971666 1.132 141 169 191
-0.0285252 0.0972524 1.133 165 188 212
-0.026742 0.0971666 1.132 153 176 200
-0.024984 0.0971666 1.132 148 169 192
-0.0232259 0.0971666 1.132 163 184 207
-0.0214679 0.0971666 1.132 184 204 229
-0.0197099 0.0971666 1.132 183 203 228
-0.0179518 0.0971666 1.132 153 173 193
-0.0161938 0.0971666 1.132 151 171 191
-0.0144358 0.0971666 1.132 179 201 221
-0.0126777 0.0971666 1.132 177 199 219
-0.0109197 0.0971666 1.132 169 191 211
-0.00916165 0.0971666 1.132 168 190 210
-0.00739708 0.0970808 1.131 181 203 223
-0.0056406 0.0970808 1.131 178 200 220
-0.00388411 0.0970808 1.131 163 183 203
-0.00212575 0.0969949 1.13 152 172 192
-0.000370823 0.0969949 1.13 169 189 209
0.00138411 0.0969949 1.13 173 193 213
0.00313903 0.0969949 1.13 164 181 202
0.00488963 0.0969091 1.129 153 170 191
0.00664301 0.0969091 1.129 166 183 204
0.00838895 0.0968233 1.128 174 191 212
0.0101408 0.0968233 1.128 151 168 189
0.011882 0.0967374 1.127 148 165 186
0.0136323 0.0967374 1.127 155 169 193
0.0153826 0.0967374 1.127 190 204 228
0.0171329 0.0967374 1.127 186 198 222
0.0188831 0.0967374 1.127 122 134 158
0.0206334 0.0967374 1.127 123 136 157
0.0224035 0.0968233 1.128 144 157 178
0.0241768 0.0969091 1.129 162 173 199
0.0259301 0.0969091 1.129 154 165 191
0.0276835 0.0969091 1.129 147 159 183
0.029463 0.0969949 1.13 145 157 181
0.0312179 0.0969949 1.13 146 156 178
0.0329728 0.0969949 1.13 143 153 175
0.0347277 0.0969949 1.13 144 149 170
0.0364827 0.0969949 1.13 150 155 176
0.0382376 0.0969949 1.13 158 163 179
0.0399925 0.0969949 1.13 155 160 176
0.0417105 0.0969091 1.129 154 159 170
0.0434639 0.0969091 1.129 161 166 177
0.0452173 0.0969091 1.129 176 181 192
0.046929 0.0968233 1.128 188 193 204
0.0486377 0.0967374 1.127 200 205 214
0.050388 0.0967374 1.127 215 220 229
0.0521382 0.0967374 1.127 217 222 231
0.0538885 0.0967374 1.127 219 224 233
0.0556388 0.0967374 1.127 221 223 233
0.0573891 0.0967374 1.127 220 222 232
0.0591393 0.0967374 1.127 221 221 231
0.0608896 0.0967374 1.127 219 219 229
0.0626399 0.0967374 1.127 215 216 224
0.0643901 0.0967374 1.127 215 216 224
0.0661404 0.0967374 1.127 218 215 224
0.0678907 0.0967374 1.127 217 214 223
0.0695791 0.0966516 1.126 215 213 219
0.0713279 0.0966516 1.126 213 211 217
0.0730117 0.0965657 1.125 214 208 214
0.0747588 0.0965657 1.125 222 216 222
0.076506 0.0965657 1.125 226 221 225
0.0782532 0.0965657 1.125 228 223 227
0.0800003 0.0965657 1.125 230 225 229
0.0817475 0.0965657 1.125 229 224 228
0.0834947 0.0965657 1.125 227 223 229
0.0852418 0.0965657 1.125 231 227 233
0.0869117 0.0964799 1.124 231 230 234
0.0886573 0.0964799 1.124 232 231 235
0.0904029 0.0964799 1.124 224 226 236
0.0921485 0.0964799 1.124 145 147 157
0.0938941 0.0964799 1.124 115 120 136
0.0956397 0.0964799 1.124 121 126 142
0.0973853 0.0964799 1.124 120 130 150
0.0991309 0.0964799 1.124 118 128 148
0.100966 0.0965657 1.125 114 129 150
0.102713 0.0965657 1.125 116 131 152
0.104461 0.0965657 1.125 114 129 150
0.106208 0.0965657 1.125 116 131 152
0.107955 0.0965657 1.125 118 132 156
0.109702 0.0965657 1.125 118 132 156
0.111449 0.0965657 1.125 118 132 156
0.113196 0.0965657 1.125 124 138 162
0.115046 0.0966516 1.126 128 142 166
0.116898 0.0967374 1.127 121 135 159
0.118648 0.0967374 1.127 113 127 151
0.120399 0.0967374 1.127 117 131 155
0.122149 0.0967374 1.127 117 130 156
0.124009 0.0968233 1.128 118 131 157
0.125761 0.0968233 1.128 113 126 152
0.127513 0.0968233 1.128 110 123 149
0.129265 0.0968233 1.128 109 122 148
0.131133 0.0969091 1.129 107 120 146
0.132886 0.0969091 1.129 110 125 151
0.134639 0.0969091 1.129 111 126 152
0.136393 0.0969091 1.129 110 126 150
0.138146 0.0969091 1.129 116 132 156
0.1399 0.0969091 1.129 115 131 155
0.141653 0.0969091 1.129 114 130 154
0.143406 0.0969091 1.129 115 131 155
0.145031 0.0968233 1.128 115 131 155
0.146783 0.0968233 1.128 117 133 157
0.148403 0.0967374 1.127 118 134 158
0.150153 0.0967374 1.127 125 141 165
0.151904 0.0967374 1.127 118 134 158
