ply
format ascii 1.0
comment Created by Open3D
element vertex 1394
property double x
property double y
property double z
property uchar red
property uchar green
property uchar blue
end_header
0.353784 0.0133752 1.194 45 64 39
0.35534 0.013364 1.193 45 64 39
0.356295 0.0133304 1.19 39 58 33
0.357842 0.0133192 1.189 35 48 22
0.359084 0.0132968 1.187 64 77 51
0.360319 0.0132744 1.185 146 149 129
0.360937 0.0132295 1.181 116 119 99
0.361542 0.0131847 1.177 37 35 21
0.361826 0.0131287 1.172 42 40 26
0.361785 0.0130615 1.166 34 34 23
0.360166 0.0129383 1.155 57 57 46
0.360392 0.0128823 1.15 146 149 141
0.360919 0.0128375 1.146 158 161 153
0.361749 0.0128039 1.143 166 168 162
0.36257 0.0127703 1.14 173 175 169
0.363701 0.0127479 1.138 168 174 174
0.365469 0.0127479 1.138 103 109 109
0.369172 0.0128151 1.144 96 104 106
0.37257 0.0128711 1.149 103 111 113
-0.16672 0.0151807 1.19 19 35 13
-0.164872 0.0151807 1.19 15 31 9
-0.163161 0.0151934 1.191 18 35 10
-0.161312 0.0151934 1.191 23 40 15
-0.159462 0.0151934 1.191 20 37 12
-0.157612 0.0151934 1.191 23 40 15
-0.155763 0.0151934 1.191 30 47 22
-0.154042 0.0152062 1.192 33 50 25
-0.152191 0.0152062 1.192 31 48 23
-0.15034 0.0152062 1.192 31 48 23
-0.148488 0.0152062 1.192 30 47 22
-0.146637 0.0152062 1.192 27 44 19
-0.144786 0.0152062 1.192 27 44 19
-0.142935 0.0152062 1.192 26 43 18
-0.141202 0.0152189 1.193 26 43 18
-0.139349 0.0152189 1.193 24 41 16
-0.137496 0.0152189 1.193 24 41 16
-0.135644 0.0152189 1.193 24 41 16
-0.133903 0.0152317 1.194 24 41 16
-0.132049 0.0152317 1.194 23 40 15
-0.130194 0.0152317 1.194 22 39 14
-0.12834 0.0152317 1.194 18 35 10
-0.126486 0.0152317 1.194 16 33 8
-0.124527 0.0152189 1.193 17 34 9
-0.122674 0.0152189 1.193 18 34 12
-0.120822 0.0152189 1.193 17 33 11
-0.118869 0.0152062 1.192 12 28 6
-0.11692 0.0151934 1.191 12 28 6
-0.114973 0.0151807 1.19 13 29 7
-0.113125 0.0151807 1.19 13 29 7
-0.111184 0.0151679 1.189 16 32 10
-0.109337 0.0151679 1.189 19 35 13
-0.107491 0.0151679 1.189 13 28 8
-0.105644 0.0151679 1.189 13 28 8
-0.103885 0.0151807 1.19 15 30 10
-0.102037 0.0151807 1.19 15 30 10
-0.100188 0.0151807 1.19 13 28 8
-0.098423 0.0151934 1.191 15 30 10
-0.0966544 0.0152062 1.192 17 29 10
-0.0948032 0.0152062 1.192 15 27 8
-0.092952 0.0152062 1.192 15 27 8
-0.0911772 0.0152189 1.193 14 26 7
-0.0893244 0.0152189 1.193 14 26 7
-0.0874717 0.0152189 1.193 14 26 7
-0.0856189 0.0152189 1.193 15 27 8
-0.0837661 0.0152189 1.193 14 26 7
-0.0819134 0.0152189 1.193 14 26 7
-0.0800606 0.0152189 1.193 13 25 6
-0.0781423 0.0152062 1.192 14 26 7
-0.076291 0.0152062 1.192 13 25 6
-0.0744398 0.0152062 1.192 13 24 8
-0.0725277 0.0151934 1.191 13 24 8
-0.0706187 0.0151807 1.19 12 26 9
-0.0687128 0.0151679 1.189 12 26 9
-0.06681 0.0151552 1.188 13 27 10
-0.064965 0.0151552 1.188 13 27 10
-0.0630669 0.0151424 1.187 12 26 9
-0.0612234 0.0151424 1.187 12 26 9
-0.05938 0.0151424 1.187 11 25 8
-0.0574881 0.0151296 1.186 11 25 8
-0.0555992 0.0151169 1.185 12 26 9
-0.0537589 0.0151169 1.185 13 27 10
-0.0519185 0.0151169 1.185 13 27 10
-0.0501627 0.0151424 1.187 15 29 12
-0.0483193 0.0151424 1.187 15 29 12
-0.0464758 0.0151424 1.187 16 30 13
-0.04467 0.0151552 1.188 15 29 12
-0.042861 0.0151679 1.189 23 37 20
-0.0410489 0.0151807 1.19 18 32 15
-0.0392008 0.0151807 1.19 18 32 15
-0.0373527 0.0151807 1.19 16 31 11
-0.0355344 0.0151934 1.191 15 30 10
-0.0336848 0.0151934 1.191 15 30 10
-0.0318084 0.0151807 1.19 15 30 10
-0.0299603 0.0151807 1.19 17 33 11
-0.0281122 0.0151807 1.19 18 34 12
-0.026242 0.0151679 1.189 18 34 12
-0.0243749 0.0151552 1.188 19 35 13
-0.0225299 0.0151552 1.188 18 34 12
-0.0206675 0.0151424 1.187 19 35 13
-0.018824 0.0151424 1.187 18 34 12
-0.0169806 0.0151424 1.187 17 33 11
-0.0151371 0.0151424 1.187 20 36 14
-0.0133049 0.0151552 1.188 22 38 16
-0.0114695 0.0151679 1.189 22 38 16
-0.00963107 0.0151807 1.19 20 36 14
-0.00778295 0.0151807 1.19 20 36 14
-0.00593484 0.0151807 1.19 22 38 16
-0.00408673 0.0151807 1.19 22 38 16
-0.0022405 0.0151934 1.191 22 38 16
-0.000390841 0.0151934 1.191 22 39 14
0.0014576 0.0151807 1.19 22 39 14
0.00330571 0.0151807 1.19 23 40 15
0.00514949 0.0151679 1.189 22 39 14
0.00699016 0.0151552 1.188 23 40 15
0.00882773 0.0151424 1.187 22 39 14
0.0106712 0.0151424 1.187 23 40 15
0.0125041 0.0151296 1.186 22 39 14
0.014346 0.0151296 1.186 23 40 15
0.0161742 0.0151169 1.185 23 40 15
0.0180146 0.0151169 1.185 24 41 16
0.0198549 0.0151169 1.185 24 41 16
0.0216953 0.0151169 1.185 24 41 16
0.0235356 0.0151169 1.185 24 41 16
0.025376 0.0151169 1.185 24 41 16
0.0272163 0.0151169 1.185 25 42 17
0.0290567 0.0151169 1.185 23 40 15
0.030897 0.0151169 1.185 23 40 15
0.0327097 0.0151041 1.184 26 40 16
0.0345193 0.0150914 1.183 28 42 18
0.0363258 0.0150786 1.182 28 42 18
0.0381292 0.0150659 1.181 28 42 18
0.0399295 0.0150531 1.18 27 41 17
0.0417621 0.0150531 1.18 27 41 17
0.0435577 0.0150403 1.179 27 41 17
0.0453503 0.0150276 1.178 26 40 16
0.0471798 0.0150276 1.178 27 41 17
0.0490092 0.0150276 1.178 26 40 16
0.0508387 0.0150276 1.178 27 41 17
0.0526682 0.0150276 1.178 26 40 16
0.0544976 0.0150276 1.178 27 41 17
0.0563749 0.0150403 1.179 27 41 17
0.0582553 0.0150531 1.18 26 40 16
0.0601898 0.0150786 1.182 26 40 16
0.0620779 0.0150914 1.183 27 41 17
0.0640232 0.0151169 1.185 29 43 19
0.0659747 0.0151424 1.187 28 42 18
0.0678753 0.0151552 1.188 27 41 17
0.0698377 0.0151807 1.19 28 42 18
0.071746 0.0151934 1.191 28 42 18
0.0736575 0.0152062 1.192 31 45 21
0.0755087 0.0152062 1.192 31 45 21
0.0774248 0.0152189 1.193 31 45 21
0.0792776 0.0152189 1.193 29 43 19
0.0811304 0.0152189 1.193 31 45 21
0.0829136 0.0152062 1.192 32 46 22
0.0847648 0.0152062 1.192 32 47 21
0.0865433 0.0151934 1.191 32 47 21
0.088393 0.0151934 1.191 33 48 22
0.0901669 0.0151807 1.19 32 47 21
0.092015 0.0151807 1.19 34 49 21
0.0937842 0.0151679 1.189 34 49 21
0.0954699 0.0151424 1.187 33 52 20
0.0973134 0.0151424 1.187 34 53 21
0.0991568 0.0151424 1.187 34 53 21
0.100915 0.0151296 1.186 37 56 24
0.10267 0.0151169 1.185 37 56 24
0.104511 0.0151169 1.185 34 53 21
0.106351 0.0151169 1.185 34 54 20
0.108192 0.0151169 1.185 38 58 24
0.110032 0.0151169 1.185 39 59 25
0.111778 0.0151041 1.184 40 60 26
0.113617 0.0151041 1.184 40 60 26
0.115455 0.0151041 1.184 41 61 27
0.117294 0.0151041 1.184 41 61 27
0.119133 0.0151041 1.184 40 60 26
0.120972 0.0151041 1.184 40 60 26
0.122811 0.0151041 1.184 37 57 23
0.124755 0.0151169 1.185 38 58 24
0.126595 0.0151169 1.185 41 61 27
0.128435 0.0151169 1.185 43 64 27
0.130276 0.0151169 1.185 43 64 27
0.132116 0.0151169 1.185 46 67 30
0.133956 0.0151169 1.185 46 67 30
0.135911 0.0151296 1.186 47 69 30
0.137753 0.0151296 1.186 48 70 31
0.139713 0.0151424 1.187 48 70 31
0.141556 0.0151424 1.187 44 66 27
0.1434 0.0151424 1.187 55 77 38
0.145365 0.0151552 1.188 62 84 45
0.147334 0.0151679 1.189 58 80 41
0.149306 0.0151807 1.19 58 80 41
0.151282 0.0151934 1.191 59 81 42
0.15326 0.0152062 1.192 60 82 43
0.155241 0.0152189 1.193 60 82 41
0.157094 0.0152189 1.193 60 82 41
0.15908 0.0152317 1.194 60 82 41
0.160934 0.0152317 1.194 60 82 41
0.162789 0.0152317 1.194 60 83 39
0.164643 0.0152317 1.194 61 84 40
0.166497 0.0152317 1.194 67 90 46
0.168352 0.0152317 1.194 62 85 41
0.170063 0.0152189 1.193 64 87 43
0.171916 0.0152189 1.193 64 87 43
0.173769 0.0152189 1.193 69 92 48
0.175474 0.0152062 1.192 68 91 47
0.177326 0.0152062 1.192 68 91 47
0.179027 0.0151934 1.191 65 88 44
0.180724 0.0151807 1.19 64 87 43
0.182572 0.0151807 1.19 64 87 43
0.184266 0.0151679 1.189 64 86 45
0.186112 0.0151679 1.189 64 86 45
0.187959 0.0151679 1.189 64 86 45
0.189646 0.0151552 1.188 67 89 48
0.191491 0.0151552 1.188 67 89 48
0.193336 0.0151552 1.188 67 89 48
0.195181 0.0151552 1.188 66 89 45
0.197026 0.0151552 1.188 66 89 45
0.198871 0.0151552 1.188 65 88 44
0.200716 0.0151552 1.188 65 88 44
0.202561 0.0151552 1.188 64 88 42
0.204406 0.0151552 1.188 64 88 42
0.206251 0.0151552 1.188 64 88 42
0.208271 0.0151679 1.189 64 88 42
0.210117 0.0151679 1.189 66 90 44
0.211964 0.0151679 1.189 66 90 44
0.21381 0.0151679 1.189 66 90 44
0.215838 0.0151807 1.19 65 89 43
0.217687 0.0151807 1.19 66 90 44
0.219535 0.0151807 1.19 66 90 44
0.221383 0.0151807 1.19 65 89 43
0.223418 0.0151934 1.191 64 88 42
0.225457 0.0152062 1.192 65 89 43
0.227308 0.0152062 1.192 60 84 38
0.22916 0.0152062 1.192 57 80 36
0.231205 0.0152189 1.193 53 76 32
0.233057 0.0152189 1.193 57 80 36
0.235107 0.0152317 1.194 53 76 32
0.236961 0.0152317 1.194 48 70 29
0.238816 0.0152317 1.194 50 72 31
0.24067 0.0152317 1.194 48 67 29
0.242321 0.0152189 1.193 46 65 27
0.244174 0.0152189 1.193 47 64 31
0.245821 0.0152062 1.192 43 60 27
0.247672 0.0152062 1.192 34 51 18
0.249314 0.0151934 1.191 35 52 19
0.250953 0.0151807 1.19 34 51 18
0.252588 0.0151679 1.189 34 51 18
0.254221 0.0151552 1.188 33 49 18
0.25585 0.0151424 1.187 33 49 18
0.257694 0.0151424 1.187 34 50 19
0.2591 0.0151169 1.185 35 51 20
0.26072 0.0151041 1.184 34 49 21
0.262559 0.0151041 1.184 32 47 19
0.264398 0.0151041 1.184 33 48 20
0.266011 0.0150914 1.183 35 50 22
0.267849 0.0150914 1.183 36 51 23
0.269686 0.0150914 1.183 36 51 23
0.271523 0.0150914 1.183 34 49 21
0.27336 0.0150914 1.183 33 48 20
0.275198 0.0150914 1.183 32 47 19
0.277269 0.0151041 1.184 31 46 18
0.279108 0.0151041 1.184 32 47 19
0.281184 0.0151169 1.185 33 48 20
0.283024 0.0151169 1.185 34 49 21
0.284865 0.0151169 1.185 35 50 22
0.289032 0.0151424 1.187 34 49 21
0.290386 0.0151169 1.185 34 49 21
0.292226 0.0151169 1.185 36 51 23
0.293818 0.0151041 1.184 35 50 22
0.295158 0.0150786 1.182 34 49 21
0.296491 0.0150531 1.18 34 49 21
0.298071 0.0150403 1.179 33 48 20
0.299393 0.0150148 1.177 34 49 21
0.301221 0.0150148 1.177 33 48 20
0.302791 0.0150021 1.176 33 48 20
0.304359 0.0149893 1.175 35 50 22
0.306444 0.0150021 1.176 36 51 23
0.30827 0.0150021 1.176 35 50 22
0.31036 0.0150148 1.177 34 49 21
0.312454 0.0150276 1.178 33 48 20
0.314283 0.0150276 1.178 36 51 23
0.316649 0.0150531 1.18 36 51 23
0.318482 0.0150531 1.18 38 53 25
0.320857 0.0150786 1.182 39 54 26
0.322966 0.0150914 1.183 36 51 23
0.325352 0.0151169 1.185 39 54 26
0.327193 0.0151169 1.185 41 60 28
0.329588 0.0151424 1.187 41 60 28
0.331711 0.0151552 1.188 43 62 30
0.333837 0.0151679 1.189 45 64 32
0.337814 0.0151807 1.19 45 64 32
0.339947 0.0151934 1.191 46 65 33
0.342084 0.0152062 1.192 46 65 33
0.343935 0.0152062 1.192 46 64 35
0.346076 0.0152189 1.193 47 65 36
0.347929 0.0152189 1.193 45 65 38
0.349782 0.0152189 1.193 44 64 37
0.351635 0.0152189 1.193 44 63 38
0.353191 0.0152062 1.192 44 63 38
0.355042 0.0152062 1.192 44 63 38
0.356295 0.0151807 1.19 37 56 31
0.357541 0.0151552 1.188 37 46 21
0.359084 0.0151424 1.187 65 74 49
0.360319 0.0151169 1.185 148 150 126
0.360937 0.0150659 1.181 116 118 94
0.361849 0.0150276 1.178 36 34 20
0.362135 0.0149638 1.173 39 37 23
0.361785 0.0148745 1.166 34 34 23
0.362037 0.0148107 1.161 61 61 50
0.360706 0.0146832 1.151 151 155 144
0.360919 0.0146194 1.146 158 162 151
0.361432 0.0145683 1.142 166 172 165
0.36257 0.0145428 1.14 171 177 170
0.363701 0.0145173 1.138 173 179 179
0.366111 0.0145428 1.14 98 104 104
0.369495 0.0146066 1.145 97 105 107
-0.16672 0.017031 1.19 18 34 12
-0.164872 0.017031 1.19 18 34 12
-0.163024 0.017031 1.19 19 35 13
-0.161312 0.0170453 1.191 19 35 13
-0.159462 0.0170453 1.191 18 34 12
-0.157612 0.0170453 1.191 22 38 16
-0.155893 0.0170596 1.192 26 43 18
-0.154042 0.0170596 1.192 27 44 19
-0.152191 0.0170596 1.192 30 47 22
-0.15034 0.0170596 1.192 32 49 24
-0.148488 0.0170596 1.192 31 48 23
-0.146637 0.0170596 1.192 29 46 21
-0.144908 0.0170739 1.193 29 46 21
-0.143055 0.0170739 1.193 27 44 19
-0.14132 0.0170882 1.194 25 42 17
-0.139466 0.0170882 1.194 24 41 16
-0.137612 0.0170882 1.194 24 41 16
-0.135757 0.0170882 1.194 23 40 15
-0.133903 0.0170882 1.194 22 39 14
-0.132049 0.0170882 1.194 20 37 12
-0.130194 0.0170882 1.194 20 36 14
-0.12834 0.0170882 1.194 17 33 11
-0.126486 0.0170882 1.194 17 33 11
-0.124631 0.0170882 1.194 17 33 11
-0.122674 0.0170739 1.193 17 33 11
-0.120822 0.0170739 1.193 18 34 12
-0.118869 0.0170596 1.192 16 32 10
-0.11692 0.0170453 1.191 12 28 6
-0.114973 0.017031 1.19 11 26 6
-0.113125 0.017031 1.19 12 27 7
-0.111277 0.017031 1.19 12 27 7
-0.109429 0.017031 1.19 12 27 7
-0.107581 0.017031 1.19 10 25 5
-0.105733 0.017031 1.19 12 27 7
-0.103885 0.017031 1.19 12 27 7
-0.102037 0.017031 1.19 13 28 8
-0.100273 0.0170453 1.191 11 26 6
-0.0985056 0.0170596 1.192 12 27 7
-0.0967355 0.0170739 1.193 17 28 12
-0.0948827 0.0170739 1.193 14 25 9
-0.09303 0.0170739 1.193 14 26 7
-0.0911772 0.0170739 1.193 14 26 7
-0.0893993 0.0170882 1.194 13 25 6
-0.0874717 0.0170739 1.193 13 25 6
-0.0856189 0.0170739 1.193 14 26 7
-0.0837661 0.0170739 1.193 13 25 6
-0.0819134 0.0170739 1.193 13 25 6
-0.0800606 0.0170739 1.193 13 25 6
-0.0782078 0.0170739 1.193 13 24 8
-0.076291 0.0170596 1.192 13 24 8
-0.0744398 0.0170596 1.192 13 24 8
-0.0725886 0.0170596 1.192 13 24 8
-0.0707374 0.0170596 1.192 11 25 8
-0.0687706 0.017031 1.19 11 25 8
-0.0669225 0.017031 1.19 11 25 8
-0.0650197 0.0170167 1.189 11 25 8
-0.06312 0.0170024 1.188 11 25 8
-0.061275 0.0170024 1.188 11 25 8
-0.05938 0.016988 1.187 10 24 9
-0.0575365 0.016988 1.187 11 25 10
-0.0556931 0.016988 1.187 11 25 10
-0.0538496 0.016988 1.187 11 25 10
-0.0520062 0.016988 1.187 11 25 10
-0.0501627 0.016988 1.187 11 25 10
-0.04836 0.0170024 1.188 11 25 8
-0.046515 0.0170024 1.188 13 27 10
-0.0447452 0.017031 1.19 13 27 10
-0.0428971 0.017031 1.19 15 29 12
-0.0410489 0.017031 1.19 17 31 14
-0.0392338 0.0170453 1.191 17 31 14
-0.0373841 0.0170453 1.191 16 30 13
-0.0355643 0.0170596 1.192 15 29 12
-0.0337131 0.0170596 1.192 16 30 13
-0.0318619 0.0170596 1.192 16 30 13
-0.0299855 0.0170453 1.191 17 32 12
-0.0281122 0.017031 1.19 17 32 12
-0.026242 0.0170167 1.189 17 32 12
-0.0243954 0.0170167 1.189 18 33 13
-0.0225299 0.0170024 1.188 12 27 7
-0.0206675 0.016988 1.187 13 28 8
-0.018824 0.016988 1.187 17 32 12
-0.0169806 0.016988 1.187 18 33 13
-0.0151371 0.016988 1.187 20 35 15
-0.0132937 0.016988 1.187 20 35 15
-0.0114599 0.0170024 1.188 20 35 15
-0.00962297 0.0170167 1.189 19 34 14
-0.00778295 0.017031 1.19 20 36 14
-0.00593983 0.0170453 1.191 20 36 14
-0.00409017 0.0170453 1.191 19 35 13
-0.00224239 0.0170596 1.192 20 36 14
-0.000390841 0.0170453 1.191 20 36 14
0.00145882 0.0170453 1.191 22 38 16
0.00330571 0.017031 1.19 24 41 16
0.00515382 0.017031 1.19 24 41 16
0.00699605 0.0170167 1.189 24 41 16
0.00883517 0.0170024 1.188 22 39 14
0.0106712 0.016988 1.187 22 39 14
0.0125146 0.016988 1.187 23 40 15
0.0143581 0.016988 1.187 25 42 17
0.0162015 0.016988 1.187 25 42 17
0.018045 0.016988 1.187 24 41 16
0.0198717 0.0169737 1.186 23 40 15
0.0217319 0.016988 1.187 24 41 16
0.0235753 0.016988 1.187 24 41 16
0.0253974 0.0169737 1.186 25 42 17
0.0272393 0.0169737 1.186 25 42 17
0.0290812 0.0169737 1.186 24 41 16
0.030897 0.0169594 1.185 24 41 16
0.0327373 0.0169594 1.185 24 41 16
0.0345485 0.0169451 1.184 25 42 17
0.0363258 0.0169165 1.182 26 43 18
0.0381615 0.0169165 1.182 27 44 19
0.0399634 0.0169022 1.181 27 44 19
0.0417621 0.0168879 1.18 26 43 18
0.0435947 0.0168879 1.18 26 43 18
0.0453888 0.0168735 1.179 24 41 16
0.0471798 0.0168592 1.178 25 42 17
0.0490092 0.0168592 1.178 24 41 16
0.0508387 0.0168592 1.178 26 43 18
0.0526682 0.0168592 1.178 23 40 15
0.0545439 0.0168735 1.179 26 43 18
0.0564228 0.0168879 1.18 25 42 17
0.0582553 0.0168879 1.18 25 42 17
0.0601898 0.0169165 1.182 25 42 17
0.0621304 0.0169451 1.184 24 41 16
0.0640232 0.0169594 1.185 27 44 19
0.0659747 0.016988 1.187 27 44 19
0.0678753 0.0170024 1.188 26 43 18
0.0698377 0.017031 1.19 29 46 21
0.071746 0.0170453 1.191 29 46 21
0.0736575 0.0170596 1.192 29 46 21
0.0755087 0.0170596 1.192 29 46 21
0.0774248 0.0170739 1.193 27 44 19
0.0792776 0.0170739 1.193 27 44 19
0.0811304 0.0170739 1.193 31 48 23
0.0829136 0.0170596 1.192 30 47 22
0.0847648 0.0170596 1.192 30 48 21
0.086616 0.0170596 1.192 30 48 21
0.088393 0.0170453 1.191 33 48 22
0.0901669 0.017031 1.19 32 47 21
0.0919377 0.0170167 1.189 32 47 19
0.0937054 0.0170024 1.188 34 49 21
0.0954699 0.016988 1.187 36 54 25
0.0973134 0.016988 1.187 34 52 23
0.0991568 0.016988 1.187 34 53 21
0.10083 0.0169594 1.185 36 55 23
0.10267 0.0169594 1.185 37 56 24
0.104511 0.0169594 1.185 36 55 23
0.106351 0.0169594 1.185 33 53 19
0.1081 0.0169451 1.184 34 54 20
0.109939 0.0169451 1.184 32 52 18
0.111778 0.0169451 1.184 39 59 25
0.113617 0.0169451 1.184 40 60 26
0.115455 0.0169451 1.184 41 61 27
0.117195 0.0169308 1.183 41 61 27
0.119133 0.0169451 1.184 41 61 27
0.12087 0.0169308 1.183 41 61 27
0.122811 0.0169451 1.184 45 65 31
0.124755 0.0169594 1.185 54 74 40
0.126595 0.0169594 1.185 55 75 41
0.128435 0.0169594 1.185 54 75 38
0.130276 0.0169594 1.185 48 69 32
0.132116 0.0169594 1.185 50 71 34
0.133956 0.0169594 1.185 50 71 34
0.135911 0.0169737 1.186 50 72 33
0.137753 0.0169737 1.186 50 72 33
0.139595 0.0169737 1.186 50 72 33
0.141437 0.0169737 1.186 52 74 35
0.1434 0.016988 1.187 57 79 40
0.145365 0.0170024 1.188 61 83 44
0.147334 0.0170167 1.189 57 79 40
0.149432 0.0170453 1.191 57 79 40
0.151409 0.0170596 1.192 58 80 41
0.15326 0.0170596 1.192 60 82 43
0.155241 0.0170739 1.193 64 86 47
0.157094 0.0170739 1.193 60 82 43
0.15908 0.0170882 1.194 61 83 42
0.161069 0.0171025 1.195 61 83 42
0.162925 0.0171025 1.195 61 83 42
0.164781 0.0171025 1.195 60 82 41
0.166637 0.0171025 1.195 59 82 38
0.168352 0.0170882 1.194 64 87 43
0.170206 0.0170882 1.194 66 89 45
0.171916 0.0170739 1.193 59 82 38
0.173769 0.0170739 1.193 57 80 36
0.175474 0.0170596 1.192 57 80 36
0.177177 0.0170453 1.191 58 81 37
0.178876 0.017031 1.19 60 83 39
0.180724 0.017031 1.19 60 82 41
0.182419 0.0170167 1.189 62 84 43
0.184111 0.0170024 1.188 64 86 45
0.185799 0.016988 1.187 64 86 45
0.187643 0.016988 1.187 62 84 43
0.189486 0.016988 1.187 62 84 43
0.191329 0.016988 1.187 62 84 43
0.193173 0.016988 1.187 65 87 46
0.194852 0.0169737 1.186 66 89 45
0.196694 0.0169737 1.186 66 89 45
0.198536 0.0169737 1.186 65 88 44
0.200378 0.0169737 1.186 65 88 44
0.20239 0.016988 1.187 64 88 42
0.204234 0.016988 1.187 65 89 43
0.206077 0.016988 1.187 66 90 44
0.20792 0.016988 1.187 64 88 42
0.209764 0.016988 1.187 68 92 46
0.211786 0.0170024 1.188 67 91 45
0.213631 0.0170024 1.188 67 91 45
0.215657 0.0170167 1.189 66 90 44
0.217687 0.017031 1.19 66 90 44
0.219535 0.017031 1.19 66 90 44
0.221383 0.017031 1.19 65 89 43
0.223418 0.0170453 1.191 64 88 42
0.225457 0.0170596 1.192 64 88 42
0.227308 0.0170596 1.192 64 88 42
0.22916 0.0170596 1.192 59 83 37
0.231205 0.0170739 1.193 59 83 37
0.233057 0.0170739 1.193 62 85 41
0.235107 0.0170882 1.194 55 78 34
0.236961 0.0170882 1.194 46 65 27
0.238816 0.0170882 1.194 47 66 28
0.24067 0.0170882 1.194 48 67 29
0.242524 0.0170882 1.194 46 65 27
0.244174 0.0170739 1.193 43 60 27
0.245821 0.0170596 1.192 40 57 24
0.247672 0.0170596 1.192 35 52 19
0.249314 0.0170453 1.191 36 53 20
0.250953 0.017031 1.19 35 52 19
0.252801 0.017031 1.19 34 51 18
0.254221 0.0170024 1.188 34 50 19
0.25585 0.016988 1.187 34 50 19
0.257694 0.016988 1.187 35 51 20
0.259318 0.0169737 1.186 35 51 20
0.26094 0.0169594 1.185 33 49 18
0.262781 0.0169594 1.185 32 48 17
0.264398 0.0169451 1.184 32 47 19
0.266236 0.0169451 1.184 34 49 21
0.268075 0.0169451 1.184 35 50 22
0.269914 0.0169451 1.184 35 50 22
0.271753 0.0169451 1.184 35 50 22
0.273823 0.0169594 1.185 34 49 21
0.275663 0.0169594 1.185 33 48 20
0.277503 0.0169594 1.185 33 48 20
0.279344 0.0169594 1.185 33 48 20
0.281421 0.0169737 1.186 33 48 20
0.285345 0.016988 1.187 35 50 22
0.287189 0.016988 1.187 35 50 22
0.289276 0.0170024 1.188 35 50 22
0.290631 0.0169737 1.186 35 50 22
0.292226 0.0169594 1.185 36 51 23
0.293818 0.0169451 1.184 36 51 23
0.295158 0.0169165 1.182 34 49 21
0.296491 0.0168879 1.18 34 49 21
0.298071 0.0168735 1.179 34 49 21
0.299647 0.0168592 1.178 34 49 21
0.300965 0.0168306 1.176 34 49 21
0.302791 0.0168306 1.176 33 48 20
0.304359 0.0168163 1.175 34 49 21
0.306183 0.0168163 1.175 34 49 21
0.308008 0.0168163 1.175 35 50 22
0.310097 0.0168306 1.176 35 50 22
0.312188 0.0168449 1.177 35 50 22
0.314283 0.0168592 1.178 35 50 22
0.316381 0.0168735 1.179 36 51 23
0.318482 0.0168879 1.18 36 51 23
0.320586 0.0169022 1.181 38 53 25
0.322693 0.0169165 1.182 38 53 25
0.325352 0.0169594 1.185 39 54 26
0.327193 0.0169594 1.185 43 59 28
0.329588 0.016988 1.187 43 59 28
0.331711 0.0170024 1.188 45 64 32
0.333837 0.0170167 1.189 46 65 33
0.337814 0.017031 1.19 46 65 33
0.339947 0.0170453 1.191 46 65 33
0.341797 0.0170453 1.191 46 65 33
0.343935 0.0170596 1.192 47 65 36
0.345786 0.0170596 1.192 47 65 36
0.347638 0.0170596 1.192 47 65 38
0.349489 0.0170596 1.192 47 65 38
0.35134 0.0170596 1.192 46 66 39
0.353191 0.0170596 1.192 45 65 38
0.354447 0.017031 1.19 44 64 37
0.355995 0.0170167 1.189 36 56 29
0.357541 0.0170024 1.188 36 45 18
0.358781 0.0169737 1.186 54 63 36
0.360015 0.0169451 1.184 149 151 127
0.360937 0.0169022 1.181 114 116 92
0.361849 0.0168592 1.178 35 33 19
0.362135 0.0167877 1.173 42 40 26
0.362095 0.0167018 1.167 33 35 24
0.362348 0.0166302 1.162 56 58 47
0.360706 0.0164728 1.151 154 157 149
0.360919 0.0164013 1.146 160 163 155
0.361749 0.0163583 1.143 171 177 170
0.36257 0.0163154 1.14 175 181 174
0.363701 0.0162868 1.138 176 185 184
0.366111 0.0163154 1.14 97 106 105
0.369818 0.0164013 1.146 97 105 107
0.373543 0.0164871 1.152 100 108 110
-0.16658 0.0188654 1.189 11 26 6
-0.164872 0.0188813 1.19 11 26 6
-0.163024 0.0188813 1.19 13 28 8
-0.161176 0.0188813 1.19 15 30 10
-0.159328 0.0188813 1.19 16 32 10
-0.157612 0.0188972 1.191 17 33 11
-0.155763 0.0188972 1.191 17 33 11
-0.153913 0.0188972 1.191 17 33 11
-0.152191 0.018913 1.192 18 34 12
-0.15034 0.018913 1.192 19 35 13
-0.148488 0.018913 1.192 24 40 18
-0.146637 0.018913 1.192 24 40 18
-0.144908 0.0189289 1.193 24 40 18
-0.143055 0.0189289 1.193 24 40 18
-0.14132 0.0189448 1.194 25 41 19
-0.139466 0.0189448 1.194 23 39 17
-0.137727 0.0189606 1.195 23 39 17
-0.135871 0.0189606 1.195 22 38 16
-0.134015 0.0189606 1.195 22 38 16
-0.132159 0.0189606 1.195 20 36 14
-0.130194 0.0189448 1.194 20 36 14
-0.128448 0.0189606 1.195 13 29 7
-0.126486 0.0189448 1.194 16 31 11
-0.124527 0.0189289 1.193 17 32 12
-0.122674 0.0189289 1.193 18 33 13
-0.12072 0.018913 1.192 19 34 14
-0.118869 0.018913 1.192 16 31 11
-0.11692 0.0188972 1.191 13 28 8
-0.114973 0.0188813 1.19 10 25 5
-0.113125 0.0188813 1.19 10 25 5
-0.111277 0.0188813 1.19 10 25 5
-0.109429 0.0188813 1.19 6 21 1
-0.107581 0.0188813 1.19 6 20 3
-0.105733 0.0188813 1.19 10 24 7
-0.103885 0.0188813 1.19 14 25 9
-0.102122 0.0188972 1.191 14 25 9
-0.100273 0.0188972 1.191 11 22 6
-0.0985056 0.018913 1.192 11 22 6
-0.0967355 0.0189289 1.193 13 24 8
-0.0949623 0.0189448 1.194 12 23 7
-0.09303 0.0189289 1.193 13 24 8
-0.0912536 0.0189448 1.194 13 24 8
-0.0893244 0.0189289 1.193 13 24 8
-0.0876183 0.0189606 1.195 12 23 7
-0.0856907 0.0189448 1.194 12 23 7
-0.0839066 0.0189606 1.195 12 23 7
-0.0820507 0.0189606 1.195 13 24 8
-0.0801277 0.0189448 1.194 13 24 8
-0.0782078 0.0189289 1.193 13 24 8
-0.0763551 0.0189289 1.193 13 24 8
-0.0745023 0.0189289 1.193 13 24 8
-0.0725886 0.018913 1.192 12 23 7
-0.0707374 0.018913 1.192 12 23 9
-0.0688862 0.018913 1.192 13 24 10
-0.0669787 0.0188972 1.191 11 25 8
-0.0650744 0.0188813 1.19 12 26 9
-0.0631731 0.0188654 1.189 11 25 8
-0.0613266 0.0188654 1.189 11 25 8
-0.05948 0.0188654 1.189 11 25 10
-0.057585 0.0188496 1.188 11 25 10
-0.05574 0.0188496 1.188 11 25 10
-0.053895 0.0188496 1.188 11 25 10
-0.05205 0.0188496 1.188 11 25 10
-0.050205 0.0188496 1.188 11 25 10
-0.0484007 0.0188654 1.189 12 26 11
-0.0465933 0.0188813 1.19 13 27 12
-0.0447452 0.0188813 1.19 12 26 11
-0.0428971 0.0188813 1.19 12 26 11
-0.0410834 0.0188972 1.191 6 20 3
-0.0392667 0.018913 1.192 6 20 3
-0.0374155 0.018913 1.192 11 25 8
-0.0355643 0.018913 1.192 13 27 10
-0.0337131 0.018913 1.192 15 29 12
-0.0318619 0.018913 1.192 16 30 13
-0.0299855 0.0188972 1.191 16 30 13
-0.0281122 0.0188813 1.19 17 31 14
-0.0262641 0.0188813 1.19 17 32 12
-0.0243749 0.0188496 1.188 17 32 12
-0.0225299 0.0188496 1.188 15 30 10
-0.0206675 0.0188337 1.187 15 30 10
-0.018824 0.0188337 1.187 17 32 12
-0.0169663 0.0188178 1.186 18 33 13
-0.0151244 0.0188178 1.186 18 33 13
-0.0133049 0.0188496 1.188 18 33 13
-0.0114599 0.0188496 1.188 18 33 13
-0.00963107 0.0188813 1.19 18 33 13
-0.00778295 0.0188813 1.19 19 35 13
-0.00593484 0.0188813 1.19 20 36 14
-0.00409017 0.0188972 1.191 18 34 12
-0.00224239 0.018913 1.192 19 35 13
-0.000391169 0.018913 1.192 20 36 14
0.00146005 0.018913 1.192 22 38 16
0.00330849 0.0188972 1.191 22 39 14
0.00515382 0.0188813 1.19 23 40 15
0.00700193 0.0188813 1.19 23 40 15
0.0088426 0.0188654 1.189 22 39 14
0.0106802 0.0188496 1.188 20 37 12
0.0125252 0.0188496 1.188 22 39 14
0.0143702 0.0188496 1.188 24 41 16
0.0162015 0.0188337 1.187 24 41 16
0.018045 0.0188337 1.187 24 41 16
0.0198884 0.0188337 1.187 23 40 15
0.0217319 0.0188337 1.187 23 40 15
0.0235753 0.0188337 1.187 24 41 16
0.0254188 0.0188337 1.187 25 42 17
0.0272393 0.0188178 1.186 26 43 18
0.0290812 0.0188178 1.186 25 42 17
0.030897 0.018802 1.185 24 41 16
0.0327373 0.018802 1.185 24 41 16
0.0345485 0.0187861 1.184 24 41 16
0.0363566 0.0187702 1.183 26 43 18
0.0381615 0.0187544 1.182 27 44 19
0.0399972 0.0187544 1.182 27 44 19
0.0417975 0.0187385 1.181 27 44 19
0.0435947 0.0187226 1.18 27 44 19
0.0454273 0.0187226 1.18 25 42 17
0.0472198 0.0187068 1.179 25 42 17
0.0490508 0.0187068 1.179 23 40 15
0.0508819 0.0187068 1.179 25 42 17
0.0527576 0.0187226 1.18 24 41 16
0.0545902 0.0187226 1.18 25 42 17
0.0564228 0.0187226 1.18 26 43 18
0.0583541 0.0187544 1.182 26 43 18
0.0602407 0.0187702 1.183 27 44 19
0.0621829 0.018802 1.185 25 42 17
0.0640772 0.0188178 1.186 27 44 19
0.0659747 0.0188337 1.187 27 44 19
0.0679324 0.0188654 1.189 26 43 18
0.0698377 0.0188813 1.19 29 46 21
0.0718063 0.018913 1.192 29 46 21
0.0736575 0.018913 1.192 29 46 21
0.0755087 0.018913 1.192 30 47 22
0.0774248 0.0189289 1.193 29 46 21
0.0792776 0.0189289 1.193 29 46 21
0.0811304 0.0189289 1.193 30 47 22
0.0829136 0.018913 1.192 31 48 23
0.0847648 0.018913 1.192 31 49 22
0.0865433 0.0188972 1.191 32 50 23
0.0883188 0.0188813 1.19 33 48 22
0.0901669 0.0188813 1.19 33 48 22
0.0919377 0.0188654 1.189 32 47 19
0.0937054 0.0188496 1.188 33 48 20
0.0954699 0.0188337 1.187 36 51 23
0.0973134 0.0188337 1.187 38 53 25
0.0990733 0.0188178 1.186 34 53 21
0.10083 0.018802 1.185 34 53 21
0.10267 0.018802 1.185 37 56 24
0.104511 0.018802 1.185 37 56 24
0.106261 0.0187861 1.184 37 56 24
0.1081 0.0187861 1.184 37 56 24
0.109939 0.0187861 1.184 37 57 23
0.111778 0.0187861 1.184 39 59 25
0.113617 0.0187861 1.184 40 60 26
0.115455 0.0187861 1.184 41 61 27
0.117294 0.0187861 1.184 45 65 31
0.119133 0.0187861 1.184 50 70 36
0.120972 0.0187861 1.184 47 67 33
0.122914 0.018802 1.185 47 67 33
0.124755 0.018802 1.185 52 72 38
0.126595 0.018802 1.185 52 72 38
0.128435 0.018802 1.185 48 69 32
0.130276 0.018802 1.185 47 68 31
0.132116 0.018802 1.185 51 72 35
0.133956 0.018802 1.185 54 75 38
0.135911 0.0188178 1.186 55 76 39
0.137637 0.018802 1.185 54 75 38
0.139595 0.0188178 1.186 55 77 38
0.141437 0.0188178 1.186 57 79 40
0.1434 0.0188337 1.187 58 80 41
0.145365 0.0188496 1.188 57 79 40
0.147334 0.0188654 1.189 54 76 37
0.149432 0.0188972 1.191 52 74 35
0.151409 0.018913 1.192 53 75 36
0.15326 0.018913 1.192 55 77 38
0.155241 0.0189289 1.193 57 79 40
0.157094 0.0189289 1.193 57 79 40
0.15908 0.0189448 1.194 58 80 39
0.161069 0.0189606 1.195 58 80 39
0.162925 0.0189606 1.195 58 80 39
0.164781 0.0189606 1.195 55 77 36
0.166497 0.0189448 1.194 57 80 36
0.168352 0.0189448 1.194 54 77 33
0.170063 0.0189289 1.193 50 73 29
0.171916 0.0189289 1.193 51 74 30
0.173623 0.018913 1.192 58 81 37
0.175474 0.018913 1.192 59 82 38
0.177028 0.0188813 1.19 59 82 38
0.178876 0.0188813 1.19 59 82 38
0.180421 0.0188496 1.188 60 82 41
0.182112 0.0188337 1.187 64 86 45
0.183956 0.0188337 1.187 64 86 45
0.185643 0.0188178 1.186 64 86 45
0.187326 0.018802 1.185 64 86 45
0.189167 0.018802 1.185 64 86 45
0.191007 0.018802 1.185 60 82 41
0.192847 0.018802 1.185 65 87 46
0.194688 0.018802 1.185 66 88 47
0.196528 0.018802 1.185 65 87 46
0.198368 0.018802 1.185 66 89 45
0.200209 0.018802 1.185 67 90 46
0.202049 0.018802 1.185 66 89 45
0.203889 0.018802 1.185 66 89 45
0.205903 0.0188178 1.186 66 90 44
0.20792 0.0188337 1.187 65 89 43
0.209764 0.0188337 1.187 68 92 46
0.211607 0.0188337 1.187 68 92 46
0.213631 0.0188496 1.188 68 92 46
0.215657 0.0188654 1.189 69 93 47
0.217504 0.0188654 1.189 68 92 46
0.219535 0.0188813 1.19 67 91 45
0.221383 0.0188813 1.19 67 91 45
0.223231 0.0188813 1.19 62 86 40
0.225268 0.0188972 1.191 60 84 38
0.227308 0.018913 1.192 60 84 38
0.22916 0.018913 1.192 59 83 37
0.231011 0.018913 1.192 59 83 37
0.233057 0.0189289 1.193 59 82 38
0.23491 0.0189289 1.193 55 78 34
0.236763 0.0189289 1.193 48 70 29
0.238616 0.0189289 1.193 46 68 27
0.240469 0.0189289 1.193 47 69 30
0.242321 0.0189289 1.193 46 68 29
0.243969 0.018913 1.192 43 60 27
0.245821 0.018913 1.192 33 50 17
0.247672 0.018913 1.192 38 55 22
0.249314 0.0188972 1.191 35 52 19
0.250953 0.0188813 1.19 34 50 19
0.252801 0.0188813 1.19 33 49 18
0.254435 0.0188654 1.189 34 50 19
0.256066 0.0188496 1.188 35 51 20
0.257694 0.0188337 1.187 35 50 22
0.259318 0.0188178 1.186 34 49 21
0.26116 0.0188178 1.186 34 49 21
0.262781 0.018802 1.185 31 46 18
0.264621 0.018802 1.185 33 48 20
0.266461 0.018802 1.185 33 48 20
0.268302 0.018802 1.185 34 49 21
0.270142 0.018802 1.185 34 49 21
0.274054 0.0188178 1.186 35 50 22
0.275896 0.0188178 1.186 34 49 21
0.277972 0.0188337 1.187 33 48 20
0.279815 0.0188337 1.187 33 48 20
0.281659 0.0188337 1.187 32 47 19
0.283741 0.0188496 1.188 32 47 19
0.285586 0.0188496 1.188 33 48 20
0.287673 0.0188654 1.189 33 48 20
0.289276 0.0188496 1.188 33 48 20
0.291366 0.0188654 1.189 33 48 20
0.292473 0.0188178 1.186 33 48 20
0.294066 0.018802 1.185 34 49 21
0.295407 0.0187702 1.183 33 48 20
0.296993 0.0187544 1.182 34 49 21
0.298323 0.0187226 1.18 35 50 22
0.299647 0.0186909 1.178 35 50 22
0.301221 0.018675 1.177 35 50 22
0.302534 0.0186433 1.175 34 49 21
0.304359 0.0186433 1.175 34 49 21
0.306183 0.0186433 1.175 33 48 20
0.308008 0.0186433 1.175 34 49 21
0.309833 0.0186433 1.175 35 50 22
0.311923 0.0186592 1.176 35 50 22
0.314283 0.0186909 1.178 35 50 22
0.316112 0.0186909 1.178 35 50 22
0.318482 0.0187226 1.18 36 51 23
0.320586 0.0187385 1.181 38 53 25
0.322693 0.0187544 1.182 38 53 25
0.325352 0.018802 1.185 43 58 30
0.327193 0.018802 1.185 43 59 28
0.329588 0.0188337 1.187 45 61 30
0.331432 0.0188337 1.187 44 63 31
0.333837 0.0188654 1.189 46 65 33
0.337814 0.0188813 1.19 47 66 34
0.339662 0.0188813 1.19 46 65 33
0.34151 0.0188813 1.19 46 65 33
0.343647 0.0188972 1.191 47 65 36
0.345496 0.0188972 1.191 47 65 36
0.347346 0.0188972 1.191 47 65 38
0.349196 0.0188972 1.191 47 65 38
0.35075 0.0188813 1.19 50 68 41
0.352599 0.0188813 1.19 48 66 39
0.354149 0.0188654 1.189 48 66 39
0.355696 0.0188496 1.188 40 58 31
0.35724 0.0188337 1.187 39 46 19
0.358478 0.018802 1.185 50 57 30
0.359711 0.0187702 1.183 148 150 126
0.360631 0.0187226 1.18 110 112 88
0.361849 0.0186909 1.178 37 35 21
0.362135 0.0186116 1.173 43 41 27
0.362405 0.0185322 1.168 36 37 24
0.362348 0.018437 1.162 57 58 45
0.360706 0.0182625 1.151 155 159 148
0.361234 0.018199 1.147 160 164 153
0.362065 0.0181514 1.144 171 177 170
0.36257 0.018088 1.14 176 182 175
0.364021 0.0180721 1.139 174 183 182
0.366432 0.0181038 1.141 98 107 106
0.37014 0.018199 1.147 100 108 110
0.373543 0.0182784 1.152 105 113 115
-0.16644 0.0206967 1.188 8 19 3
-0.164734 0.0207142 1.189 6 17 1
-0.163024 0.0207316 1.19 6 17 1
-0.161176 0.0207316 1.19 10 21 5
-0.159328 0.0207316 1.19 12 24 5
-0.15748 0.0207316 1.19 11 23 4
-0.155632 0.0207316 1.19 10 22 3
-0.153784 0.0207316 1.19 14 26 7
-0.152063 0.020749 1.191 15 28 7
-0.150214 0.020749 1.191 17 30 9
-0.148488 0.0207664 1.192 18 31 10
-0.146637 0.0207664 1.192 24 37 16
-0.144786 0.0207664 1.192 17 30 9
-0.142935 0.0207664 1.192 18 31 10
-0.141202 0.0207839 1.193 21 34 13
-0.139466 0.0208013 1.194 24 37 16
-0.137612 0.0208013 1.194 25 38 17
-0.135757 0.0208013 1.194 28 41 20
-0.134015 0.0208187 1.195 28 41 20
-0.132159 0.0208187 1.195 26 39 18
-0.130194 0.0208013 1.194 25 37 18
-0.128448 0.0208187 1.195 18 30 11
-0.126486 0.0208013 1.194 17 29 10
-0.124527 0.0207839 1.193 15 27 8
-0.122674 0.0207839 1.193 14 26 7
-0.12072 0.0207664 1.192 13 25 6
-0.118869 0.0207664 1.192 13 25 6
-0.11692 0.020749 1.191 12 24 5
-0.114973 0.0207316 1.19 12 23 7
-0.113125 0.0207316 1.19 10 21 5
-0.111277 0.0207316 1.19 11 22 6
-0.109429 0.0207316 1.19 10 21 5
-0.107581 0.0207316 1.19 8 19 3
-0.105733 0.0207316 1.19 11 22 6
-0.103885 0.0207316 1.19 11 22 6
-0.102122 0.020749 1.191 11 22 6
-0.100357 0.0207664 1.192 10 21 5
-0.0985056 0.0207664 1.192 11 22 6
-0.0968166 0.0208013 1.194 11 22 6
-0.0949623 0.0208013 1.194 11 22 6
-0.093108 0.0208013 1.194 12 23 7
-0.0913301 0.0208187 1.195 12 23 7
-0.0894742 0.0208187 1.195 11 22 6
-0.0876183 0.0208187 1.195 12 23 7
-0.0857624 0.0208187 1.195 11 22 6
-0.0839066 0.0208187 1.195 12 23 7
-0.0820507 0.0208187 1.195 13 24 8
-0.0801948 0.0208187 1.195 13 24 8
-0.0782734 0.0208013 1.194 13 24 8
-0.0764191 0.0208013 1.194 12 23 7
-0.0745647 0.0208013 1.194 13 24 8
-0.0726495 0.0207839 1.193 13 24 8
-0.0707374 0.0207664 1.192 13 24 10
-0.0688862 0.0207664 1.192 13 24 10
-0.067035 0.0207664 1.192 10 24 9
-0.0651291 0.020749 1.191 12 26 11
-0.0632263 0.0207316 1.19 12 26 11
-0.0613782 0.0207316 1.19 11 25 10
-0.05953 0.0207316 1.19 11 25 10
-0.0576819 0.0207316 1.19 11 25 10
-0.0558338 0.0207316 1.19 12 26 11
-0.0539857 0.0207316 1.19 12 26 11
-0.0521376 0.0207316 1.19 12 26 11
-0.0502895 0.0207316 1.19 12 26 11
-0.0484414 0.0207316 1.19 11 25 10
-0.0465933 0.0207316 1.19 11 25 10
-0.0447828 0.020749 1.191 11 25 10
-0.0429692 0.0207664 1.192 11 25 10
-0.0411179 0.0207664 1.192 10 24 9
-0.0392667 0.0207664 1.192 10 24 9
-0.0374155 0.0207664 1.192 11 25 10
-0.0355643 0.0207664 1.192 12 26 11
-0.0337414 0.0207839 1.193 13 27 12
-0.0318619 0.0207664 1.192 15 29 14
-0.0300106 0.0207664 1.192 16 30 13
-0.0281122 0.0207316 1.19 16 30 13
-0.0262641 0.0207316 1.19 16 30 13
-0.0243954 0.0207142 1.189 16 30 13
-0.0225109 0.0206793 1.187 13 27 10
-0.0206675 0.0206793 1.187 15 29 12
-0.0188082 0.0206619 1.186 16 30 13
-0.0169663 0.0206619 1.186 17 31 14
-0.0151244 0.0206619 1.186 18 32 15
-0.0132937 0.0206793 1.187 17 31 14
-0.0114599 0.0206967 1.188 17 32 12
-0.00963107 0.0207316 1.19 17 32 12
-0.00778295 0.0207316 1.19 17 32 12
-0.00593983 0.020749 1.191 18 33 13
-0.00409017 0.020749 1.191 17 33 11
-0.00224239 0.0207664 1.192 18 34 12
-0.000391169 0.0207664 1.192 19 35 13
0.00146005 0.0207664 1.192 19 35 13
0.00330849 0.020749 1.191 19 35 13
0.00515382 0.0207316 1.19 19 35 13
0.00700193 0.0207316 1.19 19 35 13
0.00885004 0.0207316 1.19 20 36 14
0.0106982 0.0207316 1.19 19 35 13
0.0125357 0.0207142 1.189 22 38 16
0.0143823 0.0207142 1.189 24 40 18
0.0162152 0.0206967 1.188 23 39 17
0.0180602 0.0206967 1.188 23 39 17
0.0198884 0.0206793 1.187 23 39 17
0.0217502 0.0206967 1.188 24 40 18
0.0235753 0.0206793 1.187 24 40 18
0.0254188 0.0206793 1.187 24 40 18
0.0272622 0.0206793 1.187 25 41 19
0.0290812 0.0206619 1.186 25 42 17
0.030897 0.0206445 1.185 25 42 17
0.0327373 0.0206445 1.185 26 43 18
0.0345777 0.0206445 1.185 25 42 17
0.0363873 0.0206271 1.184 26 43 18
0.0381615 0.0205922 1.182 26 43 18
0.0399972 0.0205922 1.182 26 43 18
0.0418329 0.0205922 1.182 26 43 18
0.0436316 0.0205748 1.181 26 43 18
0.0454273 0.0205574 1.18 25 42 17
0.0472599 0.0205574 1.18 25 42 17
0.0490924 0.0205574 1.18 24 41 16
0.050925 0.0205574 1.18 25 42 17
0.0527576 0.0205574 1.18 24 41 16
0.0545902 0.0205574 1.18 24 41 16
0.0565184 0.0205922 1.182 26 43 18
0.0583541 0.0205922 1.182 26 43 18
0.0602916 0.0206271 1.184 27 44 19
0.0621829 0.0206445 1.185 26 43 18
0.0641313 0.0206793 1.187 27 44 19
0.0660303 0.0206967 1.188 29 46 21
0.0679896 0.0207316 1.19 27 44 19
0.0698377 0.0207316 1.19 27 44 19
0.0718063 0.0207664 1.192 27 44 19
0.0736575 0.0207664 1.192 27 44 19
0.0755087 0.0207664 1.192 29 46 21
0.0774248 0.0207839 1.193 27 44 19
0.0792776 0.0207839 1.193 29 46 21
0.0810624 0.0207664 1.192 27 44 19
0.0829136 0.0207664 1.192 30 47 22
0.0846937 0.020749 1.191 31 49 22
0.0865433 0.020749 1.191 31 49 22
0.0883188 0.0207316 1.19 31 49 22
0.0901669 0.0207316 1.19 31 49 22
0.0919377 0.0207142 1.189 31 49 20
0.0936265 0.0206793 1.187 31 49 20
0.0954699 0.0206793 1.187 32 50 21
0.0973134 0.0206793 1.187 33 51 22
0.0989898 0.0206445 1.185 34 52 23
0.10083 0.0206445 1.185 36 54 25
0.10267 0.0206445 1.185 37 56 24
0.104511 0.0206445 1.185 37 56 24
0.106261 0.0206271 1.184 39 58 26
0.1081 0.0206271 1.184 38 57 25
0.109939 0.0206271 1.184 37 57 23
0.111778 0.0206271 1.184 38 58 24
0.113617 0.0206271 1.184 39 59 25
0.115553 0.0206445 1.185 44 64 30
0.117393 0.0206445 1.185 48 68 34
0.119234 0.0206445 1.185 50 70 36
0.121074 0.0206445 1.185 52 72 38
0.122914 0.0206445 1.185 52 72 38
0.12486 0.0206619 1.186 47 67 33
0.126702 0.0206619 1.186 48 68 34
0.128544 0.0206619 1.186 48 69 32
0.130386 0.0206619 1.186 46 67 30
0.132227 0.0206619 1.186 44 65 28
0.134069 0.0206619 1.186 46 67 30
0.136026 0.0206793 1.187 41 62 25
0.137753 0.0206619 1.186 40 61 24
0.139713 0.0206793 1.187 40 62 23
0.141437 0.0206619 1.186 43 65 26
0.1434 0.0206793 1.187 46 68 29
0.145365 0.0206967 1.188 51 73 34
0.147334 0.0207142 1.189 51 73 34
0.149306 0.0207316 1.19 51 73 34
0.151282 0.020749 1.191 48 70 31
0.15326 0.0207664 1.192 52 74 35
0.155241 0.0207839 1.193 54 76 37
0.157094 0.0207839 1.193 55 77 38
0.15908 0.0208013 1.194 57 79 40
0.160934 0.0208013 1.194 57 79 40
0.162789 0.0208013 1.194 57 79 38
0.164643 0.0208013 1.194 57 79 38
0.166497 0.0208013 1.194 58 80 39
0.168211 0.0207839 1.193 58 80 39
0.170063 0.0207839 1.193 57 80 36
0.171772 0.0207664 1.192 61 84 40
0.173623 0.0207664 1.192 61 84 40
0.175327 0.020749 1.191 60 83 39
0.177028 0.0207316 1.19 59 81 40
0.178576 0.0206967 1.188 60 82 41
0.180269 0.0206793 1.187 64 86 45
0.182112 0.0206793 1.187 64 86 45
0.183646 0.0206445 1.185 64 86 45
0.185486 0.0206445 1.185 65 87 46
0.187168 0.0206271 1.184 65 87 46
0.188847 0.0206096 1.183 66 88 47
0.190685 0.0206096 1.183 66 88 47
0.192522 0.0206096 1.183 67 89 48
0.194359 0.0206096 1.183 68 90 49
0.196196 0.0206096 1.183 66 88 47
0.198034 0.0206096 1.183 68 91 47
0.20004 0.0206271 1.184 67 90 46
0.201879 0.0206271 1.184 67 90 46
0.203889 0.0206445 1.185 67 90 46
0.20573 0.0206445 1.185 68 92 46
0.207745 0.0206619 1.186 68 92 46
0.209764 0.0206793 1.187 68 92 46
0.211607 0.0206793 1.187 68 92 46
0.213631 0.0206967 1.188 68 92 46
0.215476 0.0206967 1.188 68 92 46
0.217504 0.0207142 1.189 68 92 46
0.219535 0.0207316 1.19 68 92 46
0.221383 0.0207316 1.19 72 96 50
0.223231 0.0207316 1.19 60 84 38
0.225268 0.020749 1.191 55 79 33
0.227308 0.0207664 1.192 60 84 38
0.22916 0.0207664 1.192 60 84 38
0.231011 0.0207664 1.192 58 82 36
0.232862 0.0207664 1.192 52 75 31
0.234713 0.0207664 1.192 54 77 33
0.236763 0.0207839 1.193 52 75 31
0.238616 0.0207839 1.193 53 76 32
0.240469 0.0207839 1.193 53 71 35
0.242118 0.0207664 1.192 48 66 30
0.243969 0.0207664 1.192 46 64 28
0.245821 0.0207664 1.192 41 59 23
0.247464 0.020749 1.191 48 66 30
0.249314 0.020749 1.191 36 54 18
0.250953 0.0207316 1.19 34 50 19
0.252801 0.0207316 1.19 33 49 18
0.254435 0.0207142 1.189 34 50 19
0.256066 0.0206967 1.188 34 50 19
0.257694 0.0206793 1.187 34 49 21
0.259537 0.0206793 1.187 35 50 22
0.26116 0.0206619 1.186 36 51 23
0.263224 0.0206793 1.187 36 51 23
0.265067 0.0206793 1.187 36 51 23
0.266911 0.0206793 1.187 35 50 22
0.268754 0.0206793 1.187 35 50 22
0.270598 0.0206793 1.187 35 50 22
0.272441 0.0206793 1.187 35 50 22
0.274285 0.0206793 1.187 35 50 22
0.276361 0.0206967 1.188 35 50 22
0.27844 0.0207142 1.189 34 49 21
0.280522 0.0207316 1.19 34 49 21
0.28237 0.0207316 1.19 34 49 21
0.284219 0.0207316 1.19 34 49 21
0.286067 0.0207316 1.19 34 49 21
0.287915 0.0207316 1.19 33 48 20
0.289763 0.0207316 1.19 33 48 20
0.291366 0.0207142 1.189 33 48 20
0.292966 0.0206967 1.188 33 48 20
0.294066 0.0206445 1.185 34 49 21
0.295407 0.0206096 1.183 34 49 21
0.296993 0.0205922 1.182 34 49 21
0.298323 0.0205574 1.18 35 50 22
0.299902 0.02054 1.179 34 49 21
0.301477 0.0205225 1.178 35 50 22
0.302791 0.0204877 1.176 35 50 22
0.304359 0.0204703 1.175 34 49 21
0.306183 0.0204703 1.175 34 49 21
0.308008 0.0204703 1.175 34 49 21
0.310097 0.0204877 1.176 35 50 22
0.311923 0.0204877 1.176 35 50 22
0.314016 0.0205051 1.177 35 50 22
0.316381 0.02054 1.179 35 50 22
0.318482 0.0205574 1.18 32 47 19
0.320857 0.0205922 1.182 34 49 21
0.322693 0.0205922 1.182 38 53 25
0.325078 0.0206271 1.184 45 60 32
0.327193 0.0206445 1.185 43 59 28
0.329311 0.0206619 1.186 45 61 30
0.331432 0.0206793 1.187 45 61 30
0.333556 0.0206967 1.188 45 61 30
0.335683 0.0207142 1.189 44 63 31
0.339662 0.0207316 1.19 46 65 33
0.34151 0.0207316 1.19 46 65 33
0.343358 0.0207316 1.19 46 64 35
0.345206 0.0207316 1.19 47 65 36
0.347054 0.0207316 1.19 47 65 38
0.348902 0.0207316 1.19 47 65 38
0.35075 0.0207316 1.19 50 68 41
0.352302 0.0207142 1.189 48 66 39
0.353851 0.0206967 1.188 48 66 39
0.355397 0.0206793 1.187 43 61 34
0.356939 0.0206619 1.186 40 47 20
0.358478 0.0206445 1.185 49 56 29
0.359407 0.0205922 1.182 143 147 124
0.360937 0.0205748 1.181 107 111 88
0.362156 0.02054 1.179 38 36 22
0.362444 0.0204528 1.174 44 42 28
0.362405 0.0203483 1.168 36 39 26
0.362348 0.0202438 1.162 56 59 46
0.360706 0.0200522 1.151 157 160 152
0.361234 0.0199825 1.147 162 165 157
0.362065 0.0199302 1.144 170 176 169
0.36257 0.0198605 1.14 177 183 176
0.364021 0.0198431 1.139 174 182 184
0.366432 0.0198779 1.141 98 106 108
0.37014 0.0199825 1.147 102 110 112
0.373543 0.0200696 1.152 107 115 117
-0.1663 0.022525 1.187 8 19 3
-0.164595 0.0225439 1.188 7 18 2
-0.16275 0.0225439 1.188 8 19 5
-0.161041 0.0225629 1.189 8 19 5
-0.159194 0.0225629 1.189 5 16 0
-0.157348 0.0225629 1.189 4 15 0
-0.155501 0.0225629 1.189 6 18 0
-0.153784 0.0225819 1.19 8 20 1
-0.151936 0.0225819 1.19 15 27 8
-0.150087 0.0225819 1.19 17 29 10
-0.148239 0.0225819 1.19 15 27 8
-0.146514 0.0226009 1.191 21 33 14
-0.144665 0.0226009 1.191 14 26 7
-0.142935 0.0226199 1.192 11 23 4
-0.141084 0.0226199 1.192 17 29 10
-0.139349 0.0226388 1.193 19 31 12
-0.137496 0.0226388 1.193 21 33 14
-0.135757 0.0226578 1.194 21 33 14
-0.133903 0.0226578 1.194 19 31 12
-0.132049 0.0226578 1.194 18 30 11
-0.130194 0.0226578 1.194 20 32 13
-0.12834 0.0226578 1.194 19 31 12
-0.126486 0.0226578 1.194 14 26 7
-0.124527 0.0226388 1.193 11 23 4
-0.122571 0.0226199 1.192 8 20 1
-0.12072 0.0226199 1.192 7 19 0
-0.118769 0.0226009 1.191 11 22 6
-0.116821 0.0225819 1.19 10 21 5
-0.114973 0.0225819 1.19 10 21 5
-0.113125 0.0225819 1.19 8 19 3
-0.111277 0.0225819 1.19 10 21 7
-0.109429 0.0225819 1.19 10 21 7
-0.107581 0.0225819 1.19 10 21 7
-0.105733 0.0225819 1.19 10 21 7
-0.103885 0.0225819 1.19 8 19 5
-0.102122 0.0226009 1.191 8 19 5
-0.100357 0.0226199 1.192 8 19 5
-0.0985056 0.0226199 1.192 11 22 8
-0.0968166 0.0226578 1.194 10 21 7
-0.0949623 0.0226578 1.194 10 21 7
-0.0931859 0.0226768 1.195 10 21 7
-0.0913301 0.0226768 1.195 10 21 7
-0.0894742 0.0226768 1.195 11 22 8
-0.0876183 0.0226768 1.195 11 22 8
-0.0857624 0.0226768 1.195 11 22 8
-0.0839066 0.0226768 1.195 12 23 9
-0.081982 0.0226578 1.194 12 23 9
-0.0801948 0.0226768 1.195 12 23 9
-0.0782734 0.0226578 1.194 12 23 9
-0.0763551 0.0226388 1.193 12 23 9
-0.0745647 0.0226578 1.194 13 24 10
-0.0726495 0.0226388 1.193 13 24 10
-0.0707374 0.0226199 1.192 13 24 10
-0.0688862 0.0226199 1.192 13 24 10
-0.067035 0.0226199 1.192 13 24 10
-0.0651838 0.0226199 1.192 14 25 11
-0.0633325 0.0226199 1.192 14 25 11
-0.0614813 0.0226199 1.192 13 24 10
-0.0595801 0.0226009 1.191 12 22 10
-0.0577789 0.0226199 1.192 12 22 10
-0.0558807 0.0226009 1.191 14 24 12
-0.0540311 0.0226009 1.191 14 24 12
-0.0521814 0.0226009 1.191 11 24 11
-0.0485228 0.0226199 1.192 11 24 11
-0.0466716 0.0226199 1.192 10 23 10
-0.0448204 0.0226199 1.192 11 25 10
-0.0429692 0.0226199 1.192 11 25 10
-0.0411179 0.0226199 1.192 11 25 10
-0.0392997 0.0226388 1.193 11 25 10
-0.0374155 0.0226199 1.192 11 25 10
-0.0355941 0.0226388 1.193 11 25 10
-0.0337414 0.0226388 1.193 12 26 11
-0.0318886 0.0226388 1.193 12 26 11
-0.0300106 0.0226199 1.192 12 26 11
-0.0281358 0.0226009 1.191 12 26 11
-0.0262641 0.0225819 1.19 13 27 12
-0.0243954 0.0225629 1.189 13 27 12
-0.0225299 0.0225439 1.188 13 27 10
-0.0206675 0.022525 1.187 13 27 10
-0.018824 0.022525 1.187 13 27 10
-0.0169806 0.022525 1.187 15 29 12
-0.0151371 0.022525 1.187 16 30 13
-0.0133049 0.0225439 1.188 16 30 13
-0.0114695 0.0225629 1.189 17 32 12
-0.00963107 0.0225819 1.19 17 32 12
-0.00778295 0.0225819 1.19 17 32 12
-0.00593983 0.0226009 1.191 18 33 13
-0.0040936 0.0226199 1.192 18 34 12
-0.00224239 0.0226199 1.192 18 34 12
-0.000391169 0.0226199 1.192 18 34 12
0.00146005 0.0226199 1.192 18 34 12
0.00331126 0.0226199 1.192 19 35 13
0.00515815 0.0226009 1.191 20 36 14
0.00700193 0.0225819 1.19 20 36 14
0.00885004 0.0225819 1.19 20 36 14
0.0106982 0.0225819 1.19 20 36 14
0.0125463 0.0225819 1.19 20 36 14
0.0143944 0.0225819 1.19 22 38 16
0.0162288 0.0225629 1.189 22 38 16
0.0180754 0.0225629 1.189 22 38 16
0.0199219 0.0225629 1.189 23 39 17
0.0217685 0.0225629 1.189 24 40 18
0.0235753 0.022525 1.187 23 39 17
0.0254188 0.022525 1.187 24 40 18
0.0272622 0.022525 1.187 24 40 18
0.0290812 0.022506 1.186 24 41 16
0.030897 0.022487 1.185 24 41 16
0.0327373 0.022487 1.185 25 42 17
0.0345485 0.022468 1.184 24 41 16
0.0363873 0.022468 1.184 25 42 17
0.0381938 0.0224491 1.183 26 43 18
0.0399972 0.0224301 1.182 26 43 18
0.0418329 0.0224301 1.182 26 43 18
0.0436686 0.0224301 1.182 26 43 18
0.0455043 0.0224301 1.182 25 42 17
0.04734 0.0224301 1.182 26 43 18
0.0491756 0.0224301 1.182 26 43 18
0.0510113 0.0224301 1.182 26 43 18
0.052847 0.0224301 1.182 25 42 17
0.0546827 0.0224301 1.182 26 43 18
0.0565662 0.0224491 1.183 29 46 21
0.0584528 0.022468 1.184 26 43 18
0.0603425 0.022487 1.185 27 44 19
0.0622353 0.022506 1.186 27 44 19
0.0641313 0.022525 1.187 26 43 18
0.0660859 0.0225629 1.189 29 46 21
0.0679896 0.0225819 1.19 27 44 19
0.0698377 0.0225819 1.19 27 44 19
0.0718063 0.0226199 1.192 27 44 19
0.0736575 0.0226199 1.192 29 46 21
0.0755087 0.0226199 1.192 30 47 22
0.0773599 0.0226199 1.192 29 46 21
0.0792111 0.0226199 1.192 29 46 21
0.0810624 0.0226199 1.192 27 44 19
0.082844 0.0226009 1.191 27 44 19
0.0846937 0.0226009 1.191 30 48 21
0.0864707 0.0225819 1.19 30 48 21
0.0883188 0.0225819 1.19 30 48 21
0.0900911 0.0225629 1.189 30 48 21
0.0918604 0.0225439 1.188 32 47 19
0.0936265 0.022525 1.187 33 48 20
0.0954699 0.022525 1.187 34 49 21
0.0972314 0.022506 1.186 35 50 22
0.0989898 0.022487 1.185 36 51 23
0.10083 0.022487 1.185 38 53 25
0.10267 0.022487 1.185 38 53 25
0.104511 0.022487 1.185 38 53 25
0.106351 0.022487 1.185 41 57 26
0.108192 0.022487 1.185 45 61 30
0.110032 0.022487 1.185 41 57 26
0.111872 0.022487 1.185 41 57 26
0.113713 0.022487 1.185 40 57 24
0.115553 0.022487 1.185 43 60 27
0.117393 0.022487 1.185 40 60 26
0.119334 0.022506 1.186 39 59 25
0.121176 0.022506 1.186 41 61 27
0.123122 0.022525 1.187 43 63 29
0.124965 0.022525 1.187 45 65 31
0.126809 0.022525 1.187 41 61 27
0.128652 0.022525 1.187 40 60 26
0.130496 0.022525 1.187 43 63 29
0.132339 0.022525 1.187 44 65 28
0.134182 0.022525 1.187 45 66 29
0.136026 0.022525 1.187 44 65 28
0.137869 0.022525 1.187 44 65 28
0.139713 0.022525 1.187 41 62 25
0.141437 0.022506 1.186 48 69 32
0.143279 0.022506 1.186 48 70 31
0.145243 0.022525 1.187 50 72 33
0.147334 0.0225629 1.189 51 73 34
0.149181 0.0225629 1.189 50 72 33
0.151155 0.0225819 1.19 51 73 34
0.153131 0.0226009 1.191 52 74 35
0.155111 0.0226199 1.192 52 74 35
0.156962 0.0226199 1.192 60 82 43
0.158947 0.0226388 1.193 57 79 40
0.160799 0.0226388 1.193 55 77 38
0.162652 0.0226388 1.193 55 77 36
0.164505 0.0226388 1.193 58 80 39
0.166358 0.0226388 1.193 57 79 38
0.168211 0.0226388 1.193 58 80 39
0.169921 0.0226199 1.192 58 81 37
0.171772 0.0226199 1.192 60 83 39
