ply
format ascii 1.0
comment Created by Open3D
element vertex 1351
property double x
property double y
property double z
property uchar red
property uchar green
property uchar blue
end_header
0.356638 0.0998734 1.185 63 70 43
0.358478 0.0998734 1.185 64 71 44
0.360319 0.0998734 1.185 129 134 109
0.362159 0.0998734 1.185 111 116 91
0.364 0.0998734 1.185 58 57 40
0.364914 0.0996205 1.182 68 67 50
0.364267 0.0989463 1.174 55 60 45
0.359029 0.0960807 1.14 219 228 212
0.358584 0.0954908 1.133 194 203 187
0.360344 0.0954908 1.133 234 243 227
0.362423 0.095575 1.134 244 248 248
0.363863 0.0954908 1.133 139 143 143
0.366591 0.0957436 1.136 102 108 107
0.371273 0.0965021 1.145 112 118 117
-0.16602 0.101716 1.185 12 23 9
-0.164457 0.101888 1.187 11 22 8
-0.162887 0.102059 1.189 18 29 13
-0.161312 0.102231 1.191 19 30 14
-0.159596 0.102317 1.192 18 29 13
-0.157877 0.102403 1.193 19 30 14
-0.156024 0.102403 1.193 19 30 14
-0.154171 0.102403 1.193 20 31 15
-0.152191 0.102317 1.192 20 32 13
-0.15034 0.102317 1.192 20 32 13
-0.148364 0.102231 1.191 20 32 13
-0.146391 0.102145 1.19 21 33 14
-0.144422 0.102059 1.189 28 40 21
-0.142335 0.101888 1.187 27 39 20
-0.140373 0.101802 1.186 26 38 19
-0.138415 0.101716 1.185 27 39 20
-0.136344 0.101544 1.183 26 38 19
-0.134166 0.101287 1.18 26 38 19
-0.132109 0.101115 1.178 25 37 18
-0.130279 0.101115 1.178 25 37 18
-0.128341 0.101029 1.177 24 36 17
-0.126298 0.100858 1.175 24 36 17
-0.124473 0.100858 1.175 24 36 17
-0.122439 0.100686 1.173 24 36 17
-0.120515 0.1006 1.172 25 36 20
-0.118492 0.100428 1.17 24 35 19
-0.116476 0.100257 1.168 18 29 15
-0.114269 0.0999134 1.164 25 36 22
-0.112268 0.0997417 1.162 45 56 48
-0.110083 0.0993983 1.158 66 77 69
-0.108098 0.0992267 1.156 73 83 85
-0.106119 0.099055 1.154 73 83 85
-0.103874 0.0986258 1.149 65 79 89
-0.10209 0.0986258 1.149 58 72 82
-0.100305 0.0986258 1.149 49 65 82
-0.098521 0.0986258 1.149 65 81 98
-0.0968208 0.0987116 1.15 71 95 117
-0.0949522 0.0986258 1.149 70 94 116
-0.0931677 0.0986258 1.149 60 89 115
-0.0913038 0.09854 1.148 63 92 118
-0.0894429 0.0984541 1.147 57 91 123
-0.0874323 0.0981966 1.144 54 88 120
-0.0855059 0.098025 1.142 45 80 121
-0.083439 0.0976816 1.138 40 75 116
-0.0813128 0.0972524 1.133 35 75 122
-0.0793426 0.0969949 1.13 37 77 124
-0.0773817 0.0967374 1.127 33 76 127
-0.075363 0.0963941 1.123 34 77 128
-0.0732912 0.0959649 1.118 30 77 130
-0.0714269 0.0957932 1.116 31 78 131
-0.0696312 0.0957074 1.115 39 88 142
-0.0678996 0.0957074 1.115 41 90 144
-0.0660493 0.0955357 1.113 41 91 148
-0.0643207 0.0955357 1.113 39 89 146
-0.0624797 0.095364 1.111 34 87 143
-0.060809 0.0954499 1.112 44 97 153
-0.0590289 0.095364 1.111 53 106 162
-0.0573035 0.095364 1.111 47 100 156
-0.0555781 0.095364 1.111 32 86 144
-0.0538526 0.095364 1.111 33 87 145
-0.0521741 0.0954499 1.112 33 88 149
-0.0504925 0.0955357 1.113 42 97 158
-0.048764 0.0955357 1.113 49 106 169
-0.0470777 0.0956215 1.114 49 106 169
-0.0453884 0.0957074 1.115 47 106 169
-0.0436959 0.0957932 1.116 50 109 172
-0.0419627 0.0957932 1.116 50 109 173
-0.0402295 0.0957932 1.116 40 99 163
-0.0385308 0.0958791 1.117 36 98 161
-0.0367631 0.0957932 1.116 42 104 167
-0.0350299 0.0957932 1.116 43 106 172
-0.0332968 0.0957932 1.116 44 107 173
-0.0315353 0.0957074 1.115 43 110 177
-0.0297769 0.0956215 1.114 47 114 181
-0.0280217 0.0955357 1.113 43 112 179
-0.0262931 0.0955357 1.113 38 107 174
-0.0245205 0.095364 1.111 33 106 175
-0.0227745 0.0952782 1.11 37 110 179
-0.0210317 0.0951924 1.109 42 119 190
-0.0192746 0.0950207 1.107 44 121 192
-0.0175395 0.0949349 1.106 39 119 187
-0.0157932 0.0947632 1.104 41 121 189
-0.0140532 0.0945915 1.102 60 135 204
-0.0123305 0.0945057 1.101 66 141 210
-0.0106014 0.094334 1.099 87 151 213
-0.00888648 0.0942482 1.098 108 172 234
-0.00717471 0.0941623 1.097 130 176 224
-0.00546105 0.0939907 1.095 114 160 208
-0.00375705 0.0939048 1.094 119 152 186
-0.00205803 0.0939048 1.094 118 151 185
-0.000359009 0.0939048 1.094 130 156 183
0.00134001 0.0939048 1.094 141 167 194
0.00303903 0.0939048 1.094 158 183 202
0.00473805 0.0939048 1.094 173 198 217
0.00643118 0.093819 1.093 182 204 224
0.00812865 0.093819 1.093 184 206 226
0.00983511 0.0939048 1.094 186 208 228
0.0115341 0.0939048 1.094 185 207 227
0.0132331 0.0939048 1.094 168 190 208
0.0149322 0.0939048 1.094 170 192 210
0.016616 0.093819 1.093 173 194 210
0.0182967 0.0937331 1.092 176 197 213
0.0199926 0.0937331 1.092 195 216 232
0.0216885 0.0937331 1.092 194 215 231
0.0233844 0.0937331 1.092 194 216 229
0.0250803 0.0937331 1.092 199 221 234
0.0267517 0.0936473 1.091 202 221 235
0.0284461 0.0936473 1.091 219 238 252
0.0301405 0.0936473 1.091 237 254 255
0.0318348 0.0936473 1.091 236 253 255
0.0335599 0.0937331 1.092 223 235 243
0.0352558 0.0937331 1.092 202 214 222
0.0369856 0.093819 1.093 238 247 255
0.0387184 0.0939048 1.094 243 252 255
0.0404544 0.0939907 1.095 241 254 255
0.042232 0.0941623 1.097 241 254 255
0.0439757 0.0942482 1.098 240 255 254
0.0456809 0.0942482 1.098 241 255 255
0.0474293 0.094334 1.099 243 255 255
0.0491361 0.094334 1.099 243 255 255
0.0507966 0.0942482 1.098 243 255 255
0.0525019 0.0942482 1.098 243 255 255
0.0542565 0.094334 1.099 245 255 254
0.0560142 0.0944198 1.1 245 255 254
0.05767 0.094334 1.099 245 255 254
0.0593228 0.0942482 1.098 245 255 254
0.061028 0.0942482 1.098 245 255 254
0.0627332 0.0942482 1.098 245 255 254
0.0644385 0.0942482 1.098 237 255 254
0.0661437 0.0942482 1.098 236 255 253
0.0677871 0.0941623 1.097 219 255 253
0.0694275 0.0940765 1.096 219 255 253
0.0709998 0.0939048 1.094 208 255 254
0.0726988 0.0939048 1.094 207 255 253
0.0743978 0.0939048 1.094 194 255 254
0.0761664 0.0939907 1.095 194 255 254
0.077867 0.0939907 1.095 176 255 253
0.0795676 0.0939907 1.095 164 246 241
0.0812681 0.0939907 1.095 147 242 241
0.0829687 0.0939907 1.095 146 241 240
0.0846693 0.0939907 1.095 135 238 245
0.086291 0.0939048 1.094 135 238 245
0.08799 0.0939048 1.094 133 236 250
0.089689 0.0939048 1.094 134 237 251
0.091388 0.0939048 1.094 131 237 255
0.0930871 0.0939048 1.094 127 233 251
0.0946994 0.093819 1.093 120 220 248
0.0964851 0.0939048 1.094 119 219 247
0.0982739 0.0939907 1.095 123 222 255
0.100157 0.0941623 1.097 104 203 242
0.101861 0.0941623 1.097 103 197 251
0.103564 0.0941623 1.097 98 192 246
0.105364 0.0942482 1.098 91 184 247
0.107069 0.0942482 1.098 87 180 243
0.108774 0.0942482 1.098 80 172 245
0.11058 0.094334 1.099 75 167 240
0.112287 0.094334 1.099 79 169 247
0.113994 0.094334 1.099 76 166 244
0.115806 0.0944198 1.1 72 162 240
0.117514 0.0944198 1.1 73 163 241
0.119223 0.0944198 1.1 73 163 241
0.120931 0.0944198 1.1 76 166 244
0.122751 0.0945057 1.101 79 169 247
0.124461 0.0945057 1.101 79 169 247
0.1264 0.0946773 1.103 79 168 243
0.128113 0.0946773 1.103 81 170 245
0.129943 0.0947632 1.104 73 163 236
0.131777 0.094849 1.105 78 168 241
0.133493 0.094849 1.105 83 169 240
0.135332 0.0949349 1.106 82 168 239
0.13705 0.0949349 1.106 80 161 232
0.138893 0.0950207 1.107 81 162 233
0.14246 0.0951065 1.108 99 168 235
0.14418 0.0951065 1.108 114 169 230
0.145901 0.0951065 1.108 114 169 230
0.147622 0.0951065 1.108 130 175 226
0.149343 0.0951065 1.108 131 176 227
0.151063 0.0951065 1.108 147 177 219
0.152784 0.0951065 1.108 149 179 221
0.154366 0.0950207 1.107 147 169 208
0.156085 0.0950207 1.107 126 148 187
0.157804 0.0950207 1.107 127 143 173
0.159667 0.0951065 1.108 130 146 176
0.161388 0.0951065 1.108 139 150 181
0.163256 0.0951924 1.109 130 141 172
0.166851 0.0952782 1.11 140 152 181
0.168727 0.095364 1.111 147 158 184
0.170759 0.0955357 1.113 148 159 185
0.172642 0.0956215 1.114 151 161 181
0.174999 0.0959649 1.118 149 159 179
0.177683 0.0964799 1.124 138 151 164
0.180706 0.0971666 1.132 94 107 120
0.183431 0.0976816 1.138 42 54 56
0.188445 0.0984541 1.147 35 48 40
0.191719 0.0992267 1.156 39 52 44
0.194853 0.0999134 1.164 44 61 41
0.198012 0.1006 1.172 44 61 41
0.200344 0.100858 1.175 45 63 36
0.202685 0.101115 1.178 46 64 37
0.206869 0.101373 1.181 46 65 33
0.20888 0.101458 1.182 50 66 35
0.211073 0.10163 1.184 50 66 35
0.213091 0.101716 1.185 52 68 37
0.215113 0.101802 1.186 50 66 35
0.217138 0.101888 1.187 50 66 35
0.218981 0.101888 1.187 52 68 37
0.221011 0.101973 1.188 51 71 37
0.223043 0.102059 1.189 51 71 37
0.22489 0.102059 1.189 51 71 37
0.226927 0.102145 1.19 51 71 37
0.228775 0.102145 1.19 51 71 37
0.230623 0.102145 1.19 52 72 38
0.232471 0.102145 1.19 51 71 37
0.234123 0.102059 1.189 50 70 36
0.235969 0.102059 1.189 48 68 34
0.237816 0.102059 1.189 47 67 33
0.239662 0.102059 1.189 45 65 31
0.241509 0.102059 1.189 45 65 31
0.243355 0.102059 1.189 45 65 31
0.245408 0.102145 1.19 45 65 31
0.247256 0.102145 1.19 46 66 32
0.249523 0.102317 1.192 45 65 31
0.251374 0.102317 1.192 45 65 31
0.253438 0.102403 1.193 45 65 31
0.255505 0.102488 1.194 48 68 34
0.257575 0.102574 1.195 44 64 30
0.259648 0.10266 1.196 44 64 30
0.261724 0.102746 1.197 45 65 31
0.263583 0.102746 1.197 45 65 31
0.265442 0.102746 1.197 44 64 30
0.267301 0.102746 1.197 44 64 30
0.26916 0.102746 1.197 44 64 30
0.270792 0.10266 1.196 44 64 30
0.272422 0.102574 1.195 45 65 31
0.274048 0.102488 1.194 45 65 31
0.27544 0.102317 1.192 43 63 29
0.277059 0.102231 1.191 44 64 30
0.278674 0.102145 1.19 48 68 34
0.280287 0.102059 1.189 47 67 33
0.281896 0.101973 1.188 47 67 33
0.283502 0.101888 1.187 46 66 32
0.285345 0.101888 1.187 45 65 31
0.287189 0.101888 1.187 45 65 31
0.289032 0.101888 1.187 46 66 32
0.291121 0.101973 1.188 46 66 32
0.293212 0.102059 1.189 47 67 33
0.295307 0.102145 1.19 48 68 34
0.297155 0.102145 1.19 48 68 34
0.299003 0.102145 1.19 51 71 37
0.301104 0.102231 1.191 50 70 36
0.302954 0.102231 1.191 48 69 32
0.304804 0.102231 1.191 50 71 34
0.306653 0.102231 1.191 50 71 34
0.308762 0.102317 1.192 50 71 34
0.310353 0.102231 1.191 48 70 31
0.312202 0.102231 1.191 50 72 33
0.313788 0.102145 1.19 48 70 31
0.315636 0.102145 1.19 50 72 33
0.317484 0.102145 1.19 48 70 31
0.319333 0.102145 1.19 51 73 34
0.320911 0.102059 1.189 55 77 38
0.322757 0.102059 1.189 59 81 42
0.324331 0.101973 1.188 60 82 43
0.326176 0.101973 1.188 69 91 52
0.327745 0.101888 1.187 72 94 53
0.329588 0.101888 1.187 72 94 53
0.331432 0.101888 1.187 73 96 52
0.333275 0.101888 1.187 72 95 51
0.335119 0.101888 1.187 70 93 49
0.336962 0.101888 1.187 70 93 49
0.338806 0.101888 1.187 72 95 51
0.340649 0.101888 1.187 72 95 51
0.342492 0.101888 1.187 75 97 58
0.344336 0.101888 1.187 76 98 59
0.346179 0.101888 1.187 72 92 58
0.348023 0.101888 1.187 72 92 58
0.349571 0.101802 1.186 70 89 57
0.351413 0.101802 1.186 72 91 59
0.353255 0.101802 1.186 73 87 56
0.354798 0.101716 1.185 72 86 55
0.356638 0.101716 1.185 66 71 44
0.358478 0.101716 1.185 68 73 46
0.360319 0.101716 1.185 132 137 112
0.362159 0.101716 1.185 109 114 89
0.364 0.101716 1.185 58 58 39
0.365222 0.101544 1.183 68 68 49
0.364267 0.100772 1.174 55 60 45
0.359344 0.0979391 1.141 219 228 214
0.358901 0.0973383 1.134 192 201 187
0.360662 0.0973383 1.134 235 244 230
0.362423 0.0973383 1.134 241 246 249
0.363863 0.0972524 1.133 131 136 139
0.365945 0.0973383 1.134 102 108 108
0.371273 0.0982825 1.145 112 118 118
-0.16574 0.103384 1.183 12 23 9
-0.164318 0.103646 1.186 10 21 7
-0.16275 0.103821 1.188 17 28 12
-0.161176 0.103995 1.19 19 30 14
-0.159596 0.10417 1.192 19 30 14
-0.157745 0.10417 1.192 19 30 14
-0.156024 0.104258 1.193 18 29 13
-0.154171 0.104258 1.193 19 30 14
-0.152319 0.104258 1.193 19 31 12
-0.15034 0.10417 1.192 20 32 13
-0.148488 0.10417 1.192 21 33 14
-0.146514 0.104083 1.191 21 33 14
-0.144543 0.103995 1.19 25 37 18
-0.142575 0.103908 1.189 26 38 19
-0.140492 0.103733 1.187 27 39 20
-0.138415 0.103558 1.185 28 40 21
-0.136459 0.103471 1.184 27 39 20
-0.134166 0.103121 1.18 25 37 18
-0.132221 0.103034 1.179 25 37 18
-0.130279 0.102947 1.178 26 38 19
-0.128341 0.102859 1.177 25 37 18
-0.126298 0.102685 1.175 24 36 17
-0.124367 0.102597 1.174 24 36 17
-0.122335 0.102422 1.172 24 36 17
-0.120309 0.102248 1.17 24 35 19
-0.118188 0.101985 1.167 19 30 14
-0.116077 0.101723 1.164 20 30 18
-0.113876 0.101374 1.16 43 53 41
-0.107256 0.100238 1.147 73 86 92
-0.105291 0.100063 1.145 63 76 82
-0.103422 0.0999754 1.144 51 70 84
-0.101557 0.099888 1.143 50 69 83
-0.0996944 0.0998006 1.142 56 80 102
-0.0980066 0.099888 1.143 76 100 122
-0.0963156 0.0999754 1.144 71 100 126
-0.094539 0.0999754 1.144 70 99 125
-0.0927623 0.0999754 1.144 62 97 131
-0.0909061 0.099888 1.143 61 96 130
-0.089053 0.0998006 1.142 52 87 128
-0.0869737 0.0994511 1.138 45 80 121
-0.0849818 0.0991889 1.135 41 79 124
-0.0829991 0.0989267 1.132 39 77 122
-0.0808822 0.0984898 1.127 40 81 130
-0.0789213 0.0982276 1.124 46 87 136
-0.0769697 0.0979654 1.121 42 87 140
-0.0748261 0.0974411 1.115 43 88 141
-0.0729634 0.0972663 1.113 41 90 144
-0.0712348 0.0972663 1.113 44 93 147
-0.0693814 0.0970915 1.111 54 107 163
-0.067656 0.0970915 1.111 59 112 168
-0.0658712 0.0970041 1.11 51 106 162
-0.0641474 0.0970041 1.11 38 93 149
-0.0623673 0.0969167 1.109 49 104 160
-0.0606996 0.0970041 1.11 57 112 168
-0.0589226 0.0969167 1.109 52 108 166
-0.0572003 0.0969167 1.109 48 104 162
-0.055478 0.0969167 1.109 47 103 161
-0.0538042 0.0970041 1.11 44 100 158
-0.0520803 0.0970041 1.11 45 103 163
-0.0504018 0.0970915 1.111 45 103 163
-0.0486764 0.0970915 1.111 46 103 166
-0.0469932 0.0971789 1.112 43 100 163
-0.0453069 0.0972663 1.113 43 102 165
-0.0436176 0.0973537 1.114 43 102 165
-0.0419251 0.0974411 1.115 41 102 168
-0.0401935 0.0974411 1.115 37 98 164
-0.0384618 0.0974411 1.115 36 99 165
-0.0367302 0.0974411 1.115 37 100 166
-0.0349986 0.0974411 1.115 40 104 172
-0.0332669 0.0974411 1.115 45 109 177
-0.031507 0.0973537 1.114 44 112 182
-0.0297502 0.0972663 1.113 45 113 183
-0.0280217 0.0972663 1.113 40 111 180
-0.0262695 0.0971789 1.112 34 105 174
-0.0244984 0.0970041 1.11 38 112 184
-0.0227745 0.0970041 1.11 43 117 189
-0.0210127 0.0968293 1.108 34 113 184
-0.0192572 0.0966546 1.106 40 119 190
-0.0175236 0.0965672 1.105 53 134 205
-0.0157789 0.0963924 1.103 65 146 217
-0.0140404 0.0962176 1.101 67 149 217
-0.0123193 0.0961302 1.1 65 147 215
-0.0105917 0.0959554 1.098 81 150 211
-0.00887839 0.095868 1.097 104 173 234
-0.00715509 0.0956059 1.094 124 175 222
-0.00545607 0.0956059 1.094 106 157 204
-0.00375705 0.0956059 1.094 121 157 189
-0.00205803 0.0956059 1.094 120 156 188
-0.000359009 0.0956059 1.094 148 175 199
0.00134001 0.0956059 1.094 165 192 216
0.00303903 0.0956059 1.094 175 200 219
0.00473372 0.0955185 1.093 177 202 221
0.00643118 0.0955185 1.093 179 201 221
0.00812865 0.0955185 1.093 168 190 210
0.00983511 0.0956059 1.094 182 204 222
0.0115341 0.0956059 1.094 182 204 222
0.0132331 0.0956059 1.094 171 191 209
0.0149322 0.0956059 1.094 170 190 208
0.0166312 0.0956059 1.094 171 192 208
0.0183134 0.0955185 1.093 173 194 210
0.0199926 0.0954311 1.092 200 218 235
0.0216885 0.0954311 1.092 210 228 245
0.0233844 0.0954311 1.092 209 229 241
0.0250803 0.0954311 1.092 211 231 243
0.0267763 0.0954311 1.092 213 229 241
0.0284722 0.0954311 1.092 229 245 255
0.0301681 0.0954311 1.092 239 253 255
0.031864 0.0954311 1.092 237 251 255
0.0335599 0.0954311 1.092 214 224 231
0.0352881 0.0955185 1.093 203 213 220
0.0370194 0.0956059 1.094 219 229 236
0.0387538 0.0956933 1.095 243 253 255
0.0405283 0.095868 1.097 243 254 255
0.0422705 0.0959554 1.098 243 254 255
0.0440157 0.0960428 1.099 243 255 255
0.0474725 0.0961302 1.1 245 255 255
0.0491808 0.0961302 1.1 245 255 255
0.0508429 0.0960428 1.099 245 255 254
0.0525019 0.0959554 1.098 245 255 254
0.0543058 0.0961302 1.1 245 255 254
0.0560142 0.0961302 1.1 245 255 254
0.0577225 0.0961302 1.1 245 255 254
0.0593768 0.0960428 1.099 245 255 254
0.0610836 0.0960428 1.099 245 255 254
0.0627904 0.0960428 1.099 245 255 254
0.0644385 0.0959554 1.098 239 255 254
0.0661437 0.0959554 1.098 238 255 253
0.0677871 0.095868 1.097 220 255 252
0.0694275 0.0957806 1.096 219 255 251
0.0710647 0.0956933 1.095 200 255 250
0.0727653 0.0956933 1.095 199 254 249
0.0744658 0.0956933 1.095 180 255 249
0.0761664 0.0956933 1.095 181 255 250
0.077867 0.0956933 1.095 166 255 252
0.0797129 0.095868 1.097 163 254 249
0.0814166 0.095868 1.097 148 250 248
0.0831202 0.095868 1.097 147 249 247
0.0848239 0.095868 1.097 138 246 252
0.0865276 0.095868 1.097 136 244 250
0.0881509 0.0957806 1.096 130 239 249
0.089853 0.0957806 1.096 125 234 244
0.0914716 0.0956933 1.095 125 233 251
0.0931721 0.0956933 1.095 121 229 247
0.0948727 0.0956933 1.095 121 224 251
0.0965733 0.0956933 1.095 123 226 253
0.0984534 0.095868 1.097 122 224 255
0.100248 0.0959554 1.098 100 202 239
0.101954 0.0959554 1.098 94 191 242
0.103848 0.0961302 1.1 92 189 240
0.105556 0.0961302 1.1 93 189 250
0.107264 0.0961302 1.1 97 193 254
0.108973 0.0961302 1.1 84 177 247
0.110681 0.0961302 1.1 73 166 236
0.112491 0.0962176 1.101 76 167 242
0.114098 0.0961302 1.1 77 168 243
0.115911 0.0962176 1.101 73 162 243
0.117514 0.0961302 1.1 73 162 243
0.119331 0.0962176 1.101 77 167 245
0.121041 0.0962176 1.101 86 176 254
0.122751 0.0962176 1.101 80 171 246
0.124574 0.096305 1.102 80 171 246
0.1264 0.0963924 1.103 80 170 243
0.128229 0.0964798 1.104 80 170 243
0.130061 0.0965672 1.105 80 169 239
0.131777 0.0965672 1.105 79 168 238
0.133614 0.0966546 1.106 85 169 239
0.135332 0.0966546 1.106 85 169 239
0.137173 0.0967419 1.107 100 174 240
0.140739 0.0968293 1.108 119 175 233
0.14246 0.0968293 1.108 121 177 235
0.14418 0.0968293 1.108 130 174 222
0.146033 0.0969167 1.109 118 162 210
0.147755 0.0969167 1.109 133 165 207
0.149343 0.0968293 1.108 139 171 213
0.151063 0.0968293 1.108 140 167 198
0.152784 0.0968293 1.108 138 165 196
0.154505 0.0968293 1.108 142 159 192
0.156226 0.0968293 1.108 130 147 180
0.157946 0.0968293 1.108 128 143 169
0.159667 0.0968293 1.108 130 145 171
0.163256 0.0969167 1.109 144 155 181
0.165127 0.0970041 1.11 146 156 178
0.166851 0.0970041 1.11 150 160 182
0.168727 0.0970915 1.111 151 161 183
0.170759 0.0972663 1.113 150 160 182
0.172797 0.0974411 1.115 131 144 157
0.175468 0.0979654 1.121 102 115 128
0.178158 0.0984898 1.127 68 78 85
0.181345 0.0992763 1.136 32 42 49
0.184237 0.099888 1.143 35 49 39
0.189266 0.100675 1.152 43 54 38
0.192548 0.101461 1.161 49 60 44
0.195523 0.102073 1.168 48 62 38
0.198519 0.102685 1.175 46 60 36
0.200685 0.102859 1.177 46 61 35
0.204862 0.103121 1.18 48 64 33
0.207045 0.103296 1.182 47 63 32
0.209057 0.103384 1.183 48 64 33
0.211251 0.103558 1.185 48 64 33
0.213091 0.103558 1.185 49 65 34
0.215294 0.103733 1.187 50 66 35
0.217138 0.103733 1.187 50 69 37
0.21935 0.103908 1.189 51 70 38
0.221197 0.103908 1.189 52 71 39
0.223231 0.103995 1.19 53 72 40
0.225079 0.103995 1.19 52 72 38
0.227118 0.104083 1.191 51 71 37
0.228967 0.104083 1.191 51 71 37
0.230623 0.103995 1.19 50 70 36
0.232471 0.103995 1.19 50 70 36
0.23432 0.103995 1.19 50 70 36
0.236168 0.103995 1.19 48 68 34
0.238016 0.103995 1.19 46 66 32
0.239864 0.103995 1.19 45 65 31
0.241712 0.103995 1.19 46 66 32
0.24356 0.103995 1.19 45 65 31
0.245614 0.104083 1.191 45 65 31
0.247672 0.10417 1.192 45 65 31
0.249523 0.10417 1.192 45 65 31
0.251585 0.104258 1.193 45 65 31
0.25365 0.104345 1.194 45 65 31
0.255719 0.104432 1.195 48 68 34
0.25779 0.10452 1.196 44 64 30
0.259865 0.104607 1.197 44 64 30
0.261724 0.104607 1.197 45 65 31
0.263583 0.104607 1.197 45 65 31
0.265442 0.104607 1.197 46 66 32
0.267301 0.104607 1.197 44 64 30
0.268935 0.10452 1.196 45 65 31
0.270566 0.104432 1.195 45 65 31
0.272194 0.104345 1.194 44 64 30
0.273589 0.10417 1.192 45 65 31
0.275209 0.104083 1.191 43 63 29
0.276826 0.103995 1.19 45 65 31
0.27844 0.103908 1.189 47 67 33
0.280051 0.103821 1.188 47 67 33
0.281659 0.103733 1.187 46 66 32
0.283502 0.103733 1.187 46 66 32
0.285345 0.103733 1.187 46 66 32
0.287189 0.103733 1.187 46 66 32
0.289032 0.103733 1.187 47 67 33
0.291366 0.103908 1.189 48 68 34
0.293459 0.103995 1.19 50 70 36
0.295307 0.103995 1.19 48 68 34
0.297405 0.104083 1.191 47 67 33
0.299255 0.104083 1.191 50 70 36
0.301104 0.104083 1.191 51 71 37
0.302954 0.104083 1.191 48 69 32
0.304804 0.104083 1.191 48 69 32
0.306911 0.10417 1.192 50 71 34
0.308503 0.104083 1.191 51 72 35
0.310353 0.104083 1.191 50 72 33
0.31194 0.103995 1.19 50 72 33
0.313788 0.103995 1.19 48 70 31
0.315636 0.103995 1.19 50 72 33
0.317218 0.103908 1.189 53 75 36
0.319064 0.103908 1.189 58 80 41
0.320371 0.103733 1.187 60 79 41
0.322214 0.103733 1.187 61 80 42
0.323785 0.103646 1.186 60 82 43
0.325627 0.103646 1.186 66 88 49
0.327469 0.103646 1.186 72 94 53
0.329311 0.103646 1.186 73 95 54
0.331153 0.103646 1.186 73 96 52
0.332714 0.103558 1.185 73 96 52
0.334554 0.103558 1.185 72 95 51
0.336394 0.103558 1.185 72 95 51
0.338235 0.103558 1.185 72 95 51
0.340075 0.103558 1.185 72 95 51
0.341915 0.103558 1.185 74 96 57
0.344046 0.103646 1.186 76 98 59
0.345888 0.103646 1.186 77 97 63
0.34773 0.103646 1.186 73 93 59
0.349571 0.103646 1.186 73 92 60
0.351413 0.103646 1.186 74 93 61
0.352957 0.103558 1.185 78 92 61
0.354798 0.103558 1.185 80 94 63
0.356638 0.103558 1.185 66 71 44
0.358478 0.103558 1.185 68 73 46
0.360319 0.103558 1.185 134 139 112
0.361548 0.103384 1.183 107 112 85
0.363385 0.103384 1.183 61 61 42
0.364605 0.103209 1.181 70 70 51
0.363957 0.10251 1.173 57 62 47
0.359659 0.0998006 1.142 220 229 213
0.358901 0.0991015 1.134 199 208 194
0.360344 0.0990141 1.133 237 246 232
0.362103 0.0990141 1.133 243 246 249
0.363863 0.0990141 1.133 132 135 138
0.365622 0.0990141 1.133 103 109 108
0.370625 0.099888 1.143 112 118 117
-0.1656 0.105134 1.182 14 25 11
-0.164041 0.105312 1.184 13 24 10
-0.162613 0.105579 1.187 17 28 12
-0.160905 0.105668 1.188 19 30 14
-0.159328 0.105846 1.19 18 29 13
-0.157612 0.105935 1.191 18 29 13
-0.155893 0.106024 1.192 18 29 13
-0.154042 0.106024 1.192 19 30 14
-0.152191 0.106024 1.192 19 30 14
-0.15034 0.106024 1.192 21 32 16
-0.148488 0.106024 1.192 24 36 17
-0.146514 0.105935 1.191 22 34 15
-0.144543 0.105846 1.19 24 36 17
-0.142575 0.105757 1.189 26 38 19
-0.14061 0.105668 1.188 28 40 21
-0.138648 0.105579 1.187 28 40 21
-0.136574 0.105401 1.185 27 39 20
-0.134279 0.105045 1.181 25 37 18
-0.132333 0.104956 1.18 25 37 18
-0.130279 0.104778 1.178 26 38 19
-0.128341 0.104689 1.177 28 40 21
-0.126298 0.104512 1.175 25 37 18
-0.124261 0.104334 1.173 25 37 18
-0.122231 0.104156 1.171 24 36 17
-0.120104 0.103889 1.168 24 35 19
-0.117885 0.103533 1.164 20 31 15
-0.115778 0.103266 1.161 22 32 20
-0.113484 0.102822 1.156 49 59 47
-0.110915 0.10211 1.148 84 95 93
-0.108847 0.101843 1.145 80 91 89
-0.106789 0.101576 1.142 74 91 98
-0.104739 0.101309 1.139 69 86 93
-0.10279 0.101132 1.137 52 77 96
-0.100935 0.101043 1.136 61 86 105
-0.0991706 0.101043 1.136 69 98 129
-0.0975779 0.101221 1.138 69 98 129
-0.0958105 0.101221 1.138 60 98 131
-0.0940431 0.101221 1.138 55 93 126
-0.0922758 0.101221 1.138 51 88 129
-0.0905084 0.101221 1.138 51 88 129
-0.0885851 0.101043 1.136 46 87 131
-0.0865152 0.100687 1.132 49 90 134
-0.0845325 0.10042 1.129 50 91 140
-0.0824859 0.100064 1.125 51 92 141
-0.0802363 0.0994416 1.118 50 95 148
-0.0783596 0.0992637 1.116 55 100 153
-0.0764204 0.0989969 1.113 56 106 158
-0.0745577 0.098819 1.111 60 110 162
-0.0727667 0.09873 1.11 56 110 163
-0.0710428 0.09873 1.11 59 113 166
-0.0691941 0.0985521 1.108 57 111 169
-0.0674733 0.0985521 1.108 58 112 170
-0.0657525 0.0985521 1.108 57 113 171
-0.063974 0.0984632 1.107 56 112 170
-0.0622548 0.0984632 1.107 55 111 169
-0.0605356 0.0984632 1.107 56 112 170
-0.0588164 0.0984632 1.107 51 107 165
-0.0570972 0.0984632 1.107 48 104 162
-0.0553279 0.0983742 1.106 46 104 164
-0.0536587 0.0984632 1.107 48 106 166
-0.0519865 0.0985521 1.108 46 105 168
-0.0502657 0.0985521 1.108 45 104 167
-0.0485887 0.0986411 1.109 41 100 163
-0.0469087 0.09873 1.11 44 103 166
-0.0452255 0.098819 1.111 42 104 167
-0.0435393 0.0989079 1.112 37 99 162
-0.0418499 0.0989969 1.113 49 110 176
-0.0401214 0.0989969 1.113 56 117 183
-0.0383928 0.0989969 1.113 46 108 176
-0.0366643 0.0989969 1.113 40 102 170
-0.0349358 0.0989969 1.113 36 102 172
-0.0332073 0.0989969 1.113 44 110 180
-0.0314504 0.0989079 1.112 45 116 185
-0.0297235 0.0989079 1.112 42 113 182
-0.0279713 0.098819 1.111 36 111 180
-0.0262223 0.09873 1.11 36 111 180
-0.0244763 0.0986411 1.109 47 128 200
-0.0227335 0.0985521 1.108 37 118 190
-0.0209748 0.0983742 1.106 44 128 198
-0.0192397 0.0982853 1.105 71 155 225
-0.0174919 0.0981074 1.103 72 158 228
-0.0157503 0.0979295 1.101 70 156 226
-0.0140277 0.0978406 1.1 64 149 216
-0.0122969 0.0976627 1.098 60 145 212
-0.0105821 0.0975737 1.097 77 151 212
-0.00887029 0.0974848 1.096 93 167 228
-0.00715509 0.0973069 1.094 115 170 219
-0.00545607 0.0973069 1.094 106 161 210
-0.00375705 0.0973069 1.094 123 160 196
-0.00205615 0.097218 1.093 143 180 216
-0.000358681 0.097218 1.093 177 207 230
0.00134001 0.0973069 1.094 176 206 229
0.00303625 0.097218 1.093 172 199 218
0.00473372 0.097218 1.093 168 195 214
0.00643118 0.097218 1.093 175 200 219
0.00812865 0.097218 1.093 169 194 213
0.00982612 0.097218 1.093 181 203 221
0.0115236 0.097218 1.093 186 208 226
0.0132331 0.0973069 1.094 175 198 214
0.0149322 0.0973069 1.094 174 197 213
0.0166312 0.0973069 1.094 176 198 211
0.0183302 0.0973069 1.094 184 206 219
0.0200109 0.097218 1.093 221 241 253
0.0217084 0.097218 1.093 212 232 244
0.0234058 0.097218 1.093 216 235 242
0.0251033 0.097218 1.093 214 233 240
0.0268008 0.097218 1.093 216 230 238
0.0284722 0.097129 1.092 232 246 254
0.0301681 0.097129 1.092 241 254 255
0.031864 0.097129 1.092 239 252 255
0.0336214 0.0973069 1.094 215 224 228
0.0353204 0.0973069 1.094 215 224 228
0.0370533 0.0973958 1.095 217 227 229
0.0387892 0.0974848 1.096 245 255 255
0.0405283 0.0975737 1.097 245 255 255
0.0422705 0.0976627 1.098 245 255 255
0.0457641 0.0978406 1.1 245 255 254
0.0474725 0.0978406 1.1 245 255 254
0.0491808 0.0978406 1.1 245 255 254
0.0508429 0.0977516 1.099 247 255 254
0.0525497 0.0977516 1.099 247 255 254
0.0542565 0.0977516 1.099 247 255 254
0.0559632 0.0977516 1.099 247 255 254
0.05767 0.0977516 1.099 247 255 254
0.0593228 0.0976627 1.098 247 255 254
0.061028 0.0976627 1.098 247 255 254
0.0627332 0.0976627 1.098 247 255 254
0.0644385 0.0976627 1.098 241 255 254
0.0660835 0.0975737 1.097 240 255 253
0.0677871 0.0975737 1.097 222 255 251
0.0694275 0.0974848 1.096 221 255 250
0.0710647 0.0973958 1.095 195 255 247
0.0727653 0.0973958 1.095 192 253 244
0.0745338 0.0974848 1.096 174 255 249
0.076236 0.0974848 1.096 173 255 248
0.0780092 0.0975737 1.097 156 255 250
0.0797856 0.0976627 1.098 156 255 250
0.0814908 0.0976627 1.098 147 255 253
0.0832718 0.0977516 1.099 151 255 255
0.0849786 0.0977516 1.099 147 255 255
0.0866854 0.0977516 1.099 133 244 247
0.0882313 0.0975737 1.097 129 238 248
0.0900169 0.0976627 1.098 127 236 246
0.0917222 0.0976627 1.098 127 236 251
0.0933423 0.0975737 1.097 128 237 252
0.095046 0.0975737 1.097 129 235 255
0.0967497 0.0975737 1.097 124 230 255
0.0985431 0.0976627 1.098 122 225 255
0.100431 0.0978406 1.1 107 210 244
0.102139 0.0978406 1.1 96 195 241
0.103942 0.0979295 1.101 98 197 243
0.105652 0.0979295 1.101 100 195 253
0.107362 0.0979295 1.101 95 190 248
0.109072 0.0979295 1.101 86 179 248
0.110782 0.0979295 1.101 77 170 239
0.112491 0.0979295 1.101 79 170 245
0.114201 0.0979295 1.101 78 169 244
0.116017 0.0980185 1.102 78 168 246
0.117621 0.0979295 1.101 73 163 241
0.119331 0.0979295 1.101 77 167 245
0.121151 0.0980185 1.102 86 176 254
0.122862 0.0980185 1.102 86 177 252
0.124687 0.0981074 1.103 80 171 246
0.126629 0.0982853 1.105 79 169 242
0.128345 0.0982853 1.105 78 168 241
0.130179 0.0983742 1.106 85 166 237
0.131897 0.0983742 1.106 86 167 238
0.133614 0.0983742 1.106 99 171 237
0.137297 0.0985521 1.108 127 183 241
0.139018 0.0985521 1.108 126 182 240
0.140866 0.0986411 1.109 141 182 231
0.142588 0.0986411 1.109 141 182 231
0.144311 0.0986411 1.109 150 181 220
0.146165 0.09873 1.11 147 178 217
0.147888 0.09873 1.11 151 175 207
0.149477 0.0986411 1.109 140 164 196
0.151336 0.09873 1.11 126 146 171
0.152922 0.0986411 1.109 128 148 173
0.154505 0.0985521 1.108 156 174 199
0.158089 0.0986411 1.109 129 142 161
0.159811 0.0986411 1.109 138 151 170
0.161679 0.09873 1.11 149 160 178
0.16355 0.098819 1.111 146 157 175
0.165425 0.0989079 1.112 144 154 169
0.167302 0.0989969 1.113 142 152 167
0.169486 0.0992637 1.116 139 147 161
0.171679 0.0995305 1.119 103 111 125
0.173882 0.0997974 1.122 53 63 70
0.17672 0.10042 1.129 41 51 58
0.17958 0.101043 1.136 34 45 44
0.184398 0.101754 1.144 41 54 41
0.19058 0.103177 1.16 45 60 40
0.193377 0.103711 1.166 46 61 41
0.19636 0.104334 1.173 48 62 38
0.199026 0.104778 1.178 47 61 37
0.203029 0.104956 1.18 49 64 36
0.204862 0.104956 1.18 48 64 33
0.206869 0.105045 1.181 48 64 33
0.209057 0.105223 1.183 48 64 33
0.211251 0.105401 1.185 49 65 34
0.213271 0.10549 1.186 50 66 35
0.215294 0.105579 1.187 52 68 37
0.217321 0.105668 1.188 53 69 38
0.219535 0.105846 1.19 54 70 39
0.221383 0.105846 1.19 55 71 40
0.223418 0.105935 1.191 55 71 40
0.225457 0.106024 1.192 53 72 40
0.227308 0.106024 1.192 52 71 39
0.22916 0.106024 1.192 52 72 38
0.231011 0.106024 1.192 51 71 37
0.232862 0.106024 1.192 51 71 37
0.234516 0.105935 1.191 48 68 34
0.236366 0.105935 1.191 48 68 34
0.238216 0.105935 1.191 46 66 32
0.240065 0.105935 1.191 45 65 31
0.241712 0.105846 1.19 45 65 31
0.24356 0.105846 1.19 46 66 32
0.245614 0.105935 1.191 45 65 31
0.247672 0.106024 1.192 44 64 30
0.249732 0.106113 1.193 44 64 30
0.252007 0.10629 1.195 44 64 30
0.253863 0.10629 1.195 45 65 31
0.255933 0.106379 1.196 48 68 34
0.258006 0.106468 1.197 45 65 31
0.259865 0.106468 1.197 45 65 31
0.261724 0.106468 1.197 45 65 31
0.263362 0.106379 1.196 46 66 32
0.26522 0.106379 1.196 46 66 32
0.266854 0.10629 1.195 45 65 31
0.26871 0.10629 1.195 46 66 32
0.270113 0.106113 1.193 47 67 33
0.271738 0.106024 1.192 46 66 32
0.273359 0.105935 1.191 45 65 31
0.274978 0.105846 1.19 46 66 32
0.276593 0.105757 1.189 47 67 33
0.278206 0.105668 1.188 47 67 33
0.279815 0.105579 1.187 46 67 30
0.281659 0.105579 1.187 47 68 31
0.283502 0.105579 1.187 47 68 31
0.285345 0.105579 1.187 47 68 31
0.287189 0.105579 1.187 47 68 31
0.289276 0.105668 1.188 47 68 31
0.291366 0.105757 1.189 50 71 34
0.293459 0.105846 1.19 48 69 32
0.295555 0.105935 1.191 47 68 31
0.297655 0.106024 1.192 47 68 31
0.299506 0.106024 1.192 47 68 31
0.301357 0.106024 1.192 50 71 34
0.303208 0.106024 1.192 50 71 34
0.30506 0.106024 1.192 50 71 34
0.306911 0.106024 1.192 50 72 33
0.308503 0.105935 1.191 48 70 31
0.310092 0.105846 1.19 47 69 30
0.31194 0.105846 1.19 50 72 33
0.313788 0.105846 1.19 50 72 33
0.315371 0.105757 1.189 51 73 34
0.316684 0.105579 1.187 53 75 36
0.318259 0.10549 1.186 53 75 36
0.320101 0.10549 1.186 54 73 35
0.321672 0.105401 1.185 57 76 38
0.323512 0.105401 1.185 60 82 43
0.325352 0.105401 1.185 66 88 49
0.327193 0.105401 1.185 69 91 50
0.328755 0.105312 1.184 76 98 57
0.330594 0.105312 1.184 72 95 51
0.332433 0.105312 1.184 73 96 52
0.334272 0.105312 1.184 75 95 52
0.33611 0.105312 1.184 75 95 52
0.337949 0.105312 1.184 76 96 53
0.340075 0.105401 1.185 74 94 51
0.341915 0.105401 1.185 75 97 58
0.343756 0.105401 1.185 76 98 59
0.345596 0.105401 1.185 75 95 61
0.347436 0.105401 1.185 74 94 60
0.349277 0.105401 1.185 74 93 61
0.351117 0.105401 1.185 73 92 60
0.352957 0.105401 1.185 75 91 60
0.354798 0.105401 1.185 75 91 60
0.356638 0.105401 1.185 70 75 48
0.358478 0.105401 1.185 71 76 49
0.360015 0.105312 1.184 136 141 114
0.361242 0.105134 1.182 107 112 85
0.363385 0.105223 1.183 64 64 45
0.364296 0.104956 1.18 71 71 52
0.363957 0.104334 1.173 60 63 48
0.359659 0.101576 1.142 221 230 214
0.359217 0.100954 1.135 203 212 198
0.360344 0.100776 1.133 236 245 231
0.362423 0.100865 1.134 244 247 250
0.363863 0.100776 1.133 137 140 143
0.3653 0.100687 1.132 103 109 109
0.3703 0.101576 1.142 112 118 118
-0.165319 0.106791 1.18 17 28 14
-0.163764 0.106972 1.182 17 28 14
-0.162339 0.107244 1.185 16 30 13
-0.16077 0.107425 1.187 16 30 13
-0.15906 0.107515 1.188 16 30 13
-0.15748 0.107696 1.19 17 31 14
-0.155632 0.107696 1.19 16 30 13
-0.153913 0.107787 1.191 18 32 15
-0.152063 0.107787 1.191 19 33 16
-0.15034 0.107877 1.192 22 36 19
-0.148364 0.107787 1.191 23 38 18
-0.146514 0.107787 1.191 22 37 17
-0.144543 0.107696 1.19 22 37 17
-0.142695 0.107696 1.19 25 40 20
-0.14061 0.107515 1.188 26 41 21
-0.138648 0.107425 1.187 23 38 18
-0.136574 0.107244 1.185 25 37 18
-0.13462 0.107153 1.184 25 37 18
-0.132333 0.106791 1.18 25 37 18
-0.13039 0.106701 1.179 25 37 18
-0.12845 0.10661 1.178 28 40 21
-0.126298 0.106339 1.175 25 37 18
-0.124261 0.106158 1.173 25 37 18
-0.122231 0.105977 1.171 24 36 17
-0.120001 0.105614 1.167 25 36 20
-0.117885 0.105343 1.164 25 36 20
-0.115578 0.10489 1.159 22 31 22
-0.112698 0.103895 1.148 26 35 26
-0.110529 0.103533 1.144 79 92 91
-0.108372 0.103171 1.14 77 90 89
-0.106415 0.10299 1.138 68 89 105
-0.104279 0.102628 1.134 73 94 110
-0.102337 0.102447 1.132 64 92 120
-0.100491 0.102356 1.131 65 93 121
-0.0987341 0.102356 1.131 57 94 130
-0.0970634 0.102447 1.132 57 94 130
-0.0953053 0.102447 1.132 48 87 130
-0.0935473 0.102447 1.132 44 83 126
-0.0917893 0.102447 1.132 42 84 131
-0.0898722 0.102266 1.13 46 88 135
-0.0880393 0.102175 1.129 55 99 147
-0.0859802 0.101813 1.125 59 103 151
-0.0840084 0.101542 1.122 59 104 155
-0.081826 0.100999 1.116 64 109 160
-0.0799492 0.100818 1.114 59 108 162
-0.0780085 0.100546 1.111 63 112 166
-0.0762144 0.100456 1.11 58 112 165
-0.0743564 0.100275 1.108 59 113 166
-0.07257 0.100184 1.107 54 109 165
-0.0707868 0.100094 1.106 53 108 164
-0.0690692 0.100094 1.106 49 105 163
-0.0673515 0.100094 1.106 49 105 163
-0.0655745 0.100003 1.105 55 114 171
-0.0638584 0.100003 1.105 59 118 175
-0.0621423 0.100003 1.105 56 115 172
-0.0604262 0.100003 1.105 52 111 168
-0.058657 0.0999129 1.104 49 108 165
-0.056994 0.100003 1.105 46 105 162
-0.0552779 0.100003 1.105 45 105 165
-0.0535618 0.100003 1.105 44 104 164
-0.0518926 0.100094 1.106 45 105 165
-0.050175 0.100094 1.106 54 114 174
-0.0484573 0.100094 1.106 48 110 173
-0.0467819 0.100184 1.107 42 104 167
-0.0451034 0.100275 1.108 42 103 169
-0.0433826 0.100275 1.108 38 99 165
-0.0417371 0.100456 1.11 53 114 185
-0.0400132 0.100456 1.11 68 129 200
-0.0382894 0.100456 1.11 54 120 190
-0.0365984 0.100546 1.111 40 106 176
-0.034873 0.100546 1.111 44 111 184
-0.0331476 0.100546 1.111 48 115 188
-0.0313939 0.100456 1.11 40 112 184
-0.02967 0.100456 1.11 39 111 183
-0.0278958 0.100275 1.108 37 114 186
-0.026175 0.100275 1.108 40 117 189
-0.0244322 0.100184 1.107 44 125 196
-0.0226925 0.100094 1.106 47 128 199
-0.0209559 0.100003 1.105 60 146 216
-0.0192049 0.0998224 1.103 75 161 231
-0.0174602 0.0996414 1.101 73 162 231
-0.015736 0.0995509 1.1 63 152 221
-0.0140149 0.0994604 1.099 60 147 214
-0.0122857 0.0992794 1.097 61 148 215
-0.0105724 0.0991889 1.096 77 155 215
-0.00885411 0.0990079 1.094 91 169 229
-0.00715509 0.0990079 1.094 117 179 227
-0.00545108 0.0989174 1.093 107 169 217
-0.00375361 0.0989174 1.093 140 181 217
-0.00205615 0.0989174 1.093 162 203 239
-0.000358681 0.0989174 1.093 178 208 231
0.00133879 0.0989174 1.093 174 204 227
0.00303347 0.0988269 1.092 172 199 218
0.00472939 0.0988269 1.092 167 194 213
0.0064253 0.0988269 1.092 169 194 211
0.00812121 0.0988269 1.092 170 195 212
0.00982612 0.0989174 1.093 193 215 233
0.0115236 0.0989174 1.093 201 223 241
0.0132331 0.0990079 1.094 190 213 229
0.0149322 0.0990079 1.094 182 205 221
0.0166312 0.0990079 1.094 193 212 226
0.0183302 0.0990079 1.094 216 235 249
0.0200109 0.0989174 1.093 234 252 255
0.0217282 0.0990079 1.094 221 239 251
0.0234273 0.0990079 1.094 215 233 238
0.0251263 0.0990079 1.094 213 231 236
0.0268008 0.0989174 1.093 227 240 246
0.0284982 0.0989174 1.093 241 254 255
0.0301957 0.0989174 1.093 241 255 255
0.0319224 0.0990079 1.094 241 255 255
0.0336521 0.0990984 1.095 237 247 249
0.035385 0.0991889 1.096 228 238 240
0.0371209 0.0992794 1.097 240 249 248
0.0388246 0.0992794 1.097 247 255 255
0.0405652 0.0993699 1.098 247 255 255
0.042309 0.0994604 1.099 247 255 255
0.0457641 0.0995509 1.1 247 255 254
0.0474725 0.0995509 1.1 247 255 254
0.0491361 0.0994604 1.099 247 255 254
0.0507966 0.0993699 1.098 249 255 254
0.0525019 0.0993699 1.098 249 255 254
0.0542071 0.0993699 1.098 249 255 254
0.0559632 0.0994604 1.099 249 255 254
0.0576175 0.0993699 1.098 249 255 254
0.0593228 0.0993699 1.098 249 255 254
0.061028 0.0993699 1.098 249 255 254
0.0627332 0.0993699 1.098 249 255 254
0.0644385 0.0993699 1.098 243 255 254
0.0661437 0.0993699 1.098 242 255 253
0.0677871 0.0992794 1.097 223 255 252
0.0694908 0.0992794 1.097 221 255 250
0.0710647 0.0990984 1.095 197 255 247
0.0728317 0.0991889 1.096 196 255 246
0.0746019 0.0992794 1.097 173 255 248
0.0763751 0.0993699 1.098 173 255 248
0.0780803 0.0993699 1.098 156 255 250
0.0799309 0.0995509 1.1 156 255 250
0.0817134 0.0996414 1.101 145 255 253
0.0834233 0.0996414 1.101 145 255 253
0.0851332 0.0996414 1.101 144 255 255
0.0868431 0.0996414 1.101 125 238 241
0.0884726 0.0995509 1.1 123 236 246
0.0901809 0.0995509 1.1 123 236 246
0.0918057 0.0994604 1.099 125 236 251
0.0935125 0.0994604 1.099 125 236 251
0.0951326 0.0993699 1.098 123 232 254
0.0969261 0.0994604 1.099 122 231 253
0.0987226 0.0995509 1.1 117 223 255
0.100522 0.0996414 1.101 108 214 246
0.102232 0.0996414 1.101 106 208 252
0.104131 0.0998224 1.103 99 201 245
0.105844 0.0998224 1.103 98 195 252
0.107557 0.0998224 1.103 92 189 246
0.10927 0.0998224 1.103 87 181 247
0.110983 0.0998224 1.103 82 176 242
0.112696 0.0998224 1.103 80 171 246
0.114409 0.0998224 1.103 78 169 244
0.116122 0.0998224 1.103 77 167 245
0.117835 0.0998224 1.103 72 162 240
0.119548 0.0998224 1.103 77 167 245
0.121261 0.0998224 1.103 82 172 250
0.123085 0.0999129 1.104 80 169 244
0.124913 0.100003 1.105 75 164 239
0.126744 0.100094 1.106 86 167 238
0.128461 0.100094 1.106 86 167 238
0.132016 0.100184 1.107 99 169 234
0.133856 0.100275 1.108 114 173 230
0.135577 0.100275 1.108 118 177 234
0.137421 0.100365 1.109 143 187 235
0.139018 0.100275 1.108 147 191 239
0.140866 0.100365 1.109 147 180 219
0.142717 0.100456 1.11 145 178 217
0.144441 0.100456 1.11 140 167 198
0.146165 0.100456 1.11 134 161 192
0.147888 0.100456 1.11 152 174 201
0.149612 0.100456 1.11 148 170 197
0.151336 0.100456 1.11 124 141 162
0.15306 0.100456 1.11 121 138 159
0.154784 0.100456 1.11 155 172 191
0.156649 0.100546 1.111 164 181 200
0.158517 0.100637 1.112 158 172 189
0.160388 0.100727 1.113 149 163 180
0.162262 0.100818 1.114 146 157 170
0.164286 0.100999 1.116 138 149 162
0.166466 0.10127 1.119 129 137 144
0.168504 0.101451 1.121 114 122 129
0.170853 0.101813 1.125 79 88 87
0.172907 0.101994 1.127 41 50 49
0.175122 0.102266 1.13 34 45 37
0.177973 0.102899 1.137 33 44 36
0.182622 0.103533 1.144 43 54 40
0.185527 0.104166 1.151 46 59 38
0.191238 0.105343 1.164 48 62 38
0.193875 0.105796 1.169 48 62 38
0.196527 0.106248 1.174 48 63 37
0.199026 0.10661 1.178 47 62 36
0.203029 0.106791 1.18 48 63 35
0.204862 0.106791 1.18 49 65 34
0.207045 0.106972 1.182 50 66 35
0.209057 0.107063 1.183 52 67 34
0.211251 0.107244 1.185 52 67 34
0.213091 0.107244 1.185 52 69 36
0.215294 0.107425 1.187 53 70 37
0.217504 0.107606 1.189 50 70 36
0.219535 0.107696 1.19 51 71 37
0.221383 0.107696 1.19 50 70 36
0.223418 0.107787 1.191 46 66 32
0.225457 0.107877 1.192 53 73 39
0.227308 0.107877 1.192 51 71 37
0.22916 0.107877 1.192 51 71 37
0.231011 0.107877 1.192 51 71 37
0.232862 0.107877 1.192 50 70 36
0.234713 0.107877 1.192 48 68 34
0.236565 0.107877 1.192 48 68 34
0.238216 0.107787 1.191 47 67 33
0.240267 0.107877 1.192 45 65 31
0.242118 0.107877 1.192 45 65 31
0.243765 0.107787 1.191 45 65 31
0.245821 0.107877 1.192 45 65 31
0.24788 0.107968 1.193 44 64 30
0.249942 0.108058 1.194 44 64 30
0.252007 0.108149 1.195 45 65 31
0.253863 0.108149 1.195 46 66 32
0.256147 0.10833 1.197 47 67 33
0.258006 0.10833 1.197 46 66 32
0.259865 0.10833 1.197 45 65 31
0.261724 0.10833 1.197 45 65 31
0.263362 0.108239 1.196 45 65 31
0.264998 0.108149 1.195 45 65 31
0.266631 0.108058 1.194 46 66 32
0.268035 0.107877 1.192 46 66 32
0.269886 0.107877 1.192 47 67 33
0.271282 0.107696 1.19 47 67 33
0.2729 0.107606 1.189 47 67 33
0.274516 0.107515 1.188 46 66 32
0.276128 0.107425 1.187 46 66 32
0.277972 0.107425 1.187 45 65 31
0.279815 0.107425 1.187 46 67 30
0.281659 0.107425 1.187 46 67 30
0.283502 0.107425 1.187 47 68 31
0.285345 0.107425 1.187 48 69 32
0.287189 0.107425 1.187 48 69 32
0.289276 0.107515 1.188 48 69 32
0.291611 0.107696 1.19 50 71 34
0.293459 0.107696 1.19 48 69 32
0.295555 0.107787 1.191 47 68 31
0.297655 0.107877 1.192 47 68 31
0.299506 0.107877 1.192 48 69 32
0.301357 0.107877 1.192 50 71 34
0.303208 0.107877 1.192 50 72 33
0.30506 0.107877 1.192 50 72 33
0.306911 0.107877 1.192 50 72 33
0.308503 0.107787 1.191 47 69 30
0.310353 0.107787 1.191 48 70 31
0.31194 0.107696 1.19 50 72 33
0.313525 0.107606 1.189 51 73 34
0.315106 0.107515 1.188 52 74 35
0.316417 0.107334 1.186 52 74 35
0.317991 0.107244 1.185 51 73 34
0.319831 0.107244 1.185 50 72 33
0.3214 0.107153 1.184 51 73 34
0.323239 0.107153 1.184 64 86 47
0.324803 0.107063 1.183 67 89 50
0.32664 0.107063 1.183 69 91 50
0.328478 0.107063 1.183 74 96 55
0.330315 0.107063 1.183 70 93 49
0.332152 0.107063 1.183 73 96 52
0.333989 0.107063 1.183 73 96 52
0.335827 0.107063 1.183 74 97 53
0.337664 0.107063 1.183 74 97 53
0.339501 0.107063 1.183 73 96 52
0.341627 0.107153 1.184 75 97 58
0.343466 0.107153 1.184 74 96 57
0.345596 0.107244 1.185 69 89 55
0.347436 0.107244 1.185 73 93 59
0.349277 0.107244 1.185 73 92 60
0.351117 0.107244 1.185 73 92 60
0.352957 0.107244 1.185 75 91 60
0.354798 0.107244 1.185 67 83 52
0.356638 0.107244 1.185 69 75 45
0.358478 0.107244 1.185 76 82 52
0.359711 0.107063 1.183 139 145 115
0.361242 0.106972 1.182 105 111 81
0.362771 0.106882 1.181 64 64 45
0.363679 0.10661 1.178 70 70 51
0.363336 0.105977 1.171 59 64 49
0.360079 0.103985 1.149 200 209 193
0.359659 0.103352 1.142 223 232 216
0.359534 0.102809 1.136 199 208 194
0.360662 0.102628 1.134 236 245 231
0.362103 0.102537 1.133 247 246 250
0.363863 0.102537 1.133 144 143 147
0.3653 0.102447 1.132 103 109 109
0.369652 0.103171 1.14 112 118 118
-0.165039 0.108442 1.178 17 28 14
-0.163487 0.108626 1.18 17 28 14
-0.161928 0.10881 1.182 16 30 13
-0.160499 0.109086 1.185 16 30 13
-0.158792 0.109178 1.186 16 30 13
-0.157083 0.10927 1.187 17 31 14
-0.155501 0.109454 1.189 16 30 13
-0.153784 0.109546 1.19 18 32 15
-0.151936 0.109546 1.19 20 35 15
-0.150087 0.109546 1.19 22 37 17
-0.148239 0.109546 1.19 23 38 18
-0.146391 0.109546 1.19 22 37 17
-0.144543 0.109546 1.19 23 38 18
-0.142575 0.109454 1.189 25 40 20
-0.14061 0.109362 1.188 26 41 21
-0.138648 0.10927 1.187 26 41 21
-0.136574 0.109086 1.185 28 40 21
-0.13462 0.108994 1.184 27 39 20
-0.132445 0.108718 1.181 29 41 22
-0.1305 0.108626 1.18 29 41 22
-0.12845 0.108442 1.178 29 41 22
-0.126405 0.108258 1.176 26 38 19
-0.124261 0.107981 1.173 24 35 19
-0.122231 0.107797 1.171 26 37 21
-0.120104 0.107521 1.168 27 38 22
-0.117885 0.107153 1.164 28 39 23
-0.115478 0.106601 1.158 22 31 22
-0.112502 0.105496 1.146 25 34 25
-0.110336 0.105128 1.142 75 89 92
-0.108182 0.104759 1.138 78 92 95
-0.106041 0.104391 1.134 58 84 106
-0.104096 0.104207 1.132 62 88 110
-0.101976 0.103839 1.128 57 91 128
-0.100135 0.103747 1.127 54 88 125
-0.0983849 0.103747 1.127 40 82 122
-0.0965489 0.103655 1.126 41 83 123
-0.0948844 0.103747 1.127 36 81 127
-0.0930515 0.103655 1.126 41 86 132
-0.0912217 0.103563 1.125 54 98 146
-0.0893154 0.103379 1.123 65 109 157
-0.0874154 0.103194 1.121 66 111 162
-0.0852923 0.102734 1.116 62 107 158
-0.0833345 0.102458 1.113 59 106 159
-0.0814594 0.102274 1.111 62 109 162
-0.0796622 0.102182 1.11 64 115 169
-0.0777979 0.101998 1.108 63 114 168
-0.0760085 0.101906 1.107 56 111 167
-0.0742221 0.101814 1.106 52 107 163
-0.0724389 0.101722 1.105 46 105 162
-0.0707228 0.101722 1.105 48 107 164
-0.0690067 0.101722 1.105 47 108 165
-0.0671688 0.101537 1.103 48 109 166
-0.0655152 0.10163 1.104 51 112 169
-0.0637428 0.101537 1.103 51 112 169
-0.0620298 0.101537 1.103 51 111 171
-0.0603168 0.101537 1.103 50 110 170
-0.0586038 0.101537 1.103 50 110 170
-0.0568908 0.101537 1.103 46 106 166
-0.0551779 0.101537 1.103 46 105 168
-0.0534649 0.101537 1.103 44 103 166
-0.0517519 0.101537 1.103 39 101 163
-0.0500842 0.10163 1.104 49 111 173
-0.0483697 0.10163 1.104 49 111 174
-0.0466974 0.101722 1.105 48 110 173
-0.045022 0.101814 1.106 44 107 173
-0.0433043 0.101814 1.106 37 100 166
-0.0416243 0.101906 1.107 45 107 181
-0.0399411 0.101998 1.108 62 124 198
-0.0382204 0.101998 1.108 57 124 197
-0.0364996 0.101998 1.108 49 116 189
-0.0347788 0.101998 1.108 46 118 190
-0.0330581 0.101998 1.108 48 120 192
-0.031309 0.101906 1.107 47 124 195
-0.0295898 0.101906 1.107 51 128 199
-0.0278454 0.101814 1.106 49 130 202
-0.0261278 0.101814 1.106 54 135 207
-0.0243881 0.101722 1.105 54 138 209
-0.0226514 0.10163 1.104 56 140 211
-0.0209179 0.101537 1.103 49 140 210
-0.0191701 0.101353 1.101 63 154 224
-0.0174444 0.101261 1.1 71 162 231
-0.0157074 0.101077 1.098 61 152 221
-0.0140022 0.101077 1.098 64 157 220
-0.0122745 0.100893 1.096 71 164 227
-0.0105628 0.100801 1.095 90 176 232
-0.00885411 0.100709 1.094 114 200 255
-0.00715509 0.100709 1.094 138 207 255
-0.00545108 0.100617 1.093 134 203 252
-0.00375361 0.100617 1.093 142 186 226
-0.00205427 0.100525 1.092 149 193 233
-0.000358353 0.100525 1.092 172 203 229
0.00133756 0.100525 1.092 164 195 221
0.00303347 0.100525 1.092 176 205 224
0.00472939 0.100525 1.092 171 200 219
0.0064253 0.100525 1.092 173 198 215
0.00812121 0.100525 1.092 176 201 218
0.00981713 0.100525 1.092 200 223 239
0.0115236 0.100617 1.093 206 229 245
0.013221 0.100617 1.093 207 230 241
0.0149322 0.100709 1.094 216 239 250
0.0166312 0.100709 1.094 230 249 255
0.0183302 0.100709 1.094 235 254 255
0.0200292 0.100709 1.094 237 254 255
0.0217282 0.100709 1.094 235 252 255
0.0234273 0.100709 1.094 229 246 247
0.0251263 0.100709 1.094 232 249 250
0.0268253 0.100709 1.094 243 255 255
0.0285243 0.100709 1.094 243 255 255
0.0302233 0.100709 1.094 243 255 255
0.0319515 0.100801 1.095 243 255 255
0.0336828 0.100893 1.096 245 255 255
0.0354173 0.100985 1.097 245 255 255
0.0371548 0.101077 1.098 245 255 254
0.03886 0.101077 1.098 245 255 254
0.042309 0.101169 1.099 247 255 254
0.0440558 0.101261 1.1 247 255 254
0.0457641 0.101261 1.1 247 255 254
0.0474293 0.101169 1.099 249 255 254
0.0490914 0.101077 1.098 249 255 254
0.0507966 0.101077 1.098 249 255 254
0.052454 0.100985 1.097 249 255 254
0.0541577 0.100985 1.097 249 255 254
0.0558614 0.100985 1.097 249 255 254
0.0575651 0.100985 1.097 249 255 254
0.0592687 0.100985 1.097 249 255 254
0.0609724 0.100985 1.097 249 255 254
0.0627332 0.101077 1.098 249 255 254
0.0644385 0.101077 1.098 245 255 254
0.0660835 0.100985 1.097 245 255 254
0.0677871 0.100985 1.097 227 255 254
0.0694908 0.100985 1.097 223 255 250
0.0711945 0.100985 1.097 197 255 247
0.0728982 0.100985 1.097 196 255 246
0.0746699 0.101077 1.098 171 255 250
0.0764446 0.101169 1.099 171 255 250
0.0782225 0.101261 1.1 154 255 252
0.0800762 0.101445 1.102 154 255 252
0.0835749 0.101537 1.103 145 255 253
0.0853652 0.10163 1.104 139 252 255
0.0870797 0.10163 1.104 127 240 243
0.0886334 0.101445 1.102 129 242 252
0.0902629 0.101353 1.101 122 235 245
0.0919728 0.101353 1.101 123 237 251
0.0936827 0.101353 1.101 121 235 249
0.0953059 0.101261 1.1 119 232 251
0.0971025 0.101353 1.101 118 231 250
0.0988123 0.101353 1.101 117 223 253
0.100614 0.101445 1.102 117 223 253
0.102418 0.101537 1.103 114 216 255
0.106036 0.101722 1.105 97 195 249
0.107752 0.101722 1.105 101 199 253
0.109468 0.101722 1.105 101 195 255
0.111184 0.101722 1.105 84 178 244
0.1129 0.101722 1.105 87 179 252
0.114616 0.101722 1.105 80 172 245
0.116332 0.101722 1.105 75 166 241
0.118048 0.101722 1.105 72 163 238
0.119765 0.101722 1.105 77 168 243
0.121481 0.101722 1.105 77 168 243
0.125026 0.101814 1.106 84 168 239
0.128577 0.101906 1.107 93 165 231
0.130414 0.101998 1.108 117 171 229
0.132135 0.101998 1.108 114 168 226
0.133856 0.101998 1.108 125 165 212
0.135699 0.10209 1.109 127 167 214
0.137545 0.102182 1.11 151 182 221
