ply
format ascii 1.0
comment Created by Open3D
element vertex 1323
property double x
property double y
property double z
property uchar red
property uchar green
property uchar blue
end_header
-0.0658712 -0.0600543 1.11 119 119 136
-0.0640896 -0.0600002 1.109 118 118 135
-0.062311 -0.0599461 1.108 117 119 138
-0.0604262 -0.0597838 1.105 123 125 144
-0.058657 -0.0597297 1.104 138 140 159
-0.0568393 -0.0596215 1.102 139 141 160
-0.0550778 -0.0595674 1.101 140 142 161
-0.053271 -0.0594592 1.099 139 141 160
-0.0515173 -0.0594051 1.098 142 144 163
-0.049812 -0.0594051 1.098 140 142 161
-0.0481068 -0.0594051 1.098 142 144 163
-0.0463593 -0.059351 1.097 142 144 163
-0.0446149 -0.0592968 1.096 143 145 164
-0.0428345 -0.0591886 1.094 145 147 166
-0.0411355 -0.0591886 1.094 150 152 171
-0.0394365 -0.0591886 1.094 150 152 171
-0.0377029 -0.0591345 1.093 145 147 166
-0.0359396 -0.0590263 1.091 144 146 165
-0.0342138 -0.0589722 1.09 168 168 185
-0.0324912 -0.0589181 1.089 190 190 207
-0.0307999 -0.0589181 1.089 199 201 213
-0.029082 -0.058864 1.088 202 204 216
-0.0273923 -0.058864 1.088 215 218 226
-0.0256553 -0.0587558 1.086 220 223 231
-0.0239687 -0.0587558 1.086 226 229 237
-0.0222616 -0.0587017 1.085 240 243 251
-0.0205386 -0.0585935 1.083 250 252 255
-0.0188741 -0.0586476 1.084 251 253 255
-0.0171748 -0.0585935 1.083 251 254 255
-0.0154928 -0.0585935 1.083 249 252 255
-0.0138109 -0.0585935 1.083 249 253 253
-0.0121513 -0.0587017 1.085 251 255 255
-0.010476 -0.0587558 1.086 251 255 254
-0.00881364 -0.0589181 1.089 251 255 254
-0.00713547 -0.0590263 1.091 251 255 254
-0.00545108 -0.0591345 1.093 251 255 254
-0.00376048 -0.0592427 1.095 251 255 254
-0.000360322 -0.0594051 1.098 251 255 254
0.00134736 -0.0595133 1.1 251 255 254
0.00306125 -0.0596215 1.102 251 255 254
0.00477703 -0.0596756 1.103 251 255 254
0.00649002 -0.0596756 1.103 251 255 254
0.00820302 -0.0596756 1.103 251 255 254
0.00991602 -0.0596756 1.103 251 255 254
0.011629 -0.0596756 1.103 251 255 254
0.013342 -0.0596756 1.103 251 255 254
0.015055 -0.0596756 1.103 251 255 254
0.016768 -0.0596756 1.103 251 255 254
0.018481 -0.0596756 1.103 251 255 254
0.020194 -0.0596756 1.103 251 255 254
0.0219269 -0.0597297 1.104 251 255 254
0.0236414 -0.0597297 1.104 249 255 254
0.0253789 -0.0597838 1.105 249 255 254
0.0271195 -0.0598379 1.106 243 255 254
0.0288633 -0.059892 1.107 242 255 253
0.0306377 -0.0600002 1.109 223 255 252
0.0324184 -0.0601084 1.111 221 255 250
0.0342053 -0.0602166 1.113 200 255 248
0.0359984 -0.0603248 1.115 199 255 247
0.0378315 -0.0604871 1.118 179 255 249
0.0396386 -0.0605953 1.12 178 255 248
0.041415 -0.0606494 1.121 170 255 249
0.0433869 -0.060974 1.127 169 255 248
0.0452974 -0.0611905 1.131 163 255 253
0.0490693 -0.0615151 1.137 174 255 255
0.0510586 -0.0617856 1.142 93 177 175
0.0530635 -0.0620561 1.147 29 83 75
0.0551795 -0.0624348 1.154 22 76 68
0.0573173 -0.0628135 1.161 45 78 60
0.0653633 -0.0636251 1.176 54 82 49
0.0673611 -0.0637874 1.179 53 81 48
0.0692508 -0.0638415 1.18 55 82 47
0.0711436 -0.0638956 1.181 54 81 46
0.0730396 -0.0639497 1.182 54 82 44
0.0748752 -0.0639497 1.182 53 81 43
0.0767758 -0.0640038 1.183 53 81 43
0.0786795 -0.0640579 1.184 53 81 43
0.0805863 -0.064112 1.185 56 81 44
0.0824267 -0.064112 1.185 55 80 43
0.0843381 -0.0641661 1.186 56 81 44
0.08618 -0.0641661 1.186 56 81 44
0.0880961 -0.0642202 1.187 56 81 44
0.0899396 -0.0642202 1.187 56 81 44
0.091783 -0.0642202 1.187 54 79 42
0.0936265 -0.0642202 1.187 54 79 42
0.0954699 -0.0642202 1.187 54 79 42
0.0973954 -0.0642743 1.188 54 79 42
0.0992404 -0.0642743 1.188 55 80 43
0.101 -0.0642202 1.187 54 79 42
0.102844 -0.0642202 1.187 53 78 41
0.104687 -0.0642202 1.187 54 79 42
0.106531 -0.0642202 1.187 54 79 42
0.108374 -0.0642202 1.187 54 79 42
0.110218 -0.0642202 1.187 55 80 43
0.112061 -0.0642202 1.187 53 78 41
0.113904 -0.0642202 1.187 53 78 41
0.115845 -0.0642743 1.188 51 76 39
0.117789 -0.0643284 1.189 53 78 41
0.119737 -0.0643825 1.19 50 75 38
0.121585 -0.0643825 1.19 51 76 39
0.123537 -0.0644366 1.191 50 75 38
0.125492 -0.0644907 1.192 51 77 38
0.127343 -0.0644907 1.192 51 77 38
0.129194 -0.0644907 1.192 49 75 36
0.131045 -0.0644907 1.192 50 76 37
0.132896 -0.0644907 1.192 51 77 38
0.134748 -0.0644907 1.192 51 77 38
0.136599 -0.0644907 1.192 50 76 35
0.13845 -0.0644907 1.192 48 74 33
0.140184 -0.0644366 1.191 49 75 34
0.141914 -0.0643825 1.19 48 74 33
0.143762 -0.0643825 1.19 49 76 32
0.145488 -0.0643284 1.189 47 74 30
0.147087 -0.0642202 1.187 47 74 30
0.14893 -0.0642202 1.187 46 73 29
0.150646 -0.0641661 1.186 48 75 31
0.15236 -0.064112 1.185 46 73 29
0.1542 -0.064112 1.185 46 73 29
0.15604 -0.064112 1.185 46 73 29
0.157881 -0.064112 1.185 44 72 26
0.159586 -0.0640579 1.184 46 74 28
0.161425 -0.0640579 1.184 46 74 28
0.163264 -0.0640579 1.184 46 74 28
0.164963 -0.0640038 1.183 46 73 24
0.166801 -0.0640038 1.183 49 76 27
0.168638 -0.0640038 1.183 51 78 29
0.170619 -0.0640579 1.184 52 79 30
0.172458 -0.0640579 1.184 53 80 31
0.174297 -0.0640579 1.184 52 79 30
0.176136 -0.0640579 1.184 52 79 30
0.177974 -0.0640579 1.184 51 78 29
0.179813 -0.0640579 1.184 51 77 31
0.181652 -0.0640579 1.184 51 77 31
0.183491 -0.0640579 1.184 50 76 30
0.185486 -0.064112 1.185 51 77 31
0.187326 -0.064112 1.185 52 78 32
0.189167 -0.064112 1.185 51 77 31
0.191168 -0.0641661 1.186 50 76 30
0.193173 -0.0642202 1.187 52 78 32
0.195016 -0.0642202 1.187 52 77 33
0.197026 -0.0642743 1.188 53 78 34
0.199205 -0.0643825 1.19 55 80 36
0.201054 -0.0643825 1.19 53 78 34
0.203072 -0.0644366 1.191 54 77 33
0.205094 -0.0644907 1.192 53 76 32
0.206945 -0.0644907 1.192 54 77 33
0.208971 -0.0645448 1.193 54 77 33
0.211001 -0.0645989 1.194 55 78 34
0.212855 -0.0645989 1.194 54 77 33
0.21471 -0.0645989 1.194 55 80 36
0.216564 -0.0645989 1.194 55 80 36
0.218418 -0.0645989 1.194 50 75 31
0.220273 -0.0645989 1.194 51 76 32
0.222127 -0.0645989 1.194 52 77 33
0.223981 -0.0645989 1.194 50 75 31
0.225646 -0.0645448 1.193 48 73 29
0.22769 -0.0645989 1.194 48 73 29
0.229352 -0.0645448 1.193 45 70 26
0.231205 -0.0645448 1.193 44 69 25
0.233057 -0.0645448 1.193 42 67 23
0.23491 -0.0645448 1.193 41 66 22
0.236763 -0.0645448 1.193 37 62 18
0.238416 -0.0644907 1.192 37 62 18
0.240267 -0.0644907 1.192 37 62 18
0.242118 -0.0644907 1.192 42 67 23
0.243969 -0.0644907 1.192 41 65 26
0.245821 -0.0644907 1.192 31 55 16
0.247672 -0.0644907 1.192 29 52 15
0.249523 -0.0644907 1.192 28 51 14
0.251374 -0.0644907 1.192 16 37 5
0.253226 -0.0644907 1.192 23 44 12
0.255077 -0.0644907 1.192 21 42 10
0.256712 -0.0644366 1.191 22 43 11
0.258562 -0.0644366 1.191 21 42 10
0.260412 -0.0644366 1.191 21 42 10
0.262261 -0.0644366 1.191 23 42 10
0.263889 -0.0643825 1.19 23 42 10
0.265737 -0.0643825 1.19 24 42 13
0.267586 -0.0643825 1.19 24 42 13
0.269434 -0.0643825 1.19 24 42 13
0.271054 -0.0643284 1.189 25 43 14
0.272441 -0.0642202 1.187 24 42 13
0.274285 -0.0642202 1.187 25 43 14
0.275896 -0.0641661 1.186 23 43 14
0.277737 -0.0641661 1.186 23 43 14
0.279344 -0.064112 1.185 23 43 14
0.281421 -0.0641661 1.186 23 43 14
0.283502 -0.0642202 1.187 25 43 14
0.285345 -0.0642202 1.187 25 43 14
0.287189 -0.0642202 1.187 25 43 14
0.291611 -0.0643825 1.19 23 41 12
0.293706 -0.0644366 1.191 25 43 14
0.296052 -0.0645448 1.193 25 43 14
0.298404 -0.064653 1.195 26 44 15
0.300762 -0.0647612 1.197 26 44 15
0.303127 -0.0648695 1.199 27 45 16
0.305243 -0.0649236 1.2 26 44 15
0.307107 -0.0649236 1.2 26 44 15
0.309486 -0.0650318 1.202 25 43 16
0.311352 -0.0650318 1.202 24 42 15
0.313219 -0.0650318 1.202 23 41 14
0.315086 -0.0650318 1.202 24 42 15
0.316689 -0.0649777 1.201 24 42 15
0.318289 -0.0649236 1.2 24 42 15
0.320152 -0.0649236 1.2 24 42 15
0.321479 -0.0648154 1.198 24 42 15
0.32307 -0.0647612 1.197 25 43 16
0.324929 -0.0647612 1.197 26 44 17
0.326515 -0.0647071 1.196 29 47 20
0.328098 -0.064653 1.195 29 47 20
0.329678 -0.0645989 1.194 30 48 21
0.331254 -0.0645448 1.193 30 48 21
0.332828 -0.0644907 1.192 31 49 22
0.334679 -0.0644907 1.192 32 50 23
0.33653 -0.0644907 1.192 33 51 24
0.338381 -0.0644907 1.192 34 52 25
0.340233 -0.0644907 1.192 34 54 27
0.342084 -0.0644907 1.192 32 52 25
0.343935 -0.0644907 1.192 31 51 24
0.345786 -0.0644907 1.192 32 52 25
0.347346 -0.0644366 1.191 32 51 26
0.348902 -0.0643825 1.19 34 53 28
0.350456 -0.0643284 1.189 31 47 30
0.35171 -0.0642202 1.187 28 44 27
0.352957 -0.064112 1.185 31 44 31
0.354498 -0.0640579 1.184 80 93 80
0.355735 -0.0639497 1.182 86 95 86
0.356966 -0.0638415 1.18 90 99 90
0.35819 -0.0637333 1.178 71 80 71
0.359409 -0.0636251 1.176 70 79 70
0.360928 -0.063571 1.175 45 52 48
0.362753 -0.063571 1.175 54 61 57
0.364577 -0.063571 1.175 73 81 83
0.363908 -0.0631382 1.167 65 73 75
0.36384 -0.0628135 1.161 57 67 74
0.362065 -0.0618938 1.144 109 121 129
0.361934 -0.0615692 1.138 111 123 131
0.361784 -0.0612446 1.132 138 150 158
0.363542 -0.0612446 1.132 140 152 160
0.366268 -0.0614069 1.135 82 91 100
0.3703 -0.0617856 1.142 75 84 93
-0.165319 -0.0620067 1.18 6 18 8
-0.163625 -0.0620593 1.181 6 18 8
-0.161928 -0.0621118 1.182 6 18 8
-0.160228 -0.0621644 1.183 8 20 10
-0.158525 -0.0622169 1.184 8 20 10
-0.156951 -0.062322 1.186 6 18 8
-0.155239 -0.0623746 1.187 8 20 10
-0.153525 -0.0624271 1.188 9 21 11
-0.151808 -0.0624797 1.189 11 24 11
-0.150087 -0.0625322 1.19 12 25 12
-0.148239 -0.0625322 1.19 15 29 14
-0.146514 -0.0625848 1.191 17 31 16
-0.144786 -0.0626373 1.192 15 29 12
-0.142935 -0.0626373 1.192 10 24 7
-0.141084 -0.0626373 1.192 19 30 14
-0.139116 -0.0625848 1.191 21 32 16
-0.137151 -0.0625322 1.19 21 33 14
-0.135303 -0.0625322 1.19 20 32 13
-0.133342 -0.0624797 1.189 20 32 13
-0.131385 -0.0624271 1.188 21 33 14
-0.129431 -0.0623746 1.187 20 32 13
-0.127588 -0.0623746 1.187 20 32 13
-0.125744 -0.0623746 1.187 18 30 11
-0.123901 -0.0623746 1.187 15 27 8
-0.122057 -0.0623746 1.187 17 29 10
-0.120113 -0.062322 1.186 19 31 12
-0.118271 -0.062322 1.186 18 30 11
-0.116331 -0.0622695 1.185 19 31 12
-0.11449 -0.0622695 1.185 18 30 11
-0.11265 -0.0622695 1.185 18 30 11
-0.110716 -0.0622169 1.184 14 26 7
-0.108785 -0.0621644 1.183 15 27 8
-0.106858 -0.0621118 1.182 14 25 9
-0.104933 -0.0620593 1.181 15 26 10
-0.103012 -0.0620067 1.18 14 25 9
-0.101008 -0.0619016 1.178 14 25 9
-0.0989256 -0.061744 1.175 13 24 8
-0.0969355 -0.0616389 1.173 14 25 9
-0.0947895 -0.0614287 1.169 13 24 10
-0.0927354 -0.0612711 1.166 13 24 10
-0.0906126 -0.0610609 1.162 12 23 9
-0.0885023 -0.0608507 1.158 11 22 8
-0.0861797 -0.0604828 1.151 11 21 9
-0.0841722 -0.0603252 1.148 10 20 8
-0.0821023 -0.060115 1.144 7 12 8
-0.0799043 -0.0597997 1.138 6 11 7
-0.0736189 -0.0590115 1.123 77 79 89
-0.0714269 -0.0586437 1.116 120 122 132
-0.0695688 -0.0585386 1.114 130 129 149
-0.0677169 -0.0584335 1.112 125 124 144
-0.0658712 -0.0583284 1.11 119 118 138
-0.0640318 -0.0582233 1.108 121 120 140
-0.0621986 -0.0581182 1.106 122 124 143
-0.0604262 -0.0580656 1.105 123 125 144
-0.0586038 -0.0579605 1.103 136 138 157
-0.0567877 -0.0578554 1.101 133 135 154
-0.0550278 -0.0578029 1.1 137 139 158
-0.0532225 -0.0576978 1.098 140 142 161
-0.0515173 -0.0576978 1.098 139 140 161
-0.0497667 -0.0576452 1.097 139 140 161
-0.048063 -0.0576452 1.097 142 143 164
-0.046317 -0.0575927 1.096 143 144 165
-0.0445742 -0.0575402 1.095 143 145 164
-0.0428345 -0.0574876 1.094 142 144 163
-0.0410979 -0.0574351 1.093 140 142 161
-0.0393644 -0.0573825 1.092 143 145 164
-0.0376684 -0.0573825 1.092 142 145 161
-0.0359396 -0.05733 1.091 148 151 167
-0.0342138 -0.0572774 1.09 187 188 203
-0.0324912 -0.0572249 1.089 205 206 221
-0.0307999 -0.0572249 1.089 215 217 227
-0.029082 -0.0571723 1.088 218 220 230
-0.0273923 -0.0571723 1.088 219 222 230
-0.0256553 -0.0570672 1.086 220 223 231
-0.0239466 -0.0570147 1.085 225 228 236
-0.0222616 -0.0570147 1.085 233 236 244
-0.0205386 -0.0569096 1.083 246 248 253
-0.0188567 -0.0569096 1.083 243 245 250
-0.0171748 -0.0569096 1.083 247 250 253
-0.0154928 -0.0569096 1.083 246 249 252
-0.0138109 -0.0569096 1.083 250 254 253
-0.0121513 -0.0570147 1.085 251 255 254
-0.010476 -0.0570672 1.086 251 255 254
-0.00880555 -0.0571723 1.088 251 255 254
-0.00712892 -0.0572774 1.09 251 255 254
-0.00544609 -0.0573825 1.092 251 255 254
-0.00376048 -0.0575402 1.095 251 255 254
-0.000359994 -0.0576452 1.097 251 255 254
0.00134736 -0.0578029 1.1 251 255 254
0.00305847 -0.0578554 1.101 251 255 254
0.00477703 -0.0579605 1.103 251 255 254
0.00649002 -0.0579605 1.103 251 255 254
0.00820302 -0.0579605 1.103 251 255 254
0.00992501 -0.0580131 1.104 251 255 254
0.0116396 -0.0580131 1.104 251 255 254
0.0133541 -0.0580131 1.104 251 255 254
0.0150823 -0.0580656 1.105 251 255 254
0.0167984 -0.0580656 1.105 251 255 254
0.0184978 -0.0580131 1.104 251 255 254
0.0202123 -0.0580131 1.104 251 255 254
0.0219467 -0.0580656 1.105 251 255 254
0.0236628 -0.0580656 1.105 251 255 254
0.0254019 -0.0581182 1.106 251 255 254
0.0271441 -0.0581707 1.107 249 255 254
0.0289154 -0.0582758 1.109 249 255 254
0.030693 -0.0583809 1.111 234 255 253
0.0324768 -0.058486 1.113 234 255 253
0.0342668 -0.0585911 1.115 213 255 252
0.036063 -0.0586962 1.117 210 255 249
0.0378654 -0.0588013 1.119 188 255 248
0.039674 -0.0589064 1.121 187 255 247
0.0415627 -0.0591166 1.125 174 255 248
0.0435024 -0.0593793 1.13 174 255 248
0.0472619 -0.0596946 1.136 181 255 255
0.0492851 -0.0600099 1.142 158 222 222
0.0512822 -0.0602727 1.147 29 93 93
0.0533873 -0.0606405 1.154 40 78 69
0.0555143 -0.0610083 1.161 42 80 71
0.0576135 -0.0613236 1.167 56 82 56
0.0615532 -0.0616389 1.173 58 86 53
0.063591 -0.0618491 1.177 52 80 47
0.0655857 -0.0620067 1.18 54 84 46
0.0675325 -0.0621118 1.182 53 83 45
0.0693682 -0.0621118 1.182 55 83 45
0.0712641 -0.0621644 1.183 54 82 44
0.0731631 -0.0622169 1.184 54 82 44
0.0750653 -0.0622695 1.185 53 81 43
0.0769056 -0.0622695 1.185 53 81 43
0.078746 -0.0622695 1.185 53 81 43
0.0805863 -0.0622695 1.185 56 81 44
0.0824267 -0.0622695 1.185 55 80 43
0.0843381 -0.062322 1.186 55 80 43
0.08618 -0.062322 1.186 55 80 43
0.0880219 -0.062322 1.186 55 80 43
0.0899396 -0.0623746 1.187 56 81 44
0.091783 -0.0623746 1.187 54 79 42
0.0936265 -0.0623746 1.187 53 78 41
0.0954699 -0.0623746 1.187 54 79 42
0.0973134 -0.0623746 1.187 53 78 41
0.0991568 -0.0623746 1.187 55 80 43
0.101 -0.0623746 1.187 55 80 43
0.102844 -0.0623746 1.187 55 80 43
0.104687 -0.0623746 1.187 55 80 43
0.106531 -0.0623746 1.187 55 80 43
0.108374 -0.0623746 1.187 54 79 42
0.110218 -0.0623746 1.187 55 80 43
0.112061 -0.0623746 1.187 55 80 43
0.113904 -0.0623746 1.187 54 79 42
0.115943 -0.0624797 1.189 50 75 38
0.117789 -0.0624797 1.189 51 76 39
0.119737 -0.0625322 1.19 50 75 38
0.121585 -0.0625322 1.19 51 77 38
0.12364 -0.0626373 1.192 50 76 37
0.125492 -0.0626373 1.192 51 77 38
0.127343 -0.0626373 1.192 51 77 38
0.129194 -0.0626373 1.192 50 76 35
0.131045 -0.0626373 1.192 50 76 35
0.132896 -0.0626373 1.192 50 76 35
0.134748 -0.0626373 1.192 51 77 36
0.136599 -0.0626373 1.192 49 75 34
0.138334 -0.0625848 1.191 48 74 33
0.140066 -0.0625322 1.19 48 75 31
0.141914 -0.0625322 1.19 48 75 31
0.143641 -0.0624797 1.189 48 75 31
0.145243 -0.0623746 1.187 48 75 31
0.147087 -0.0623746 1.187 46 73 29
0.148805 -0.062322 1.186 46 73 29
0.150519 -0.0622695 1.185 48 75 31
0.15236 -0.0622695 1.185 46 73 29
0.15407 -0.0622169 1.184 46 73 29
0.155909 -0.0622169 1.184 44 71 27
0.157614 -0.0621644 1.183 46 74 28
0.159452 -0.0621644 1.183 47 75 29
0.161289 -0.0621644 1.183 47 75 29
0.163126 -0.0621644 1.183 46 74 28
0.164824 -0.0621118 1.182 48 74 28
0.16666 -0.0621118 1.182 42 68 22
0.168495 -0.0621118 1.182 52 79 30
0.170331 -0.0621118 1.182 53 80 31
0.172312 -0.0621644 1.183 52 79 30
0.17415 -0.0621644 1.183 50 77 28
0.175987 -0.0621644 1.183 51 78 29
0.177824 -0.0621644 1.183 51 78 29
0.179661 -0.0621644 1.183 51 78 29
0.181498 -0.0621644 1.183 52 79 30
0.183491 -0.0622169 1.184 52 78 32
0.185486 -0.0622695 1.185 53 79 33
0.187326 -0.0622695 1.185 53 79 33
0.189167 -0.0622695 1.185 53 79 33
0.191168 -0.062322 1.186 52 77 33
0.193173 -0.0623746 1.187 55 80 36
0.195016 -0.0623746 1.187 55 80 36
0.197191 -0.0624797 1.189 55 80 36
0.199205 -0.0625322 1.19 55 80 36
0.201222 -0.0625848 1.191 53 78 34
0.203243 -0.0626373 1.192 52 77 33
0.205094 -0.0626373 1.192 50 75 31
0.207119 -0.0626899 1.193 51 76 32
0.209147 -0.0627424 1.194 49 74 30
0.211001 -0.0627424 1.194 52 77 33
0.213034 -0.062795 1.195 50 75 31
0.214889 -0.062795 1.195 53 78 34
0.216745 -0.062795 1.195 55 80 36
0.218418 -0.0627424 1.194 51 76 32
0.220457 -0.062795 1.195 52 77 33
0.222127 -0.0627424 1.194 52 77 33
0.223981 -0.0627424 1.194 52 77 33
0.225646 -0.0626899 1.193 49 74 30
0.22769 -0.0627424 1.194 48 73 29
0.229544 -0.0627424 1.194 45 70 26
0.231399 -0.0627424 1.194 44 69 25
0.233057 -0.0626899 1.193 43 68 24
0.23491 -0.0626899 1.193 43 68 24
0.236763 -0.0626899 1.193 38 63 19
0.238416 -0.0626373 1.192 37 62 18
0.240267 -0.0626373 1.192 39 62 18
0.242118 -0.0626373 1.192 40 63 19
0.243969 -0.0626373 1.192 35 59 20
0.245821 -0.0626373 1.192 31 55 16
0.247672 -0.0626373 1.192 29 52 15
0.249523 -0.0626373 1.192 30 53 16
0.251374 -0.0626373 1.192 25 47 13
0.253226 -0.0626373 1.192 28 50 16
0.255077 -0.0626373 1.192 23 44 12
0.256928 -0.0626373 1.192 23 44 12
0.258562 -0.0625848 1.191 25 44 12
0.260412 -0.0625848 1.191 26 45 13
0.262261 -0.0625848 1.191 25 44 12
0.263889 -0.0625322 1.19 24 43 11
0.265737 -0.0625322 1.19 24 43 11
0.267586 -0.0625322 1.19 24 43 11
0.269207 -0.0624797 1.189 24 42 13
0.271054 -0.0624797 1.189 26 44 15
0.272441 -0.0623746 1.187 25 43 14
0.274054 -0.062322 1.186 25 43 14
0.275663 -0.0622695 1.185 25 43 14
0.277737 -0.062322 1.186 25 43 14
0.279344 -0.0622695 1.185 25 43 14
0.281184 -0.0622695 1.185 25 43 14
0.283263 -0.062322 1.186 25 43 14
0.285345 -0.0623746 1.187 25 43 14
0.287431 -0.0624271 1.188 25 43 14
0.291366 -0.0624797 1.189 24 42 13
0.293706 -0.0625848 1.191 25 43 14
0.295803 -0.0626373 1.192 25 43 14
0.298154 -0.0627424 1.194 24 42 13
0.300511 -0.0628475 1.196 26 44 15
0.302874 -0.0629526 1.198 26 44 15
0.305243 -0.0630577 1.2 26 44 15
0.307107 -0.0630577 1.2 26 44 15
0.308971 -0.0630577 1.2 26 44 17
0.311093 -0.0631102 1.201 23 41 14
0.312958 -0.0631102 1.201 23 41 14
0.314824 -0.0631102 1.201 24 42 15
0.316425 -0.0630577 1.2 25 43 16
0.318289 -0.0630577 1.2 24 42 15
0.319619 -0.0629526 1.198 25 43 16
0.321211 -0.0629001 1.197 25 43 16
0.32307 -0.0629001 1.197 25 43 16
0.324658 -0.0628475 1.196 26 44 17
0.326242 -0.062795 1.195 27 45 18
0.327823 -0.0627424 1.194 31 49 22
0.329125 -0.0626373 1.192 31 49 22
0.330977 -0.0626373 1.192 31 49 22
0.332828 -0.0626373 1.192 31 49 22
0.334398 -0.0625848 1.191 31 49 22
0.336248 -0.0625848 1.191 33 51 24
0.338098 -0.0625848 1.191 33 51 24
0.339947 -0.0625848 1.191 32 52 25
0.341797 -0.0625848 1.191 31 51 24
0.345786 -0.0626373 1.192 31 51 24
0.347346 -0.0625848 1.191 32 51 26
0.348902 -0.0625322 1.19 32 51 26
0.350161 -0.0624271 1.188 34 52 30
0.35171 -0.0623746 1.187 29 47 25
0.352957 -0.0622695 1.185 31 44 31
0.354498 -0.0622169 1.184 64 77 64
0.355735 -0.0621118 1.182 92 101 92
0.356966 -0.0620067 1.18 102 111 102
0.35819 -0.0619016 1.178 87 93 86
0.359714 -0.0618491 1.177 79 85 78
0.361235 -0.0617965 1.176 71 78 74
0.362753 -0.061744 1.175 78 85 81
0.364577 -0.061744 1.175 74 83 82
0.364219 -0.0613762 1.168 61 70 69
0.36384 -0.0610083 1.161 56 66 73
0.362065 -0.060115 1.144 115 127 137
0.361934 -0.0597997 1.138 119 131 141
0.361784 -0.0594844 1.132 140 152 162
0.363863 -0.059537 1.133 142 154 164
0.366591 -0.0596946 1.136 82 91 100
0.3703 -0.0600099 1.142 75 84 93
-0.165179 -0.060121 1.179 6 18 8
-0.163625 -0.060223 1.181 6 18 8
-0.161928 -0.060274 1.182 6 18 8
-0.160363 -0.060376 1.184 6 18 8
-0.158659 -0.0604269 1.185 6 18 8
-0.157083 -0.0605289 1.187 8 20 10
-0.155239 -0.0605289 1.187 8 20 10
-0.153654 -0.0606309 1.189 9 21 11
-0.151936 -0.0606819 1.19 12 25 12
-0.150087 -0.0606819 1.19 13 26 13
-0.148488 -0.0607839 1.192 18 29 15
-0.146637 -0.0607839 1.192 17 28 14
-0.144908 -0.0608349 1.193 14 25 9
-0.143055 -0.0608349 1.193 15 26 10
-0.141084 -0.0607839 1.192 12 26 9
-0.139232 -0.0607839 1.192 17 31 14
-0.137381 -0.0607839 1.192 20 35 15
-0.135416 -0.0607329 1.191 19 34 14
-0.133454 -0.0606819 1.19 18 33 13
-0.131606 -0.0606819 1.19 17 32 12
-0.129649 -0.0606309 1.189 17 32 12
-0.127695 -0.0605799 1.188 16 31 11
-0.125744 -0.0605289 1.187 18 30 11
-0.123901 -0.0605289 1.187 17 29 10
-0.122057 -0.0605289 1.187 15 27 8
-0.120113 -0.0604779 1.186 18 30 11
-0.118171 -0.0604269 1.185 17 29 10
-0.116331 -0.0604269 1.185 15 27 8
-0.11449 -0.0604269 1.185 14 26 7
-0.11246 -0.060325 1.183 15 27 8
-0.110623 -0.060325 1.183 15 27 8
-0.108693 -0.060274 1.182 15 27 8
-0.106858 -0.060274 1.182 14 25 9
-0.104844 -0.060172 1.18 14 25 9
-0.102924 -0.060121 1.179 12 23 7
-0.100922 -0.060019 1.177 13 24 8
-0.0989256 -0.059917 1.175 13 24 10
-0.0968529 -0.059764 1.172 13 24 10
-0.0947084 -0.0595601 1.168 12 23 9
-0.0926558 -0.0594071 1.165 11 22 8
-0.0905346 -0.0592031 1.161 11 22 8
-0.0885023 -0.0590501 1.158 11 22 8
-0.08603 -0.0585912 1.149 11 21 9
-0.0840256 -0.0584382 1.146 6 16 4
-0.0819587 -0.0582342 1.142 3 8 4
-0.0798341 -0.0579793 1.137 17 22 18
-0.077725 -0.0577243 1.132 49 51 56
-0.0756314 -0.0574693 1.127 52 54 59
-0.0736189 -0.0572654 1.123 91 93 105
-0.0714269 -0.0569084 1.116 127 129 141
-0.0696312 -0.0568574 1.115 128 128 145
-0.067656 -0.0566535 1.111 125 125 142
-0.0658119 -0.0565515 1.109 120 120 137
-0.0639162 -0.0563985 1.106 123 123 140
-0.0621423 -0.0563475 1.105 129 131 150
-0.0603168 -0.0562455 1.103 128 130 149
-0.0586038 -0.0562455 1.103 135 137 156
-0.0567877 -0.0561435 1.101 131 133 152
-0.0549778 -0.0560415 1.099 133 135 154
-0.053174 -0.0559395 1.097 138 140 159
-0.0514703 -0.0559395 1.097 142 144 163
-0.0497213 -0.0558886 1.096 142 144 163
-0.0480192 -0.0558886 1.096 143 145 164
-0.0462748 -0.0558376 1.095 143 145 164
-0.0445335 -0.0557866 1.094 143 145 164
-0.0428345 -0.0557866 1.094 138 140 159
-0.0410603 -0.0556846 1.092 142 144 163
-0.0393644 -0.0556846 1.092 142 144 163
-0.0376339 -0.0556336 1.091 148 151 167
-0.0359396 -0.0556336 1.091 180 183 199
-0.0342138 -0.0555826 1.09 212 214 224
-0.0324912 -0.0555316 1.089 220 222 232
-0.0307999 -0.0555316 1.089 224 227 235
-0.029082 -0.0554806 1.088 221 224 232
-0.0273923 -0.0554806 1.088 219 222 230
-0.0256789 -0.0554296 1.087 221 224 232
-0.0239687 -0.0553786 1.086 226 228 233
-0.0222616 -0.0553276 1.085 232 234 239
-0.0205576 -0.0552766 1.084 243 245 250
-0.0188567 -0.0552256 1.083 248 250 255
-0.0171748 -0.0552256 1.083 248 252 252
-0.0154928 -0.0552256 1.083 250 254 254
-0.0138109 -0.0552256 1.083 251 255 254
-0.0121401 -0.0552766 1.084 251 255 254
-0.010476 -0.0553786 1.086 251 255 254
-0.00880555 -0.0554806 1.088 251 255 254
-0.00712892 -0.0555826 1.09 251 255 254
-0.00544609 -0.0556846 1.092 251 255 254
-0.00375705 -0.0557866 1.094 251 255 254
-0.000359994 -0.0559395 1.097 251 255 254
0.00134613 -0.0560415 1.099 251 255 254
0.00305847 -0.0561435 1.101 251 255 254
0.00477703 -0.0562455 1.103 251 255 254
0.00649591 -0.0562965 1.104 251 255 254
0.00821789 -0.0563475 1.105 251 255 254
0.009934 -0.0563475 1.105 251 255 254
0.0116501 -0.0563475 1.105 251 255 254
0.0133662 -0.0563475 1.105 251 255 254
0.0150823 -0.0563475 1.105 251 255 254
0.0167984 -0.0563475 1.105 251 255 254
0.0185145 -0.0563475 1.105 251 255 254
0.0202306 -0.0563475 1.105 251 255 254
0.0219666 -0.0563985 1.106 251 255 254
0.0236842 -0.0563985 1.106 251 255 254
0.0254249 -0.0564495 1.107 251 255 254
0.0271931 -0.0565515 1.109 249 255 254
0.0289415 -0.0566025 1.11 249 255 254
0.0307206 -0.0567044 1.112 243 255 254
0.0325351 -0.0568574 1.115 243 255 254
0.0342975 -0.0569084 1.116 224 255 253
0.0361275 -0.0570614 1.119 222 255 251
0.0379331 -0.0571634 1.121 200 255 250
0.0397802 -0.0573164 1.124 196 255 246
0.0417105 -0.0575713 1.129 185 255 249
0.0454175 -0.0578263 1.134 191 255 255
0.0474699 -0.0581832 1.141 177 249 247
0.0515951 -0.0588462 1.154 28 87 83
0.0537112 -0.0592031 1.161 38 79 62
0.0558011 -0.0595091 1.167 46 87 70
0.0597315 -0.059815 1.173 61 85 59
0.0618155 -0.06007 1.178 62 89 54
0.0638071 -0.060223 1.181 58 85 50
0.065808 -0.060376 1.184 54 82 44
0.0677039 -0.0604269 1.185 55 83 45
0.0695443 -0.0604269 1.185 55 84 44
0.0713846 -0.0604269 1.185 55 84 44
0.0732249 -0.0604269 1.185 56 82 43
0.0751286 -0.0604779 1.186 55 81 42
0.0769705 -0.0604779 1.186 55 81 42
0.0788124 -0.0604779 1.186 56 82 43
0.0806543 -0.0604779 1.186 55 81 42
0.0824962 -0.0604779 1.186 55 81 42
0.0843381 -0.0604779 1.186 56 81 44
0.08618 -0.0604779 1.186 55 80 43
0.0880961 -0.0605289 1.187 55 80 43
0.0898638 -0.0604779 1.186 55 80 43
0.0917057 -0.0604779 1.186 55 80 43
0.0935476 -0.0604779 1.186 54 79 42
0.0954699 -0.0605289 1.187 54 80 41
0.0973134 -0.0605289 1.187 54 80 41
0.0991568 -0.0605289 1.187 55 81 42
0.101 -0.0605289 1.187 55 81 42
0.102844 -0.0605289 1.187 54 80 41
0.104687 -0.0605289 1.187 55 81 42
0.106531 -0.0605289 1.187 55 81 42
0.108374 -0.0605289 1.187 55 81 42
0.110218 -0.0605289 1.187 56 82 43
0.112061 -0.0605289 1.187 56 82 43
0.114 -0.0605799 1.188 62 88 49
0.115943 -0.0606309 1.189 57 83 44
0.117889 -0.0606819 1.19 53 79 40
0.119737 -0.0606819 1.19 51 77 38
0.121687 -0.0607329 1.191 51 77 38
0.12364 -0.0607839 1.192 50 76 37
0.125492 -0.0607839 1.192 51 77 36
0.127343 -0.0607839 1.192 51 77 36
0.129194 -0.0607839 1.192 51 77 36
0.131045 -0.0607839 1.192 50 76 35
0.132896 -0.0607839 1.192 49 75 34
0.134748 -0.0607839 1.192 49 75 34
0.136484 -0.0607329 1.191 48 74 33
0.138218 -0.0606819 1.19 48 74 33
0.140066 -0.0606819 1.19 48 75 31
0.141795 -0.0606309 1.189 49 76 32
0.14352 -0.0605799 1.188 48 75 31
0.145243 -0.0605289 1.187 47 74 30
0.146963 -0.0604779 1.186 46 73 29
0.148679 -0.0604269 1.185 47 74 30
0.150519 -0.0604269 1.185 48 75 31
0.152231 -0.060376 1.184 47 74 30
0.15394 -0.060325 1.183 47 74 30
0.155645 -0.060274 1.182 48 75 31
0.157481 -0.060274 1.182 49 76 32
0.159317 -0.060274 1.182 49 76 32
0.161153 -0.060274 1.182 49 77 31
0.162988 -0.060274 1.182 48 76 30
0.164684 -0.060223 1.181 48 76 30
0.166519 -0.060223 1.181 46 74 28
0.168495 -0.060274 1.182 52 79 30
0.170331 -0.060274 1.182 52 79 30
0.172167 -0.060274 1.182 52 79 30
0.174002 -0.060274 1.182 50 77 28
0.175838 -0.060274 1.182 50 77 28
0.177674 -0.060274 1.182 51 78 29
0.179509 -0.060274 1.182 52 79 30
0.181498 -0.060325 1.183 52 79 30
0.183491 -0.060376 1.184 52 79 30
0.185329 -0.060376 1.184 52 79 30
0.187326 -0.0604269 1.185 50 77 28
0.189167 -0.0604269 1.185 51 78 29
0.191329 -0.0605289 1.187 50 76 30
0.193173 -0.0605289 1.187 52 78 32
0.195345 -0.0606309 1.189 53 79 33
0.197357 -0.0606819 1.19 53 79 33
0.199205 -0.0606819 1.19 55 79 33
0.201391 -0.0607839 1.192 55 79 33
0.203243 -0.0607839 1.192 54 78 32
0.205266 -0.0608349 1.193 53 77 31
0.207292 -0.0608859 1.194 54 78 32
0.209147 -0.0608859 1.194 53 77 31
0.211001 -0.0608859 1.194 55 79 33
0.212855 -0.0608859 1.194 54 78 32
0.214889 -0.0609369 1.195 55 79 33
0.216564 -0.0608859 1.194 55 79 33
0.218601 -0.0609369 1.195 50 76 30
0.220273 -0.0608859 1.194 52 78 32
0.222127 -0.0608859 1.194 51 77 31
0.223981 -0.0608859 1.194 51 77 31
0.225836 -0.0608859 1.194 50 75 31
0.22769 -0.0608859 1.194 48 73 29
0.229544 -0.0608859 1.194 45 70 26
0.231399 -0.0608859 1.194 44 69 25
0.233253 -0.0608859 1.194 43 68 24
0.23491 -0.0608349 1.193 43 68 24
0.236763 -0.0608349 1.193 36 61 17
0.238416 -0.0607839 1.192 38 63 19
0.240267 -0.0607839 1.192 37 62 18
0.242118 -0.0607839 1.192 35 60 16
0.243969 -0.0607839 1.192 29 53 14
0.245821 -0.0607839 1.192 30 54 15
0.247672 -0.0607839 1.192 29 52 15
0.249523 -0.0607839 1.192 28 51 14
0.251374 -0.0607839 1.192 25 47 13
0.253226 -0.0607839 1.192 27 49 15
0.255077 -0.0607839 1.192 22 43 11
0.256928 -0.0607839 1.192 23 44 12
0.258562 -0.0607329 1.191 22 43 11
0.260412 -0.0607329 1.191 24 45 13
0.262041 -0.0606819 1.19 26 45 13
0.263889 -0.0606819 1.19 25 44 12
0.265737 -0.0606819 1.19 24 43 11
0.267361 -0.0606309 1.189 24 43 11
0.269207 -0.0606309 1.189 25 44 12
0.270826 -0.0605799 1.188 26 45 13
0.272212 -0.0604779 1.186 27 45 16
0.274054 -0.0604779 1.186 27 45 16
0.275663 -0.0604269 1.185 26 44 15
0.277503 -0.0604269 1.185 26 44 15
0.279108 -0.060376 1.184 29 47 18
0.281184 -0.0604269 1.185 24 42 13
0.283024 -0.0604269 1.185 24 42 13
0.284865 -0.0604269 1.185 24 42 13
0.286947 -0.0604779 1.186 24 42 13
0.289032 -0.0605289 1.187 24 42 13
0.293212 -0.0606309 1.189 25 43 14
0.295555 -0.0607329 1.191 27 45 16
0.297904 -0.0608349 1.193 25 43 14
0.30026 -0.0609369 1.195 26 44 15
0.302368 -0.0609879 1.196 26 44 15
0.30448 -0.0610389 1.197 26 44 15
0.306851 -0.0611409 1.199 26 44 15
0.308713 -0.0611409 1.199 27 45 16
0.310834 -0.0611918 1.2 25 43 14
0.312698 -0.0611918 1.2 25 43 14
0.314562 -0.0611918 1.2 25 43 14
0.316425 -0.0611918 1.2 27 45 16
0.317758 -0.0610899 1.198 25 43 14
0.319352 -0.0610389 1.197 25 43 14
0.320943 -0.0609879 1.196 25 43 14
0.3228 -0.0609879 1.196 27 45 16
0.324386 -0.0609369 1.195 26 44 15
0.325969 -0.0608859 1.194 25 43 14
0.327274 -0.0607839 1.192 25 43 14
0.329125 -0.0607839 1.192 20 38 11
0.330699 -0.0607329 1.191 27 45 18
0.332549 -0.0607329 1.191 31 49 22
0.334117 -0.0606819 1.19 32 50 23
0.335966 -0.0606819 1.19 34 52 25
0.337814 -0.0606819 1.19 34 52 25
0.339662 -0.0606819 1.19 36 54 27
0.341797 -0.0607329 1.191 34 52 25
0.343647 -0.0607329 1.191 32 52 25
0.345206 -0.0606819 1.19 31 51 24
0.347054 -0.0606819 1.19 31 50 25
0.348609 -0.0606309 1.189 34 53 28
0.349866 -0.0605289 1.187 36 54 32
0.35171 -0.0605289 1.187 29 47 25
0.352957 -0.0604269 1.185 31 45 30
0.354199 -0.060325 1.183 81 95 80
0.355735 -0.060274 1.182 95 108 95
0.356966 -0.060172 1.18 102 115 102
0.35819 -0.06007 1.178 98 105 96
0.36002 -0.06007 1.178 77 84 75
0.361235 -0.059968 1.176 60 68 61
0.363061 -0.059968 1.176 79 87 80
0.364577 -0.059917 1.175 77 86 85
0.364219 -0.0595601 1.168 61 70 69
0.364153 -0.0592541 1.162 58 66 73
0.362065 -0.0583362 1.144 119 131 139
0.361934 -0.0580303 1.138 126 138 146
0.362103 -0.0577753 1.133 141 153 161
0.364184 -0.0578263 1.134 142 154 162
0.366591 -0.0579283 1.136 84 91 100
0.3703 -0.0582342 1.142 80 87 96
-0.165179 -0.0582878 1.179 5 17 7
-0.163487 -0.0583372 1.18 5 17 7
-0.161928 -0.0584361 1.182 6 18 8
-0.160363 -0.058535 1.184 5 17 7
-0.158659 -0.0585844 1.185 6 18 8
-0.157083 -0.0586833 1.187 8 20 10
-0.15537 -0.0587327 1.188 9 21 11
-0.153784 -0.0588316 1.19 10 22 12
-0.152063 -0.058881 1.191 12 25 12
-0.15034 -0.0589305 1.192 13 26 13
-0.148488 -0.0589305 1.192 15 29 14
-0.14676 -0.0589799 1.193 13 27 12
-0.145029 -0.0590294 1.194 17 28 12
-0.143175 -0.0590294 1.194 17 28 12
-0.14132 -0.0590294 1.194 15 29 12
-0.139349 -0.0589799 1.193 15 29 12
-0.137381 -0.0589305 1.192 20 34 17
-0.13553 -0.0589305 1.192 19 33 16
-0.133567 -0.058881 1.191 17 32 12
-0.131606 -0.0588316 1.19 15 30 10
-0.129649 -0.0587822 1.189 16 31 11
-0.127803 -0.0587822 1.189 16 31 11
-0.125744 -0.0586833 1.187 18 30 11
-0.123901 -0.0586833 1.187 18 30 11
-0.122057 -0.0586833 1.187 17 29 10
-0.120113 -0.0586339 1.186 18 30 11
-0.118171 -0.0585844 1.185 18 30 11
-0.116331 -0.0585844 1.185 17 29 10
-0.114297 -0.0584855 1.183 15 27 8
-0.11246 -0.0584855 1.183 17 29 10
-0.110529 -0.0584361 1.182 15 27 8
-0.108693 -0.0584361 1.182 17 29 10
-0.106677 -0.0583372 1.18 14 25 9
-0.104844 -0.0583372 1.18 13 24 8
-0.102837 -0.0582383 1.178 13 24 10
-0.100922 -0.0581889 1.177 13 24 10
-0.0988414 -0.0580406 1.174 13 24 10
-0.0967702 -0.0578923 1.171 13 24 10
-0.0947084 -0.057744 1.168 12 23 9
-0.0926558 -0.0575956 1.165 11 22 8
-0.0905346 -0.0573979 1.161 11 22 8
-0.0879673 -0.0569035 1.151 11 22 8
-0.08603 -0.0568046 1.149 7 13 6
-0.083879 -0.0565574 1.144 6 12 5
-0.0818152 -0.0563597 1.14 19 23 22
-0.0796235 -0.0560631 1.134 43 47 46
-0.077519 -0.0558159 1.129 47 48 56
-0.0754972 -0.0556181 1.125 57 58 66
-0.0732912 -0.055272 1.118 117 118 133
-0.0713629 -0.0551237 1.115 131 132 147
-0.0695688 -0.0550743 1.114 126 125 145
-0.067656 -0.054926 1.111 121 120 140
-0.0657525 -0.0547777 1.108 120 119 139
-0.0639162 -0.0546788 1.106 118 117 137
-0.0620861 -0.0545799 1.104 130 131 152
-0.0603168 -0.0545305 1.103 129 130 151
-0.0584976 -0.0544316 1.101 136 138 157
-0.0567361 -0.0543822 1.1 133 135 154
-0.0549277 -0.0542833 1.098 135 137 156
-0.053174 -0.0542338 1.097 138 140 159
-0.0514234 -0.0541844 1.096 140 141 162
-0.0496759 -0.054135 1.095 140 141 162
-0.0479754 -0.054135 1.095 142 143 164
-0.0462325 -0.0540855 1.094 142 143 164
-0.0444928 -0.0540361 1.093 137 138 159
-0.0427953 -0.0540361 1.093 137 138 159
-0.0410603 -0.0539867 1.092 142 145 161
-0.0393283 -0.0539372 1.091 161 164 180
-0.0376339 -0.0539372 1.091 183 184 199
-0.0359396 -0.0539372 1.091 206 207 222
-0.0342452 -0.0539372 1.091 220 222 232
-0.032521 -0.0538878 1.09 224 226 236
-0.0307999 -0.0538383 1.089 225 228 236
-0.0291087 -0.0538383 1.089 225 228 236
-0.0273923 -0.0537889 1.088 223 226 234
-0.0256789 -0.0537395 1.087 228 231 239
-0.0239687 -0.05369 1.086 235 237 242
-0.0222616 -0.0536406 1.085 243 245 250
-0.0205576 -0.0535911 1.084 251 254 255
-0.0188741 -0.0535911 1.084 251 254 255
-0.0171748 -0.0535417 1.083 251 255 254
-0.0154928 -0.0535417 1.083 251 255 254
-0.0138109 -0.0535417 1.083 251 255 254
-0.0121513 -0.0536406 1.085 251 255 254
-0.010476 -0.05369 1.086 251 255 254
-0.00880555 -0.0537889 1.088 251 255 254
-0.00712238 -0.0538383 1.089 251 255 254
-0.00544609 -0.0539867 1.092 251 255 254
-0.00375705 -0.0540855 1.094 251 255 254
-0.000359994 -0.0542338 1.097 251 255 254
0.00134736 -0.0543822 1.1 251 255 254
0.00306125 -0.054481 1.102 251 255 254
0.00477703 -0.0545305 1.103 251 255 254
0.00650179 -0.0546293 1.105 251 255 254
0.00821789 -0.0546293 1.105 251 255 254
0.009934 -0.0546293 1.105 251 255 254
0.0116501 -0.0546293 1.105 251 255 254
0.0133783 -0.0546788 1.106 251 255 254
0.015096 -0.0546788 1.106 251 255 254
0.0168136 -0.0546788 1.106 251 255 254
0.0185313 -0.0546788 1.106 251 255 254
0.0202489 -0.0546788 1.106 251 255 254
0.0219666 -0.0546788 1.106 251 255 254
0.0236842 -0.0546788 1.106 251 255 254
0.0254478 -0.0547777 1.108 251 255 254
0.0271931 -0.0548271 1.109 251 255 254
0.0289676 -0.054926 1.111 251 255 254
0.0307482 -0.0550249 1.113 249 255 254
0.0325351 -0.0551237 1.115 249 255 254
0.0343282 -0.0552226 1.117 232 255 253
0.0361598 -0.0553709 1.12 231 255 252
0.0380346 -0.0555687 1.124 209 255 250
0.0399217 -0.0557664 1.128 210 255 251
0.0418214 -0.0559642 1.132 197 255 255
0.0455777 -0.0562608 1.138 197 255 255
0.0476779 -0.0566563 1.146 139 200 198
0.055849 -0.057744 1.168 51 83 59
0.0579591 -0.0580406 1.174 57 85 52
0.0599861 -0.0582383 1.178 57 85 52
0.0620254 -0.0584361 1.182 58 88 50
0.0640232 -0.0585844 1.185 56 86 48
0.0659747 -0.0586833 1.187 54 83 43
0.0678182 -0.0586833 1.187 54 83 43
0.0696616 -0.0586833 1.187 55 84 44
0.0715051 -0.0586833 1.187 55 84 44
0.0733485 -0.0586833 1.187 54 83 43
0.075192 -0.0586833 1.187 55 84 44
0.0770354 -0.0586833 1.187 56 82 43
0.0788789 -0.0586833 1.187 57 83 44
0.0807223 -0.0586833 1.187 56 82 43
0.0825658 -0.0586833 1.187 55 81 42
0.0844092 -0.0586833 1.187 55 81 42
0.0862527 -0.0586833 1.187 56 82 43
0.0880219 -0.0586339 1.186 55 81 42
0.0898638 -0.0586339 1.186 55 81 42
0.0917057 -0.0586339 1.186 54 80 41
0.0935476 -0.0586339 1.186 54 80 41
0.0953895 -0.0586339 1.186 53 79 40
0.0972314 -0.0586339 1.186 53 79 40
0.0990733 -0.0586339 1.186 54 80 41
0.100915 -0.0586339 1.186 54 80 41
0.102757 -0.0586339 1.186 54 80 41
0.104599 -0.0586339 1.186 54 80 41
0.106531 -0.0586833 1.187 54 80 41
0.108374 -0.0586833 1.187 55 81 42
0.110218 -0.0586833 1.187 55 81 42
0.112061 -0.0586833 1.187 56 82 43
0.114096 -0.0587822 1.189 57 83 44
0.115943 -0.0587822 1.189 62 88 49
0.117889 -0.0588316 1.19 53 79 40
0.119737 -0.0588316 1.19 50 76 37
0.121687 -0.058881 1.191 51 77 38
0.12364 -0.0589305 1.192 50 76 37
0.125492 -0.0589305 1.192 51 77 36
0.127343 -0.0589305 1.192 51 77 36
0.129194 -0.0589305 1.192 51 77 36
0.131045 -0.0589305 1.192 50 76 35
0.132896 -0.0589305 1.192 50 76 35
0.134635 -0.058881 1.191 50 76 35
0.136484 -0.058881 1.191 48 75 31
0.138218 -0.0588316 1.19 49 76 32
0.140066 -0.0588316 1.19 49 76 32
0.141675 -0.0587327 1.188 49 76 32
0.1434 -0.0586833 1.187 49 76 32
0.145121 -0.0586339 1.186 48 75 31
0.146839 -0.0585844 1.185 47 74 30
0.148679 -0.0585844 1.185 47 74 30
0.150392 -0.058535 1.184 48 75 31
0.152103 -0.0584855 1.183 48 75 31
0.15381 -0.0584361 1.182 49 76 32
0.155645 -0.0584361 1.182 50 77 33
0.157481 -0.0584361 1.182 50 77 33
0.159182 -0.0583867 1.181 50 77 33
0.16088 -0.0583372 1.18 49 77 31
0.162712 -0.0583372 1.18 49 77 31
0.164545 -0.0583372 1.18 49 77 31
0.166378 -0.0583372 1.18 48 76 30
0.16821 -0.0583372 1.18 51 77 31
0.170187 -0.0583867 1.181 52 78 32
0.172021 -0.0583867 1.181 52 79 30
0.174002 -0.0584361 1.182 50 77 28
0.175838 -0.0584361 1.182 50 77 28
0.177674 -0.0584361 1.182 51 78 29
0.179509 -0.0584361 1.182 51 78 29
0.181345 -0.0584361 1.182 53 80 31
0.183491 -0.058535 1.184 53 80 31
0.185329 -0.058535 1.184 50 77 28
0.187326 -0.0585844 1.185 50 77 28
0.189326 -0.0586339 1.186 50 77 28
0.191329 -0.0586833 1.187 51 77 31
0.193336 -0.0587327 1.188 52 78 32
0.195509 -0.0588316 1.19 52 78 32
0.197357 -0.0588316 1.19 51 77 31
0.199373 -0.058881 1.191 53 79 33
0.201391 -0.0589305 1.192 55 81 35
0.203413 -0.0589799 1.193 55 79 33
0.205266 -0.0589799 1.193 53 77 31
0.207292 -0.0590294 1.194 53 77 31
0.209322 -0.0590788 1.195 53 77 31
0.211178 -0.0590788 1.195 54 78 32
0.213034 -0.0590788 1.195 55 79 33
0.214889 -0.0590788 1.195 55 79 33
0.216745 -0.0590788 1.195 55 79 33
0.218601 -0.0590788 1.195 52 78 32
0.220457 -0.0590788 1.195 53 79 33
0.222127 -0.0590294 1.194 51 77 31
0.223981 -0.0590294 1.194 49 75 29
0.225836 -0.0590294 1.194 49 74 30
0.22769 -0.0590294 1.194 49 74 30
0.229544 -0.0590294 1.194 46 71 27
0.231399 -0.0590294 1.194 45 70 26
0.233253 -0.0590294 1.194 43 68 24
0.235107 -0.0590294 1.194 43 68 24
0.236763 -0.0589799 1.193 41 64 20
0.238616 -0.0589799 1.193 40 63 19
0.240267 -0.0589305 1.192 39 62 18
0.242118 -0.0589305 1.192 37 60 16
0.243969 -0.0589305 1.192 34 56 17
0.245821 -0.0589305 1.192 33 55 16
0.247672 -0.0589305 1.192 29 52 15
0.249314 -0.058881 1.191 28 51 14
0.251163 -0.058881 1.191 25 47 13
0.253013 -0.058881 1.191 25 47 13
0.254863 -0.058881 1.191 23 44 12
0.256712 -0.058881 1.191 25 46 14
0.258562 -0.058881 1.191 24 45 13
0.260193 -0.0588316 1.19 24 45 13
0.262041 -0.0588316 1.19 25 44 12
0.263889 -0.0588316 1.19 25 44 12
0.265737 -0.0588316 1.19 25 44 12
0.267136 -0.0587327 1.188 25 44 12
0.268981 -0.0587327 1.188 25 43 14
0.270598 -0.0586833 1.187 25 43 14
0.271982 -0.0585844 1.185 26 44 15
0.273823 -0.0585844 1.185 25 43 14
0.27543 -0.058535 1.184 26 44 15
0.277269 -0.058535 1.184 26 44 15
0.278872 -0.0584855 1.183 29 47 18
0.280947 -0.058535 1.184 24 42 13
0.282547 -0.0584855 1.183 24 42 13
0.299003 -0.0588316 1.19 26 44 15
0.301357 -0.0589305 1.192 26 44 15
0.303971 -0.0590788 1.195 26 44 15
0.306083 -0.0591282 1.196 27 45 16
0.308198 -0.0591777 1.197 27 45 16
0.310057 -0.0591777 1.197 26 44 15
0.312177 -0.0592271 1.198 25 43 14
0.314037 -0.0592271 1.198 25 43 14
0.315634 -0.0591777 1.197 26 44 17
0.317493 -0.0591777 1.197 26 44 17
0.319085 -0.0591282 1.196 26 44 17
0.320674 -0.0590788 1.195 25 43 16
0.32226 -0.0590294 1.194 29 47 20
0.323843 -0.0589799 1.193 27 45 18
0.325423 -0.0589305 1.192 25 43 16
0.327 -0.058881 1.191 26 44 17
0.328573 -0.0588316 1.19 25 43 16
0.330421 -0.0588316 1.19 27 45 18
0.332269 -0.0588316 1.19 31 49 22
0.334117 -0.0588316 1.19 32 50 23
0.335966 -0.0588316 1.19 33 51 24
0.33753 -0.0587822 1.189 33 51 24
0.339662 -0.0588316 1.19 31 51 24
0.34151 -0.0588316 1.19 31 51 24
0.343358 -0.0588316 1.19 32 52 25
0.345206 -0.0588316 1.19 31 51 24
0.346763 -0.0587822 1.189 32 51 26
0.348316 -0.0587327 1.188 35 54 29
0.349866 -0.0586833 1.187 37 56 31
0.351413 -0.0586339 1.186 29 48 23
0.352957 -0.0585844 1.185 29 43 26
0.354498 -0.058535 1.184 94 108 91
0.355735 -0.0584361 1.182 112 122 110
0.356966 -0.0583372 1.18 105 115 103
0.358494 -0.0582878 1.179 97 105 98
0.36002 -0.0582383 1.178 68 76 69
0.361542 -0.0581889 1.177 50 58 51
0.36337 -0.0581889 1.177 81 89 82
0.364888 -0.0581395 1.176 77 88 87
0.364219 -0.057744 1.168 59 70 69
0.364153 -0.0574473 1.162 58 68 75
0.362065 -0.0565574 1.144 118 130 140
0.361934 -0.0562608 1.138 122 134 144
0.362103 -0.0560136 1.133 138 150 160
0.364184 -0.0560631 1.134 141 153 163
0.367236 -0.0562608 1.138 84 91 100
0.370625 -0.056508 1.143 81 88 97
-0.165179 -0.0564546 1.179 8 20 10
-0.163625 -0.0565503 1.181 6 18 8
-0.162065 -0.0566461 1.183 8 20 10
-0.160499 -0.0567419 1.185 6 18 8
-0.158792 -0.0567898 1.186 9 21 11
-0.157215 -0.0568855 1.188 8 20 10
-0.155501 -0.0569334 1.189 9 21 11
-0.153784 -0.0569813 1.19 10 22 12
-0.152063 -0.0570292 1.191 11 24 11
-0.15034 -0.0570771 1.192 12 25 12
-0.148488 -0.0570771 1.192 15 26 12
-0.14676 -0.057125 1.193 17 28 14
-0.145029 -0.0571728 1.194 18 29 13
-0.143175 -0.0571728 1.194 18 29 13
-0.14132 -0.0571728 1.194 19 30 14
-0.139349 -0.057125 1.193 18 29 13
-0.137381 -0.0570771 1.192 18 29 13
-0.13553 -0.0570771 1.192 19 30 14
-0.133567 -0.0570292 1.191 18 29 13
-0.131606 -0.0569813 1.19 17 28 12
-0.129649 -0.0569334 1.189 17 28 12
-0.127695 -0.0568855 1.188 17 28 12
-0.125744 -0.0568376 1.187 15 26 10
-0.123901 -0.0568376 1.187 17 28 12
-0.121954 -0.0567898 1.186 17 28 12
-0.120011 -0.0567419 1.185 17 28 12
-0.118171 -0.0567419 1.185 17 28 12
-0.116134 -0.0566461 1.183 17 28 12
-0.1142 -0.0565982 1.182 14 25 9
-0.112365 -0.0565982 1.182 15 26 10
-0.110529 -0.0565982 1.182 14 25 9
-0.108601 -0.0565503 1.181 15 26 10
-0.106677 -0.0565025 1.18 14 25 9
-0.104755 -0.0564546 1.179 14 25 9
-0.102837 -0.0564067 1.178 13 24 10
-0.100836 -0.0563109 1.176 13 24 10
-0.0988414 -0.0562152 1.174 13 24 10
-0.0967702 -0.0560715 1.171 13 24 10
-0.0947084 -0.0559279 1.168 12 23 9
-0.0925763 -0.0557363 1.164 11 22 8
-0.0904566 -0.0555448 1.16 11 21 9
-0.0878909 -0.055066 1.15 11 21 9
-0.0857305 -0.0548265 1.145 5 13 6
-0.083659 -0.054635 1.141 4 12 5
-0.0815281 -0.0543956 1.136 40 44 44
-0.079483 -0.0542041 1.132 66 70 70
-0.0774504 -0.0540125 1.128 48 50 60
-0.0754301 -0.053821 1.124 75 77 87
-0.0732912 -0.0535337 1.118 130 130 147
-0.0713629 -0.05339 1.115 128 128 145
-0.0695063 -0.0532943 1.113 119 119 136
-0.0675951 -0.0531506 1.11 119 119 136
-0.0657525 -0.0530549 1.108 112 113 134
-0.0638584 -0.0529112 1.105 118 119 140
-0.0620861 -0.0528633 1.104 129 130 151
-0.0603168 -0.0528154 1.103 132 133 154
-0.0584976 -0.0527197 1.101 135 137 156
-0.0566845 -0.0526239 1.099 137 139 158
-0.0548777 -0.0525281 1.097 138 140 159
-0.0530771 -0.0524324 1.095 138 140 159
-0.0513765 -0.0524324 1.095 144 146 165
-0.0496759 -0.0524324 1.095 145 147 166
-0.0479315 -0.0523845 1.094 144 146 165
-0.0462325 -0.0523845 1.094 138 140 159
-0.0444521 -0.0522887 1.092 142 144 163
-0.0427562 -0.0522887 1.092 140 142 161
-0.0410227 -0.0522408 1.091 159 162 178
-0.0393283 -0.0522408 1.091 181 184 200
-0.0376339 -0.0522408 1.091 206 208 220
-0.0359396 -0.0522408 1.091 216 218 230
-0.0342138 -0.052193 1.09 218 221 229
-0.0324912 -0.0521451 1.089 227 230 238
-0.0307999 -0.0521451 1.089 219 223 228
-0.0291087 -0.0521451 1.089 217 221 226
-0.0273923 -0.0520972 1.088 223 225 230
-0.0256789 -0.0520493 1.087 232 234 239
-0.0239687 -0.0520014 1.086 241 244 247
-0.0222616 -0.0519535 1.085 251 254 255
-0.0205576 -0.0519057 1.084 251 255 255
-0.0188741 -0.0519057 1.084 251 255 255
-0.0171906 -0.0519057 1.084 251 255 254
-0.0154928 -0.0518578 1.083 251 255 254
-0.0138236 -0.0519057 1.084 251 255 254
-0.0121513 -0.0519535 1.085 251 255 254
-0.010476 -0.0520014 1.086 251 255 254
-0.00880555 -0.0520972 1.088 251 255 254
-0.00713547 -0.0522408 1.091 251 255 254
-0.00544609 -0.0522887 1.092 251 255 254
-0.00376048 -0.0524324 1.095 251 255 254
-0.000359994 -0.0525281 1.097 251 255 254
0.00134736 -0.0526718 1.1 251 255 254
0.00306403 -0.0528154 1.103 251 255 254
0.00478136 -0.0528633 1.104 251 255 254
0.00650179 -0.0529112 1.105 251 255 254
0.00821789 -0.0529112 1.105 251 255 254
0.00994299 -0.0529591 1.106 251 255 254
0.0116606 -0.0529591 1.106 251 255 254
0.0133783 -0.0529591 1.106 251 255 254
0.015096 -0.0529591 1.106 251 255 254
0.0168136 -0.0529591 1.106 251 255 254
0.0185313 -0.0529591 1.106 251 255 254
0.0202489 -0.0529591 1.106 251 255 254
0.0219666 -0.0529591 1.106 251 255 254
0.0237056 -0.053007 1.107 251 255 254
0.0254478 -0.0530549 1.108 251 255 254
0.0272176 -0.0531506 1.11 251 255 254
0.0289676 -0.0531985 1.111 251 255 254
0.0307482 -0.0532943 1.113 249 255 254
0.0325351 -0.05339 1.115 249 255 254
0.034359 -0.0535337 1.118 243 255 254
0.0362244 -0.0537252 1.122 243 255 254
0.0381022 -0.0539168 1.126 227 255 255
0.0400279 -0.0541562 1.131 227 255 255
0.0437719 -0.0544435 1.137 212 255 254
0.0458581 -0.0548265 1.145 187 235 231
0.0480107 -0.0552575 1.154 71 119 115
0.054035 -0.0559279 1.168 48 79 52
0.0561837 -0.056263 1.175 49 80 53
0.0582553 -0.0565025 1.18 53 82 47
0.0602916 -0.056694 1.184 57 86 51
0.0622878 -0.0568376 1.187 59 88 48
0.0641313 -0.0568376 1.187 58 87 47
0.0660859 -0.0569334 1.189 54 83 41
0.0679324 -0.0569334 1.189 54 83 41
0.069779 -0.0569334 1.189 56 82 41
0.0716256 -0.0569334 1.189 57 83 42
0.0734721 -0.0569334 1.189 56 82 41
0.0753187 -0.0569334 1.189 56 82 41
0.0771003 -0.0568855 1.188 55 81 40
0.0789453 -0.0568855 1.188 56 82 41
0.0807223 -0.0568376 1.187 55 81 42
0.0825658 -0.0568376 1.187 55 81 42
0.0844092 -0.0568376 1.187 54 80 41
0.0862527 -0.0568376 1.187 55 81 42
0.0880219 -0.0567898 1.186 53 79 40
0.0898638 -0.0567898 1.186 54 80 41
0.0916284 -0.0567419 1.185 53 79 40
0.0934687 -0.0567419 1.185 53 79 40
0.0953091 -0.0567419 1.185 53 79 40
0.0971494 -0.0567419 1.185 53 79 40
0.0990733 -0.0567898 1.186 53 79 40
0.100915 -0.0567898 1.186 54 80 41
0.102757 -0.0567898 1.186 54 80 41
0.104599 -0.0567898 1.186 54 80 41
0.106441 -0.0567898 1.186 53 79 40
0.108374 -0.0568376 1.187 54 80 41
0.110218 -0.0568376 1.187 54 80 41
0.112061 -0.0568376 1.187 55 81 42
0.114096 -0.0569334 1.189 55 81 42
0.115943 -0.0569334 1.189 55 81 42
0.117889 -0.0569813 1.19 51 77 38
0.119737 -0.0569813 1.19 51 77 38
0.121789 -0.0570771 1.192 51 77 36
0.12364 -0.0570771 1.192 51 77 36
0.125492 -0.0570771 1.192 51 77 36
0.127343 -0.0570771 1.192 51 77 36
0.129194 -0.0570771 1.192 51 77 36
0.131045 -0.0570771 1.192 50 76 35
0.132896 -0.0570771 1.192 50 76 35
0.134635 -0.0570292 1.191 49 75 34
0.13637 -0.0569813 1.19 48 75 31
0.138218 -0.0569813 1.19 49 76 32
0.13983 -0.0568855 1.188 50 77 33
0.141556 -0.0568376 1.187 49 76 32
0.1434 -0.0568376 1.187 48 75 31
0.144998 -0.0567419 1.185 48 75 31
0.146839 -0.0567419 1.185 48 75 31
0.148554 -0.056694 1.184 48 75 31
0.150265 -0.0566461 1.183 48 75 31
0.151974 -0.0565982 1.182 49 76 32
0.15381 -0.0565982 1.182 50 77 33
0.155514 -0.0565503 1.181 50 77 33
0.157215 -0.0565025 1.18 50 77 33
0.159047 -0.0565025 1.18 49 76 32
0.16088 -0.0565025 1.18 49 77 31
0.162712 -0.0565025 1.18 49 77 31
0.164545 -0.0565025 1.18 49 77 31
0.166378 -0.0565025 1.18 49 77 31
0.16821 -0.0565025 1.18 51 78 29
0.170043 -0.0565025 1.18 52 79 30
0.172021 -0.0565503 1.181 52 79 30
0.174002 -0.0565982 1.182 51 78 29
0.175838 -0.0565982 1.182 51 78 29
0.177674 -0.0565982 1.182 51 78 29
0.179509 -0.0565982 1.182 50 77 28
0.181498 -0.0566461 1.183 52 79 30
0.183491 -0.056694 1.184 53 80 31
0.185486 -0.0567419 1.185 51 78 29
0.187484 -0.0567898 1.186 50 77 28
0.189486 -0.0568376 1.187 51 78 29
0.191491 -0.0568855 1.188 52 79 30
0.193661 -0.0569813 1.19 52 79 30
0.195509 -0.0569813 1.19 50 76 30
0.197689 -0.0570771 1.192 50 76 30
0.19954 -0.0570771 1.192 55 79 33
0.20156 -0.057125 1.193 57 81 35
0.203584 -0.0571728 1.194 55 79 33
0.20561 -0.0572207 1.195 53 77 31
0.207466 -0.0572207 1.195 52 76 30
0.209322 -0.0572207 1.195 53 77 31
0.211178 -0.0572207 1.195 54 78 32
0.213034 -0.0572207 1.195 54 78 32
0.214889 -0.0572207 1.195 55 79 33
0.216745 -0.0572207 1.195 55 79 33
0.218601 -0.0572207 1.195 55 79 33
0.220457 -0.0572207 1.195 54 78 32
0.222313 -0.0572207 1.195 52 78 32
0.224169 -0.0572207 1.195 50 76 30
0.226025 -0.0572207 1.195 49 75 29
