ply
format ascii 1.0
comment Created by Open3D
element vertex 1432
property double x
property double y
property double z
property uchar red
property uchar green
property uchar blue
end_header
0.117393 0.129354 1.185 47 64 31
0.119234 0.129354 1.185 48 65 32
0.121074 0.129354 1.185 47 64 31
0.122914 0.129354 1.185 46 63 30
0.124755 0.129354 1.185 47 63 32
0.126702 0.129463 1.186 47 63 32
0.128652 0.129572 1.187 48 64 33
0.130496 0.129572 1.187 48 64 33
0.13245 0.129681 1.188 47 63 32
0.134522 0.1299 1.19 47 63 32
0.13637 0.1299 1.19 48 64 33
0.138334 0.130009 1.191 49 65 34
0.140301 0.130118 1.192 49 65 34
0.142153 0.130118 1.192 48 64 33
0.144245 0.130336 1.194 52 68 37
0.1461 0.130336 1.194 54 70 39
0.148078 0.130445 1.195 53 69 38
0.150059 0.130555 1.196 53 69 38
0.152044 0.130664 1.197 52 68 37
0.153903 0.130664 1.197 59 75 44
0.156022 0.130882 1.199 49 65 34
0.157884 0.130882 1.199 48 64 33
0.159746 0.130882 1.199 48 64 33
0.161743 0.130991 1.2 49 65 34
0.163607 0.130991 1.2 50 66 35
0.16547 0.130991 1.2 50 66 35
0.167194 0.130882 1.199 53 69 38
0.168916 0.130773 1.198 52 68 37
0.170634 0.130664 1.197 52 68 37
0.172492 0.130664 1.197 53 69 38
0.17406 0.130445 1.195 53 69 38
0.175916 0.130445 1.195 53 69 38
0.177623 0.130336 1.194 53 69 38
0.179477 0.130336 1.194 50 66 35
0.181028 0.130118 1.192 49 65 34
0.182879 0.130118 1.192 50 66 35
0.18473 0.130118 1.192 50 67 34
0.186425 0.130009 1.191 52 69 36
0.188275 0.130009 1.191 53 70 37
0.189965 0.1299 1.19 52 69 36
0.191813 0.1299 1.19 52 69 36
0.193661 0.1299 1.19 50 67 34
0.195509 0.1299 1.19 52 69 36
0.197357 0.1299 1.19 52 69 36
0.199205 0.1299 1.19 52 69 36
0.201054 0.1299 1.19 50 67 34
0.202902 0.1299 1.19 52 69 36
0.20475 0.1299 1.19 50 67 34
0.206598 0.1299 1.19 49 66 33
0.208446 0.1299 1.19 49 66 33
0.210294 0.1299 1.19 46 63 30
0.212142 0.1299 1.19 48 65 32
0.21417 0.130009 1.191 53 70 37
0.216201 0.130118 1.192 54 71 38
0.218235 0.130227 1.193 53 70 37
0.220273 0.130336 1.194 52 69 36
0.222127 0.130336 1.194 53 70 37
0.224169 0.130445 1.195 53 70 37
0.226025 0.130445 1.195 53 70 37
0.227881 0.130445 1.195 55 72 39
0.229736 0.130445 1.195 54 71 38
0.231592 0.130445 1.195 55 72 39
0.233448 0.130445 1.195 55 72 39
0.235304 0.130445 1.195 55 72 39
0.23716 0.130445 1.195 55 72 39
0.239016 0.130445 1.195 54 71 38
0.240469 0.130227 1.193 54 71 38
0.242321 0.130227 1.193 54 71 38
0.243969 0.130118 1.192 54 71 38
0.245821 0.130118 1.192 54 71 38
0.247672 0.130118 1.192 53 70 37
0.249314 0.130009 1.191 50 67 34
0.251163 0.130009 1.191 52 69 36
0.253013 0.130009 1.191 53 70 37
0.254649 0.1299 1.19 53 70 37
0.256712 0.130009 1.191 54 71 38
0.258562 0.130009 1.191 53 70 37
0.260412 0.130009 1.191 52 69 36
0.262261 0.130009 1.191 53 70 37
0.264111 0.130009 1.191 53 70 37
0.265961 0.130009 1.191 54 71 38
0.267586 0.1299 1.19 55 72 39
0.269434 0.1299 1.19 55 73 37
0.271054 0.129791 1.189 55 73 37
0.272671 0.129681 1.188 55 73 37
0.274285 0.129572 1.187 55 73 37
0.276128 0.129572 1.187 55 73 37
0.277737 0.129463 1.186 54 72 36
0.279344 0.129354 1.185 54 72 36
0.280947 0.129245 1.184 52 70 34
0.282547 0.129136 1.183 53 71 35
0.284143 0.129026 1.182 53 71 35
0.285979 0.129026 1.182 53 71 35
0.287815 0.129026 1.182 54 72 36
0.289651 0.129026 1.182 53 71 35
0.291486 0.129026 1.182 56 74 38
0.293322 0.129026 1.182 56 74 38
0.295158 0.129026 1.182 56 74 38
0.296993 0.129026 1.182 57 75 39
0.298829 0.129026 1.182 56 74 38
0.300665 0.129026 1.182 56 74 38
0.302756 0.129136 1.183 55 73 37
0.304851 0.129245 1.184 55 73 37
0.306949 0.129354 1.185 55 73 37
0.310892 0.129463 1.186 55 74 36
0.312997 0.129572 1.187 55 74 36
0.315371 0.129791 1.189 55 74 36
0.317751 0.130009 1.191 59 78 40
0.319869 0.130118 1.192 61 80 42
0.32199 0.130227 1.193 62 79 39
0.324386 0.130445 1.195 61 78 38
0.326242 0.130445 1.195 70 88 45
0.328098 0.130445 1.195 72 90 47
0.33023 0.130555 1.196 78 98 55
0.332087 0.130555 1.196 78 98 55
0.333665 0.130445 1.195 81 101 58
0.335521 0.130445 1.195 82 102 59
0.336813 0.130227 1.193 84 104 61
0.338381 0.130118 1.192 82 102 59
0.340233 0.130118 1.192 88 108 65
0.341797 0.130009 1.191 82 102 59
0.343358 0.1299 1.19 86 105 65
0.345206 0.1299 1.19 83 102 62
0.347054 0.1299 1.19 84 103 63
0.348902 0.1299 1.19 85 104 64
0.350456 0.129791 1.189 86 105 65
0.352302 0.129791 1.189 86 105 65
0.354149 0.129791 1.189 91 110 72
0.355696 0.129681 1.188 89 108 70
0.35724 0.129572 1.187 70 80 38
0.358781 0.129463 1.186 66 76 34
0.360015 0.129245 1.184 182 187 146
0.360631 0.128808 1.18 143 148 107
0.361235 0.128371 1.176 76 76 45
0.361518 0.127826 1.171 83 83 52
0.361475 0.127171 1.165 70 73 60
0.361413 0.126516 1.159 85 88 75
0.359766 0.125315 1.148 206 213 204
0.360289 0.124878 1.144 242 249 240
0.361432 0.12466 1.142 192 200 193
0.36257 0.124442 1.14 231 239 232
0.363701 0.124223 1.138 244 244 254
0.365147 0.124114 1.137 170 170 180
0.366591 0.124005 1.136 106 111 114
0.370949 0.124878 1.144 114 119 122
-0.167141 0.132082 1.193 55 78 46
-0.165427 0.132193 1.194 55 78 46
-0.163435 0.132082 1.193 54 78 44
-0.161447 0.131971 1.192 54 78 44
-0.159596 0.131971 1.192 54 79 42
-0.157612 0.131861 1.191 54 79 42
-0.155632 0.13175 1.19 54 79 42
-0.153654 0.131639 1.189 53 78 41
-0.15168 0.131529 1.188 60 85 48
-0.149709 0.131418 1.187 57 82 45
-0.147741 0.131307 1.186 57 82 45
-0.145899 0.131307 1.186 58 83 46
-0.144179 0.131418 1.187 60 83 46
-0.142335 0.131418 1.187 59 82 45
-0.14061 0.131529 1.188 63 86 49
-0.138882 0.131639 1.189 62 85 48
-0.137151 0.13175 1.19 63 87 48
-0.135416 0.131861 1.191 63 87 48
-0.133679 0.131971 1.192 63 87 48
-0.132159 0.132304 1.195 62 86 47
-0.130412 0.132414 1.196 60 84 45
-0.128555 0.132414 1.196 62 86 47
-0.126804 0.132525 1.197 60 84 43
-0.124945 0.132525 1.197 63 87 46
-0.123188 0.132636 1.198 63 87 46
-0.121328 0.132636 1.198 64 88 47
-0.119467 0.132636 1.198 63 87 46
-0.117607 0.132636 1.198 64 88 47
-0.115746 0.132636 1.198 65 89 48
-0.113886 0.132636 1.198 63 87 46
-0.112119 0.132746 1.199 63 87 46
-0.110257 0.132746 1.199 63 87 46
-0.108395 0.132746 1.199 63 87 46
-0.106532 0.132746 1.199 63 87 46
-0.10467 0.132746 1.199 62 86 45
-0.102894 0.132857 1.2 63 87 46
-0.10103 0.132857 1.2 63 87 46
-0.0991668 0.132857 1.2 63 87 46
-0.0973031 0.132857 1.2 66 88 47
-0.0954395 0.132857 1.2 66 88 47
-0.0935758 0.132857 1.2 66 88 47
-0.0917122 0.132857 1.2 65 87 46
-0.0898486 0.132857 1.2 62 84 43
-0.0879849 0.132857 1.2 64 86 45
-0.0861213 0.132857 1.2 62 84 43
-0.0841874 0.132746 1.199 64 86 45
-0.0823253 0.132746 1.199 66 88 47
-0.0803961 0.132636 1.198 65 87 46
-0.0785356 0.132636 1.198 65 87 48
-0.0766751 0.132636 1.198 66 88 49
-0.0748145 0.132636 1.198 66 88 49
-0.072954 0.132636 1.198 64 86 47
-0.0710341 0.132525 1.197 64 86 47
-0.0691751 0.132525 1.197 64 86 47
-0.0673162 0.132525 1.197 62 84 45
-0.0654572 0.132525 1.197 65 87 48
-0.0635451 0.132414 1.196 62 84 45
-0.0616876 0.132414 1.196 64 86 47
-0.0597802 0.132304 1.195 64 86 47
-0.0579243 0.132304 1.195 62 84 45
-0.0560215 0.132193 1.194 60 82 43
-0.0541218 0.132082 1.193 60 82 43
-0.0522252 0.131971 1.192 59 81 42
-0.050374 0.131971 1.192 60 82 43
-0.0485228 0.131971 1.192 60 82 43
-0.0466716 0.131971 1.192 59 81 42
-0.0430052 0.132082 1.193 59 81 42
-0.0411524 0.132082 1.193 61 83 44
-0.0392997 0.132082 1.193 59 81 42
-0.0374155 0.131971 1.192 60 82 43
-0.0355941 0.132082 1.193 58 80 41
-0.0337131 0.131971 1.192 57 79 40
-0.0318619 0.131971 1.192 58 80 41
-0.0300106 0.131971 1.192 59 81 42
-0.0281358 0.131861 1.191 55 77 38
-0.0263082 0.131971 1.192 55 77 38
-0.024457 0.131971 1.192 55 77 38
-0.0226058 0.131971 1.192 57 79 40
-0.0207546 0.131971 1.192 57 79 40
-0.0189033 0.131971 1.192 57 79 40
-0.0170521 0.131971 1.192 53 75 36
-0.0152009 0.131971 1.192 53 74 37
-0.0133497 0.131971 1.192 57 78 41
-0.0114985 0.131971 1.192 57 78 41
-0.00964725 0.131971 1.192 57 78 41
-0.00780258 0.132082 1.193 57 77 43
-0.00594981 0.132082 1.193 55 75 41
-0.00410047 0.132193 1.194 47 67 33
-0.00224615 0.132193 1.194 48 68 34
-0.000391825 0.132193 1.194 51 70 38
0.00146127 0.132082 1.193 50 69 37
0.00331404 0.132082 1.193 43 62 30
0.00516248 0.131971 1.192 46 65 33
0.0070137 0.131971 1.192 47 65 36
0.00886491 0.131971 1.192 46 64 35
0.0107161 0.131971 1.192 46 64 35
0.0125673 0.131971 1.192 51 69 40
0.0144186 0.131971 1.192 48 63 35
0.0162698 0.131971 1.192 38 53 25
0.018121 0.131971 1.192 41 56 28
0.019989 0.132082 1.193 42 57 29
0.02186 0.132193 1.194 43 58 30
0.0236945 0.132082 1.193 45 60 32
0.0255473 0.132082 1.193 49 64 36
0.027423 0.132193 1.194 53 68 40
0.0293019 0.132304 1.195 52 67 39
0.0311577 0.132304 1.195 46 61 33
0.0330136 0.132304 1.195 47 62 34
0.0348695 0.132304 1.195 43 58 30
0.0367254 0.132304 1.195 43 58 30
0.0386135 0.132414 1.196 45 60 32
0.040471 0.132414 1.196 47 62 34
0.0423284 0.132414 1.196 47 62 34
0.0441489 0.132304 1.195 47 62 34
0.0460047 0.132304 1.195 45 60 32
0.0478206 0.132193 1.194 43 58 30
0.0496333 0.132082 1.193 43 58 30
0.0514429 0.131971 1.192 41 59 30
0.0532941 0.131971 1.192 41 59 30
0.0550991 0.131861 1.191 41 59 30
0.0569009 0.13175 1.19 43 61 32
0.058749 0.13175 1.19 44 62 33
0.0605971 0.13175 1.19 44 62 33
0.0624452 0.13175 1.19 44 62 33
0.0642393 0.131639 1.189 43 61 32
0.0660303 0.131529 1.188 43 61 32
0.0678753 0.131529 1.188 45 63 34
0.0697203 0.131529 1.188 46 64 35
0.0715653 0.131529 1.188 46 64 35
0.0734103 0.131529 1.188 45 63 34
0.0753187 0.131639 1.189 46 64 35
0.0772301 0.13175 1.19 46 64 35
0.0790782 0.13175 1.19 43 61 32
0.0809944 0.131861 1.191 43 62 30
0.082844 0.131861 1.191 43 62 30
0.0847648 0.131971 1.192 44 63 31
0.086616 0.131971 1.192 44 63 31
0.0884672 0.131971 1.192 44 64 30
0.0903184 0.131971 1.192 44 64 30
0.0921697 0.131971 1.192 46 66 32
0.0940209 0.131971 1.192 47 67 33
0.0958721 0.131971 1.192 46 66 32
0.0977233 0.131971 1.192 47 67 33
0.0995745 0.131971 1.192 47 64 31
0.101341 0.131861 1.191 48 65 32
0.10319 0.131861 1.191 45 62 29
0.104952 0.13175 1.19 47 64 31
0.1068 0.13175 1.19 48 65 32
0.108557 0.131639 1.189 48 65 32
0.11031 0.131529 1.188 48 65 32
0.112061 0.131418 1.187 46 63 30
0.113904 0.131418 1.187 46 63 30
0.11565 0.131307 1.186 47 64 31
0.117492 0.131307 1.186 47 64 31
0.119334 0.131307 1.186 48 65 32
0.121176 0.131307 1.186 47 64 31
0.123018 0.131307 1.186 47 64 31
0.12486 0.131307 1.186 47 63 32
0.126809 0.131418 1.187 48 64 33
0.128652 0.131418 1.187 49 65 34
0.130605 0.131529 1.188 49 65 34
0.132673 0.13175 1.19 49 65 34
0.134522 0.13175 1.19 48 64 33
0.136484 0.131861 1.191 49 65 34
0.13845 0.131971 1.192 50 66 35
0.140301 0.131971 1.192 52 68 37
0.142391 0.132193 1.194 53 69 38
0.144366 0.132304 1.195 54 70 39
0.146222 0.132304 1.195 53 69 38
0.148202 0.132414 1.196 52 68 37
0.150185 0.132525 1.197 53 69 38
0.152171 0.132636 1.198 54 70 39
0.15416 0.132746 1.199 53 69 38
0.156152 0.132857 1.2 48 64 33
0.158016 0.132857 1.2 49 65 34
0.159879 0.132857 1.2 49 65 34
0.161743 0.132857 1.2 49 65 34
0.163607 0.132857 1.2 49 65 34
0.16547 0.132857 1.2 50 66 35
0.167334 0.132857 1.2 53 69 38
0.168916 0.132636 1.198 52 68 37
0.170634 0.132525 1.197 52 68 37
0.172492 0.132525 1.197 52 68 37
0.17406 0.132304 1.195 53 69 38
0.175916 0.132304 1.195 53 69 38
0.177623 0.132193 1.194 53 69 38
0.179327 0.132082 1.193 52 68 37
0.181028 0.131971 1.192 48 64 33
0.182879 0.131971 1.192 50 66 35
0.184576 0.131861 1.191 49 66 33
0.186269 0.13175 1.19 52 69 36
0.188117 0.13175 1.19 54 71 38
0.189965 0.13175 1.19 53 70 37
0.191813 0.13175 1.19 53 70 37
0.193661 0.13175 1.19 52 69 36
0.195509 0.13175 1.19 52 69 36
0.197523 0.131861 1.191 53 70 37
0.199373 0.131861 1.191 54 71 38
0.201222 0.131861 1.191 54 71 38
0.202902 0.13175 1.19 53 70 37
0.20475 0.13175 1.19 53 70 37
0.206771 0.131861 1.191 53 70 37
0.208446 0.13175 1.19 52 69 36
0.210471 0.131861 1.191 54 71 38
0.21232 0.131861 1.191 53 70 37
0.21435 0.131971 1.192 54 71 38
0.216201 0.131971 1.192 54 71 38
0.218235 0.132082 1.193 54 71 38
0.220088 0.132082 1.193 54 71 38
0.222127 0.132193 1.194 54 71 38
0.223981 0.132193 1.194 54 71 38
0.225836 0.132193 1.194 54 72 36
0.227881 0.132304 1.195 55 73 37
0.229544 0.132193 1.194 54 72 36
0.231399 0.132193 1.194 55 73 37
0.233253 0.132193 1.194 56 74 38
0.235304 0.132304 1.195 55 73 37
0.23716 0.132304 1.195 55 72 39
0.239016 0.132304 1.195 54 71 38
0.24067 0.132193 1.194 54 71 38
0.242728 0.132304 1.195 54 71 38
0.244379 0.132193 1.194 54 71 38
0.246233 0.132193 1.194 54 71 38
0.24788 0.132082 1.193 48 65 32
0.249732 0.132082 1.193 52 69 36
0.251585 0.132082 1.193 52 69 36
0.253226 0.131971 1.192 54 71 38
0.255077 0.131971 1.192 54 71 38
0.256928 0.131971 1.192 54 71 38
0.258779 0.131971 1.192 54 71 38
0.26063 0.131971 1.192 54 71 38
0.262482 0.131971 1.192 54 71 38
0.264333 0.131971 1.192 54 71 38
0.265961 0.131861 1.191 54 71 38
0.26781 0.131861 1.191 54 71 38
0.26966 0.131861 1.191 54 71 38
0.271282 0.13175 1.19 54 71 38
0.27313 0.13175 1.19 54 72 36
0.274516 0.131529 1.188 54 72 36
0.276361 0.131529 1.188 55 73 37
0.277972 0.131418 1.187 54 72 36
0.279815 0.131418 1.187 54 72 36
0.281659 0.131418 1.187 53 71 35
0.283263 0.131307 1.186 53 71 35
0.285105 0.131307 1.186 53 71 35
0.286705 0.131196 1.185 53 72 34
0.288545 0.131196 1.185 53 72 34
0.290386 0.131196 1.185 54 73 35
0.292226 0.131196 1.185 55 74 36
0.294315 0.131307 1.186 57 76 38
0.295907 0.131196 1.185 57 76 38
0.297747 0.131196 1.185 56 75 37
0.299587 0.131196 1.185 57 76 38
0.301428 0.131196 1.185 56 75 37
0.305366 0.131307 1.186 55 73 37
0.307208 0.131307 1.186 56 74 38
0.30931 0.131418 1.187 57 75 39
0.311154 0.131418 1.187 57 75 39
0.313525 0.131639 1.189 59 78 40
0.315636 0.13175 1.19 60 79 41
0.318018 0.131971 1.192 60 79 41
0.319869 0.131971 1.192 61 80 42
0.32253 0.132304 1.195 66 83 43
0.324386 0.132304 1.195 66 83 43
0.326515 0.132414 1.196 72 90 47
0.328647 0.132525 1.197 76 94 51
0.33023 0.132414 1.196 79 99 56
0.332087 0.132414 1.196 81 101 58
0.333665 0.132304 1.195 81 101 58
0.335241 0.132193 1.194 82 102 59
0.337095 0.132193 1.194 85 105 62
0.338381 0.131971 1.192 83 103 60
0.340233 0.131971 1.192 88 107 67
0.341797 0.131861 1.191 83 102 62
0.343358 0.13175 1.19 88 107 69
0.345206 0.13175 1.19 84 103 65
0.347054 0.13175 1.19 89 107 71
0.348902 0.13175 1.19 85 103 67
0.35075 0.13175 1.19 86 104 68
0.352599 0.13175 1.19 86 104 68
0.354149 0.131639 1.189 86 105 67
0.355696 0.131529 1.188 89 108 70
0.35724 0.131418 1.187 72 83 39
0.358781 0.131307 1.186 64 75 31
0.360015 0.131086 1.184 188 191 150
0.360937 0.130754 1.181 141 144 103
0.361235 0.1302 1.176 74 74 43
0.361518 0.129646 1.171 84 84 53
0.361785 0.129093 1.166 72 72 61
0.361725 0.128429 1.16 87 87 76
0.360079 0.127211 1.149 205 213 206
0.360604 0.126768 1.145 241 249 242
0.361749 0.126546 1.143 191 198 194
0.36257 0.126214 1.14 225 232 228
0.36434 0.126214 1.14 239 241 253
0.365469 0.125993 1.138 168 170 182
0.367236 0.125993 1.138 109 114 117
0.371273 0.126768 1.145 116 121 124
-0.167701 0.134386 1.197 56 79 47
-0.165842 0.134386 1.197 56 79 47
-0.163983 0.134386 1.197 55 79 45
-0.162124 0.134386 1.197 55 79 45
-0.159997 0.134162 1.195 54 78 44
-0.158009 0.134049 1.194 54 78 44
-0.156024 0.133937 1.193 55 80 43
-0.154042 0.133825 1.192 54 79 42
-0.151808 0.133488 1.189 57 82 45
-0.149835 0.133376 1.188 58 83 46
-0.147866 0.133264 1.187 58 83 46
-0.146022 0.133264 1.187 60 85 48
-0.144179 0.133264 1.187 60 83 46
-0.142335 0.133264 1.187 59 82 45
-0.14061 0.133376 1.188 62 86 47
-0.138648 0.133264 1.187 62 86 47
-0.13692 0.133376 1.188 63 87 48
-0.135303 0.1336 1.19 62 86 47
-0.133454 0.1336 1.19 62 86 47
-0.131828 0.133825 1.192 62 86 47
-0.130194 0.134049 1.194 62 86 47
-0.128448 0.134162 1.195 64 88 49
-0.126698 0.134274 1.196 65 89 50
-0.124945 0.134386 1.197 65 89 50
-0.123086 0.134386 1.197 64 88 47
-0.121227 0.134386 1.197 64 88 47
-0.119467 0.134498 1.198 63 87 46
-0.117607 0.134498 1.198 64 88 47
-0.115746 0.134498 1.198 66 90 49
-0.113886 0.134498 1.198 63 87 46
-0.112025 0.134498 1.198 64 88 47
-0.110257 0.134611 1.199 64 88 47
-0.108395 0.134611 1.199 63 87 46
-0.106532 0.134611 1.199 62 86 45
-0.10467 0.134611 1.199 62 86 45
-0.102894 0.134723 1.2 60 84 43
-0.10103 0.134723 1.2 63 87 46
-0.0991668 0.134723 1.2 63 87 46
-0.0973031 0.134723 1.2 63 87 46
-0.0954395 0.134723 1.2 63 87 46
-0.0935758 0.134723 1.2 66 88 47
-0.0917122 0.134723 1.2 67 89 48
-0.0898486 0.134723 1.2 65 87 46
-0.0879849 0.134723 1.2 65 87 46
-0.0861213 0.134723 1.2 64 86 45
-0.0841874 0.134611 1.199 65 87 46
-0.0822567 0.134498 1.198 66 88 47
-0.0803961 0.134498 1.198 66 88 47
-0.07847 0.134386 1.197 66 88 49
-0.0766111 0.134386 1.197 67 89 50
-0.0747521 0.134386 1.197 66 88 49
-0.0728322 0.134274 1.196 64 86 47
-0.0709748 0.134274 1.196 64 86 47
-0.0690596 0.134162 1.195 66 88 49
-0.0672037 0.134162 1.195 64 86 47
-0.0653478 0.134162 1.195 67 89 50
-0.0634919 0.134162 1.195 65 87 48
-0.0616361 0.134162 1.195 67 89 50
-0.0597302 0.134049 1.194 65 87 48
-0.0578274 0.133937 1.193 64 86 47
-0.0559277 0.133825 1.192 59 81 42
-0.0540765 0.133825 1.192 55 77 38
-0.0522252 0.133825 1.192 59 81 42
-0.050374 0.133825 1.192 59 81 42
-0.0485228 0.133825 1.192 60 82 43
-0.0467107 0.133937 1.193 59 81 42
-0.044858 0.133937 1.193 59 81 42
-0.0430412 0.134049 1.194 59 81 42
-0.0411869 0.134049 1.194 61 83 44
-0.0393655 0.134162 1.195 59 81 42
-0.0374783 0.134049 1.194 59 81 42
-0.0356538 0.134162 1.195 58 80 41
-0.0337696 0.134049 1.194 58 80 41
-0.0319153 0.134049 1.194 59 81 42
-0.0300358 0.133937 1.193 58 80 41
-0.028183 0.133937 1.193 57 79 40
-0.0263303 0.133937 1.193 55 77 38
-0.0244775 0.133937 1.193 55 77 38
-0.0226247 0.133937 1.193 55 77 38
-0.0207546 0.133825 1.192 53 75 36
-0.0189033 0.133825 1.192 53 75 36
-0.0170521 0.133825 1.192 53 75 36
-0.0152009 0.133825 1.192 54 76 37
-0.0133497 0.133825 1.192 57 79 40
-0.0115081 0.133937 1.193 55 76 39
-0.00965535 0.133937 1.193 55 76 39
-0.00780912 0.134049 1.194 55 76 39
-0.00595978 0.134162 1.195 55 76 39
-0.0041039 0.134162 1.195 54 74 40
-0.00224803 0.134162 1.195 54 74 40
-0.000392153 0.134162 1.195 53 73 39
0.00146372 0.134162 1.195 59 79 45
0.00331682 0.134049 1.194 52 71 39
0.00517114 0.134049 1.194 53 72 40
0.00701958 0.133937 1.193 52 71 39
0.00886491 0.133825 1.192 47 66 34
0.0107161 0.133825 1.192 49 64 36
0.0125673 0.133825 1.192 50 65 37
0.0144186 0.133825 1.192 47 62 34
0.0162698 0.133825 1.192 38 53 25
0.018121 0.133825 1.192 41 56 28
0.0199722 0.133825 1.192 45 60 32
0.0218234 0.133825 1.192 45 60 32
0.0236945 0.133937 1.193 46 61 33
0.0255473 0.133937 1.193 47 62 34
0.027423 0.134049 1.194 48 63 35
0.0292773 0.134049 1.194 47 62 34
0.0311577 0.134162 1.195 45 60 32
0.0330136 0.134162 1.195 46 61 33
0.0348695 0.134162 1.195 45 60 32
0.0367254 0.134162 1.195 45 60 32
0.0385812 0.134162 1.195 46 61 33
0.0404371 0.134162 1.195 44 62 33
0.042293 0.134162 1.195 44 62 33
0.0441489 0.134162 1.195 44 62 33
0.0459277 0.133937 1.193 43 61 32
0.0477405 0.133825 1.192 41 59 30
0.0495917 0.133825 1.192 41 59 30
0.0513997 0.133713 1.191 41 59 30
0.0532047 0.1336 1.19 41 59 30
0.0550528 0.1336 1.19 43 61 32
0.0568531 0.133488 1.189 41 59 30
0.0586997 0.133488 1.189 44 62 33
0.0605462 0.133488 1.189 43 61 32
0.0623403 0.133376 1.188 43 61 32
0.0641313 0.133264 1.187 43 61 32
0.0659747 0.133264 1.187 43 61 32
0.0678182 0.133264 1.187 45 63 34
0.0696616 0.133264 1.187 45 63 34
0.0715051 0.133264 1.187 44 62 33
0.0733485 0.133264 1.187 45 63 34
0.0752553 0.133376 1.188 46 64 35
0.0771003 0.133376 1.188 45 63 34
0.0790118 0.133488 1.189 43 61 32
0.0809264 0.1336 1.19 43 62 30
0.0827745 0.1336 1.19 44 63 31
0.0846937 0.133713 1.191 44 63 31
0.086616 0.133825 1.192 44 63 31
0.0884672 0.133825 1.192 46 63 30
0.0903184 0.133825 1.192 45 62 29
0.0921697 0.133825 1.192 47 64 31
0.0940209 0.133825 1.192 48 65 32
0.0958721 0.133825 1.192 49 66 33
0.0977233 0.133825 1.192 49 66 33
0.0995745 0.133825 1.192 48 65 32
0.101426 0.133825 1.192 47 64 31
0.103277 0.133825 1.192 47 64 31
0.105128 0.133825 1.192 47 64 31
0.10689 0.133713 1.191 48 65 32
0.108648 0.1336 1.19 49 66 33
0.110496 0.1336 1.19 48 65 32
0.112344 0.1336 1.19 46 63 30
0.114096 0.133488 1.189 47 64 31
0.115845 0.133376 1.188 48 65 32
0.11769 0.133376 1.188 48 65 32
0.119535 0.133376 1.188 49 66 33
0.121278 0.133264 1.187 49 66 33
0.123122 0.133264 1.187 49 66 33
0.12507 0.133376 1.188 49 65 34
0.126915 0.133376 1.188 50 66 35
0.128869 0.133488 1.189 49 65 34
0.130825 0.1336 1.19 49 65 34
0.132673 0.1336 1.19 49 65 34
0.134748 0.133825 1.192 49 65 34
0.136599 0.133825 1.192 50 66 35
0.138566 0.133937 1.193 52 68 37
0.140537 0.134049 1.194 53 69 38
0.14251 0.134162 1.195 53 69 38
0.144366 0.134162 1.195 53 69 38
0.146467 0.134386 1.197 52 68 37
0.148326 0.134386 1.197 52 68 37
0.150436 0.134611 1.199 52 68 37
0.152298 0.134611 1.199 52 68 37
0.154288 0.134723 1.2 49 65 34
0.156152 0.134723 1.2 49 65 34
0.158147 0.134835 1.201 49 65 34
0.159879 0.134723 1.2 50 66 35
0.161878 0.134835 1.201 52 68 37
0.163743 0.134835 1.201 52 68 37
0.16547 0.134723 1.2 52 68 37
0.167334 0.134723 1.2 53 69 38
0.169057 0.134611 1.199 52 68 37
0.170634 0.134386 1.197 53 69 38
0.172492 0.134386 1.197 53 69 38
0.17406 0.134162 1.195 53 69 38
0.175916 0.134162 1.195 53 69 38
0.177623 0.134049 1.194 53 69 38
0.179177 0.133825 1.192 52 68 37
0.181028 0.133825 1.192 52 68 37
0.182726 0.133713 1.191 52 68 37
0.184576 0.133713 1.191 52 68 37
0.186269 0.1336 1.19 52 68 37
0.188117 0.1336 1.19 54 70 39
0.189965 0.1336 1.19 55 71 40
0.191813 0.1336 1.19 53 69 38
0.193661 0.1336 1.19 52 68 37
0.195673 0.133713 1.191 53 69 38
0.197523 0.133713 1.191 54 70 39
0.19954 0.133825 1.192 54 70 39
0.201391 0.133825 1.192 54 70 39
0.203243 0.133825 1.192 54 71 38
0.204922 0.133713 1.191 53 70 37
0.206945 0.133825 1.192 53 70 37
0.208621 0.133713 1.191 53 70 37
0.210648 0.133825 1.192 54 71 38
0.212499 0.133825 1.192 55 72 39
0.21435 0.133825 1.192 54 71 38
0.216201 0.133825 1.192 54 71 38
0.218235 0.133937 1.193 55 72 39
0.220088 0.133937 1.193 55 72 39
0.221941 0.133937 1.193 55 72 39
0.223794 0.133937 1.193 55 72 39
0.225646 0.133937 1.193 55 72 39
0.22769 0.134049 1.194 56 73 40
0.229544 0.134049 1.194 55 72 39
0.231399 0.134049 1.194 55 72 39
0.233253 0.134049 1.194 55 72 39
0.235107 0.134049 1.194 55 72 39
0.23716 0.134162 1.195 55 72 39
0.239016 0.134162 1.195 55 72 39
0.240872 0.134162 1.195 55 72 39
0.242728 0.134162 1.195 57 74 41
0.244583 0.134162 1.195 57 74 41
0.246439 0.134162 1.195 57 74 41
0.248295 0.134162 1.195 55 72 39
0.249942 0.134049 1.194 54 71 38
0.252007 0.134162 1.195 55 72 39
0.253863 0.134162 1.195 55 72 39
0.255719 0.134162 1.195 54 71 38
0.257575 0.134162 1.195 54 71 38
0.259213 0.134049 1.194 55 72 39
0.261068 0.134049 1.194 56 73 40
0.262922 0.134049 1.194 55 72 39
0.264555 0.133937 1.193 54 71 38
0.266184 0.133825 1.192 54 71 38
0.268035 0.133825 1.192 54 71 38
0.26966 0.133713 1.191 55 73 37
0.27151 0.133713 1.191 55 73 37
0.27313 0.1336 1.19 54 72 36
0.274978 0.1336 1.19 54 72 36
0.276826 0.1336 1.19 54 72 36
0.27844 0.133488 1.189 54 72 36
0.280287 0.133488 1.189 54 72 36
0.282133 0.133488 1.189 53 71 35
0.28398 0.133488 1.189 54 72 36
0.285586 0.133376 1.188 55 73 37
0.287431 0.133376 1.188 54 73 35
0.289276 0.133376 1.188 54 73 35
0.291366 0.133488 1.189 54 73 35
0.293212 0.133488 1.189 54 73 35
0.295059 0.133488 1.189 56 75 37
0.296656 0.133376 1.188 57 76 38
0.298752 0.133488 1.189 57 76 38
0.300599 0.133488 1.189 60 79 41
0.302191 0.133376 1.188 59 78 40
0.304292 0.133488 1.189 57 76 38
0.306138 0.133488 1.189 57 75 39
0.307985 0.133488 1.189 59 77 41
0.309831 0.133488 1.189 59 77 41
0.31194 0.1336 1.19 57 75 39
0.314052 0.133713 1.191 57 76 38
0.316167 0.133825 1.192 57 76 38
0.318285 0.133937 1.193 60 79 41
0.320674 0.134162 1.195 54 73 35
0.3228 0.134274 1.196 64 83 43
0.324929 0.134386 1.197 67 86 46
0.326788 0.134386 1.197 69 87 44
0.328647 0.134386 1.197 79 97 54
0.330506 0.134386 1.197 85 105 62
0.332365 0.134386 1.197 79 99 56
0.333945 0.134274 1.196 81 101 58
0.335521 0.134162 1.195 82 102 59
0.337377 0.134162 1.195 84 104 61
0.338665 0.133937 1.193 84 104 61
0.340233 0.133825 1.192 86 106 63
0.341797 0.133713 1.191 81 101 58
0.343358 0.1336 1.19 80 102 61
0.345206 0.1336 1.19 84 106 65
0.347054 0.1336 1.19 83 104 67
0.348902 0.1336 1.19 83 104 67
0.35075 0.1336 1.19 84 105 68
0.352599 0.1336 1.19 86 107 70
0.354447 0.1336 1.19 86 105 65
0.355696 0.133376 1.188 89 108 68
0.357541 0.133376 1.188 75 82 41
0.359084 0.133264 1.187 67 74 33
0.360319 0.133039 1.185 189 192 151
0.360937 0.13259 1.181 135 138 97
0.361542 0.132141 1.177 77 74 44
0.361826 0.131579 1.172 86 83 53
0.361785 0.130906 1.166 72 72 61
0.361725 0.130232 1.16 87 87 76
0.360079 0.128997 1.149 209 217 210
0.360919 0.12866 1.146 242 250 243
0.362065 0.128436 1.144 188 195 191
0.362888 0.128099 1.141 213 220 216
0.36434 0.127987 1.14 237 239 251
0.36579 0.127875 1.139 167 169 181
0.367236 0.127762 1.138 109 114 117
0.371597 0.12866 1.146 116 121 124
-0.167981 0.136475 1.199 51 74 42
-0.166119 0.136475 1.199 54 77 45
-0.164257 0.136475 1.199 53 77 43
-0.16226 0.136361 1.198 53 77 43
-0.160265 0.136247 1.197 53 77 43
-0.158142 0.13602 1.195 54 78 44
-0.156286 0.13602 1.195 55 80 43
-0.154171 0.135792 1.193 55 80 43
-0.152191 0.135678 1.192 56 81 44
-0.150087 0.135451 1.19 58 83 46
-0.148115 0.135337 1.189 60 85 48
-0.146268 0.135337 1.189 60 85 48
-0.1443 0.135223 1.188 62 85 48
-0.142335 0.135109 1.187 60 83 46
-0.14061 0.135223 1.188 62 86 47
-0.138765 0.135223 1.188 60 84 45
-0.13692 0.135223 1.188 63 87 48
-0.135189 0.135337 1.189 63 87 48
-0.133454 0.135451 1.19 62 86 47
-0.131828 0.135678 1.192 62 86 47
-0.130194 0.135906 1.194 62 86 47
-0.128448 0.13602 1.195 63 87 48
-0.126698 0.136134 1.196 64 88 49
-0.12484 0.136134 1.196 65 89 50
-0.123086 0.136247 1.197 65 89 50
-0.121227 0.136247 1.197 64 88 49
-0.119467 0.136361 1.198 62 86 45
-0.117607 0.136361 1.198 64 88 47
-0.115746 0.136361 1.198 66 90 49
-0.113886 0.136361 1.198 64 88 47
-0.112025 0.136361 1.198 66 90 49
-0.110165 0.136361 1.198 65 89 48
-0.108304 0.136361 1.198 64 88 47
-0.106532 0.136475 1.199 64 88 47
-0.10467 0.136475 1.199 65 89 48
-0.102894 0.136589 1.2 64 88 47
-0.10103 0.136589 1.2 63 87 46
-0.0991668 0.136589 1.2 63 87 46
-0.0973031 0.136589 1.2 63 87 46
-0.0954395 0.136589 1.2 64 88 47
-0.0935758 0.136589 1.2 67 90 46
-0.0917122 0.136589 1.2 67 90 46
-0.0898486 0.136589 1.2 66 89 45
-0.0879849 0.136589 1.2 66 89 45
-0.0861213 0.136589 1.2 64 87 43
-0.0841874 0.136475 1.199 65 88 44
-0.0822567 0.136361 1.198 66 88 47
-0.080329 0.136247 1.197 66 88 47
-0.0784045 0.136134 1.196 66 88 47
-0.0764831 0.13602 1.195 67 89 48
-0.0746272 0.13602 1.195 67 89 50
-0.0727104 0.135906 1.194 66 88 49
-0.0709154 0.13602 1.195 65 87 48
-0.0690018 0.135906 1.194 66 88 49
-0.0671474 0.135906 1.194 64 86 47
-0.0652384 0.135792 1.193 67 89 50
-0.0633857 0.135792 1.193 65 87 48
-0.0614813 0.135678 1.192 66 88 49
-0.0596301 0.135678 1.192 65 87 48
-0.0577789 0.135678 1.192 64 86 47
-0.0559277 0.135678 1.192 64 86 47
-0.0540765 0.135678 1.192 62 84 45
-0.0522252 0.135678 1.192 62 84 45
-0.050374 0.135678 1.192 62 84 45
-0.0485228 0.135678 1.192 62 84 45
-0.0448956 0.135906 1.194 62 84 45
-0.0430412 0.135906 1.194 61 83 44
-0.0412214 0.13602 1.195 62 84 45
-0.0393655 0.13602 1.195 60 82 43
-0.0375097 0.13602 1.195 59 81 42
-0.0356538 0.13602 1.195 59 81 42
-0.0337979 0.13602 1.195 58 80 41
-0.031942 0.13602 1.195 59 81 42
-0.0300862 0.13602 1.195 58 80 41
-0.0282067 0.135906 1.194 57 79 40
-0.0263523 0.135906 1.194 55 77 38
-0.024498 0.135906 1.194 55 77 38
-0.0226437 0.135906 1.194 55 77 38
-0.0208068 0.13602 1.195 55 77 38
-0.0189351 0.135906 1.194 57 79 40
-0.0170807 0.135906 1.194 55 77 38
-0.0152264 0.135906 1.194 54 76 37
-0.0133721 0.135906 1.194 55 77 38
-0.0115178 0.135906 1.194 55 76 39
-0.00967153 0.13602 1.195 55 76 39
-0.00781566 0.13602 1.195 55 76 39
-0.00595978 0.13602 1.195 55 76 39
-0.0041039 0.13602 1.195 55 76 39
-0.00224803 0.13602 1.195 54 75 38
-0.000392153 0.13602 1.195 53 73 39
0.00146372 0.13602 1.195 53 73 39
0.0033196 0.13602 1.195 52 72 38
0.00517547 0.13602 1.195 51 71 37
0.00702547 0.135906 1.194 51 70 38
0.00887235 0.135792 1.193 48 67 35
0.0107161 0.135678 1.192 49 65 34
0.0125673 0.135678 1.192 49 65 34
0.0144186 0.135678 1.192 45 60 32
0.0162698 0.135678 1.192 45 60 32
0.018121 0.135678 1.192 45 60 32
0.0199722 0.135678 1.192 46 61 33
0.0218234 0.135678 1.192 45 60 32
0.0236746 0.135678 1.192 47 62 34
0.0255259 0.135678 1.192 46 61 33
0.0273771 0.135678 1.192 47 62 34
0.0292528 0.135792 1.193 46 61 33
0.0311056 0.135792 1.193 45 60 32
0.0329584 0.135792 1.193 45 60 32
0.0348403 0.135906 1.194 45 60 32
0.0366946 0.135906 1.194 45 60 32
0.0385167 0.135792 1.193 46 61 33
0.0403694 0.135792 1.193 45 60 32
0.0422222 0.135792 1.193 45 60 32
0.044038 0.135678 1.192 45 60 32
0.0458892 0.135678 1.192 45 60 32
0.0477004 0.135564 1.191 43 58 30
0.0495085 0.135451 1.19 43 58 30
0.0513566 0.135451 1.19 43 58 30
0.05316 0.135337 1.189 43 58 30
0.0550065 0.135337 1.189 45 60 32
0.0568053 0.135223 1.188 45 60 32
0.0586009 0.135109 1.187 46 61 33
0.0604444 0.135109 1.187 45 60 32
0.0622878 0.135109 1.187 46 61 33
0.0641313 0.135109 1.187 45 60 32
0.0659747 0.135109 1.187 45 60 32
0.0678182 0.135109 1.187 45 60 32
0.0696616 0.135109 1.187 45 60 32
0.0715051 0.135109 1.187 46 61 33
0.0733485 0.135109 1.187 45 63 34
0.0752553 0.135223 1.188 46 64 35
0.0771003 0.135223 1.188 43 61 32
0.0790118 0.135337 1.189 43 61 32
0.0809264 0.135451 1.19 43 62 30
0.0827745 0.135451 1.19 44 63 31
0.0846226 0.135451 1.19 44 63 31
0.0865433 0.135564 1.191 44 63 31
0.0884672 0.135678 1.192 45 62 29
0.0903184 0.135678 1.192 45 62 29
0.0921697 0.135678 1.192 46 63 30
0.0940209 0.135678 1.192 48 65 32
0.0958721 0.135678 1.192 49 66 33
0.0977233 0.135678 1.192 49 66 33
0.0996581 0.135792 1.193 49 66 33
0.101511 0.135792 1.193 49 66 33
0.103277 0.135678 1.192 50 67 34
0.105128 0.135678 1.192 48 65 32
0.106979 0.135678 1.192 48 65 32
0.108831 0.135678 1.192 49 66 33
0.110682 0.135678 1.192 50 67 34
0.112439 0.135564 1.191 50 67 34
0.114192 0.135451 1.19 50 67 34
0.11604 0.135451 1.19 49 66 33
0.117889 0.135451 1.19 48 65 32
0.119737 0.135451 1.19 49 66 33
0.121585 0.135451 1.19 49 66 33
0.123433 0.135451 1.19 50 67 34
0.125281 0.135451 1.19 50 66 35
0.127129 0.135451 1.19 50 66 35
0.129086 0.135564 1.191 49 65 34
0.130935 0.135564 1.191 49 65 34
0.132896 0.135678 1.192 49 65 34
0.134861 0.135792 1.193 49 65 34
0.136828 0.135906 1.194 50 66 35
0.138799 0.13602 1.195 53 69 38
0.140654 0.13602 1.195 52 68 37
0.14263 0.136134 1.196 52 68 37
0.144608 0.136247 1.197 50 66 35
0.146589 0.136361 1.198 52 68 37
0.14845 0.136361 1.198 52 68 37
0.150561 0.136589 1.2 52 68 37
0.152425 0.136589 1.2 52 68 37
0.154288 0.136589 1.2 50 66 35
0.156282 0.136703 1.201 53 69 38
0.158279 0.136817 1.202 52 68 37
0.160013 0.136703 1.201 50 66 35
0.162013 0.136817 1.202 52 68 37
0.163743 0.136703 1.201 53 69 38
0.165608 0.136703 1.201 53 69 38
0.167334 0.136589 1.2 53 69 38
0.168916 0.136361 1.198 53 69 38
0.170634 0.136247 1.197 55 71 40
0.172492 0.136247 1.197 55 71 40
0.174206 0.136134 1.196 56 72 41
0.175916 0.13602 1.195 54 70 39
0.177623 0.135906 1.194 53 69 38
0.179177 0.135678 1.192 54 70 39
0.181028 0.135678 1.192 54 70 39
0.182726 0.135564 1.191 54 70 39
0.184576 0.135564 1.191 53 69 38
0.186269 0.135451 1.19 53 69 38
0.188117 0.135451 1.19 53 69 38
0.189965 0.135451 1.19 53 69 38
0.191813 0.135451 1.19 52 68 37
0.193661 0.135451 1.19 53 69 38
0.195673 0.135564 1.191 55 71 40
0.197689 0.135678 1.192 55 71 40
0.19954 0.135678 1.192 55 71 40
0.201391 0.135678 1.192 54 70 39
0.203243 0.135678 1.192 53 70 37
0.205094 0.135678 1.192 53 70 37
0.206945 0.135678 1.192 53 70 37
0.208796 0.135678 1.192 53 70 37
0.210648 0.135678 1.192 54 71 38
0.212499 0.135678 1.192 55 72 39
0.21435 0.135678 1.192 55 72 39
0.216201 0.135678 1.192 54 71 38
0.218052 0.135678 1.192 54 71 38
0.220088 0.135792 1.193 55 72 39
0.221755 0.135678 1.192 54 71 38
0.223606 0.135678 1.192 54 71 38
0.225457 0.135678 1.192 54 71 38
0.227308 0.135678 1.192 55 72 39
0.22916 0.135678 1.192 55 72 39
0.231205 0.135792 1.193 55 72 39
0.233057 0.135792 1.193 55 72 39
0.23491 0.135792 1.193 56 73 40
0.236763 0.135792 1.193 56 73 40
0.238816 0.135906 1.194 56 73 40
0.240872 0.13602 1.195 56 73 40
0.242728 0.13602 1.195 56 73 40
0.244583 0.13602 1.195 55 72 39
0.246439 0.13602 1.195 56 73 40
0.248295 0.13602 1.195 57 74 41
0.250151 0.13602 1.195 56 73 40
0.252007 0.13602 1.195 57 74 41
0.253863 0.13602 1.195 56 73 40
0.255719 0.13602 1.195 54 71 38
0.257575 0.13602 1.195 55 72 39
0.25943 0.13602 1.195 57 74 41
0.261286 0.13602 1.195 57 74 41
0.263142 0.13602 1.195 55 72 39
0.264998 0.13602 1.195 55 72 39
0.266631 0.135906 1.194 55 72 39
0.26826 0.135792 1.193 55 72 39
0.269886 0.135678 1.192 56 73 40
0.271738 0.135678 1.192 56 73 40
0.273589 0.135678 1.192 56 73 40
0.275209 0.135564 1.191 55 72 39
0.277059 0.135564 1.191 55 73 37
0.278908 0.135564 1.191 54 72 36
0.280758 0.135564 1.191 54 72 36
0.282608 0.135564 1.191 54 72 36
0.284457 0.135564 1.191 56 75 37
0.286307 0.135564 1.191 55 74 36
0.288157 0.135564 1.191 54 73 35
0.290006 0.135564 1.191 55 74 36
0.291856 0.135564 1.191 54 73 35
0.293952 0.135678 1.192 54 73 35
0.295803 0.135678 1.192 54 73 35
0.297655 0.135678 1.192 57 76 38
0.299506 0.135678 1.192 57 76 38
0.301357 0.135678 1.192 59 78 40
0.303208 0.135678 1.192 60 79 41
0.30506 0.135678 1.192 63 82 44
0.306911 0.135678 1.192 66 84 48
0.308762 0.135678 1.192 60 78 42
0.310874 0.135792 1.193 60 78 42
0.312989 0.135906 1.194 59 77 41
0.315107 0.13602 1.195 57 75 39
0.317228 0.136134 1.196 60 78 42
0.319352 0.136247 1.197 62 81 43
0.321211 0.136247 1.197 56 75 37
0.32361 0.136475 1.199 66 85 45
0.325472 0.136475 1.199 66 85 45
0.327607 0.136589 1.2 65 83 40
0.329471 0.136589 1.2 80 98 55
0.331058 0.136475 1.199 85 105 62
0.332365 0.136247 1.197 79 99 56
0.334224 0.136247 1.197 81 101 58
0.335802 0.136134 1.196 82 102 59
0.337377 0.13602 1.195 84 104 61
0.338665 0.135792 1.193 81 101 58
0.340233 0.135678 1.192 84 103 65
0.341797 0.135564 1.191 82 101 63
0.343358 0.135451 1.19 75 95 66
0.345206 0.135451 1.19 77 97 68
0.347054 0.135451 1.19 77 97 70
0.348902 0.135451 1.19 80 100 73
0.35075 0.135451 1.19 86 103 70
0.352599 0.135451 1.19 86 103 70
0.354447 0.135451 1.19 86 105 67
0.355995 0.135337 1.189 85 104 66
0.35724 0.135109 1.187 77 84 43
0.359084 0.135109 1.187 71 78 37
0.360319 0.134882 1.185 191 194 153
0.361242 0.13454 1.182 118 121 80
0.361542 0.133971 1.177 79 76 46
0.361826 0.133402 1.172 87 84 54
0.361785 0.132719 1.166 72 71 63
0.361725 0.132036 1.16 88 87 79
0.360079 0.130784 1.149 212 220 213
0.360919 0.130442 1.146 245 253 246
0.362065 0.130215 1.144 185 192 188
0.363206 0.129987 1.142 213 220 216
0.36466 0.129873 1.141 232 236 250
0.366111 0.129759 1.14 162 166 180
0.367881 0.129759 1.14 109 114 117
0.371922 0.130556 1.147 116 121 124
-0.168121 0.138455 1.2 48 70 41
-0.166258 0.138455 1.2 53 75 46
-0.164394 0.138455 1.2 53 77 43
-0.162531 0.138455 1.2 51 75 41
-0.160399 0.138224 1.198 54 78 44
-0.158406 0.138109 1.197 53 77 43
-0.156286 0.137878 1.195 56 81 44
-0.154301 0.137762 1.194 57 82 45
-0.152319 0.137647 1.193 58 83 46
-0.15034 0.137532 1.192 58 83 46
-0.148239 0.137301 1.19 58 83 46
-0.146391 0.137301 1.19 58 83 46
-0.144422 0.137186 1.189 60 84 45
-0.142455 0.13707 1.188 60 84 45
-0.140729 0.137186 1.189 62 86 47
-0.138882 0.137186 1.189 59 83 44
-0.137035 0.137186 1.189 63 87 48
-0.135189 0.137186 1.189 63 87 48
-0.133454 0.137301 1.19 63 87 48
-0.131828 0.137532 1.192 62 86 47
-0.130085 0.137647 1.193 62 86 47
-0.128448 0.137878 1.195 64 88 49
-0.126592 0.137878 1.195 65 89 50
-0.12484 0.137993 1.196 65 89 50
-0.123086 0.138109 1.197 65 89 50
-0.121227 0.138109 1.197 63 87 48
-0.119368 0.138109 1.197 63 87 46
-0.117607 0.138224 1.198 62 86 45
-0.115746 0.138224 1.198 64 88 47
-0.113791 0.138109 1.197 63 87 46
-0.112025 0.138224 1.198 65 89 48
-0.110165 0.138224 1.198 66 90 49
-0.108304 0.138224 1.198 66 90 49
-0.106532 0.138339 1.199 66 90 49
-0.10467 0.138339 1.199 65 89 48
-0.102894 0.138455 1.2 64 88 47
-0.10103 0.138455 1.2 63 87 46
-0.0991668 0.138455 1.2 63 87 46
-0.0973031 0.138455 1.2 64 89 45
-0.095519 0.13857 1.201 65 90 46
-0.0936538 0.13857 1.201 67 90 46
-0.0917122 0.138455 1.2 66 89 45
-0.0898486 0.138455 1.2 67 90 46
-0.0879849 0.138455 1.2 67 90 46
-0.0860495 0.138339 1.199 66 89 45
-0.0841874 0.138339 1.199 66 89 45
-0.082188 0.138109 1.197 66 89 45
-0.0802619 0.137993 1.196 66 89 45
-0.0783389 0.137878 1.195 66 88 47
-0.0764831 0.137878 1.195 67 89 48
-0.0745647 0.137762 1.194 67 89 48
-0.0726495 0.137647 1.193 67 89 48
-0.0707374 0.137532 1.192 67 89 50
-0.0688862 0.137532 1.192 68 90 51
-0.067035 0.137532 1.192 67 89 50
-0.0651838 0.137532 1.192 68 90 51
-0.0633325 0.137532 1.192 66 88 49
-0.0614813 0.137532 1.192 66 88 49
-0.0596301 0.137532 1.192 66 88 49
-0.0577789 0.137532 1.192 65 87 48
-0.0559277 0.137532 1.192 64 86 47
-0.0540765 0.137532 1.192 62 84 45
-0.0522252 0.137532 1.192 64 86 47
-0.050374 0.137532 1.192 65 87 48
-0.0485635 0.137647 1.193 64 86 47
-0.0467107 0.137647 1.193 62 84 45
-0.0448956 0.137762 1.194 61 83 44
-0.0430773 0.137878 1.195 60 82 43
-0.0412214 0.137878 1.195 61 83 44
-0.0393655 0.137878 1.195 61 83 44
-0.0375097 0.137878 1.195 59 81 42
-0.0356836 0.137993 1.196 59 81 42
-0.0337979 0.137878 1.195 59 81 42
-0.031942 0.137878 1.195 59 81 42
-0.0301113 0.137993 1.196 58 80 41
-0.0282539 0.137993 1.196 58 80 41
-0.0263744 0.137878 1.195 57 79 40
-0.0245185 0.137878 1.195 55 77 38
-0.0226627 0.137878 1.195 57 79 40
-0.0208068 0.137878 1.195 57 79 40
-0.0189509 0.137878 1.195 57 79 40
-0.017095 0.137878 1.195 58 80 41
-0.0152392 0.137878 1.195 57 79 40
-0.0133833 0.137878 1.195 58 80 41
-0.0115274 0.137878 1.195 58 80 41
-0.00967153 0.137878 1.195 58 80 41
-0.00781566 0.137878 1.195 55 76 39
-0.00595978 0.137878 1.195 53 74 37
-0.0041039 0.137878 1.195 55 76 39
-0.00224803 0.137878 1.195 54 75 38
-0.000392153 0.137878 1.195 53 74 37
0.00146372 0.137878 1.195 52 73 36
0.0033196 0.137878 1.195 52 73 36
0.00517114 0.137762 1.194 52 73 36
0.00701958 0.137647 1.193 51 71 37
0.00887235 0.137647 1.193 46 66 32
0.0107161 0.137532 1.192 48 68 34
0.0125673 0.137532 1.192 48 68 34
0.0144186 0.137532 1.192 52 68 37
0.0162698 0.137532 1.192 52 68 37
0.018121 0.137532 1.192 47 62 34
0.0199555 0.137416 1.191 41 56 28
0.0218051 0.137416 1.191 49 64 36
0.0236548 0.137416 1.191 55 70 42
0.0255044 0.137416 1.191 48 63 35
0.0273771 0.137532 1.192 46 61 33
0.0292283 0.137532 1.192 46 61 33
0.0310795 0.137532 1.192 43 58 30
0.0329307 0.137532 1.192 45 60 32
0.0347819 0.137532 1.192 45 60 32
0.0366332 0.137532 1.192 46 61 33
0.0384844 0.137532 1.192 46 61 33
0.0403356 0.137532 1.192 46 61 33
0.0421514 0.137416 1.191 46 61 33
0.0440011 0.137416 1.191 46 61 33
0.0458123 0.137301 1.19 46 61 33
0.0476604 0.137301 1.19 45 60 32
0.0494669 0.137186 1.189 45 60 32
0.0513134 0.137186 1.189 43 58 30
0.0531153 0.13707 1.188 43 58 30
0.054914 0.136955 1.187 45 60 32
0.0567575 0.136955 1.187 45 60 32
0.0586009 0.136955 1.187 45 60 32
0.0604444 0.136955 1.187 43 58 30
0.0622878 0.136955 1.187 45 60 32
0.0641313 0.136955 1.187 46 61 33
0.0659191 0.136839 1.186 46 61 33
0.067761 0.136839 1.186 46 61 33
0.0696029 0.136839 1.186 46 61 33
0.0715051 0.136955 1.187 45 60 32
0.0733485 0.136955 1.187 45 63 34
0.075192 0.136955 1.187 46 64 35
0.0771003 0.13707 1.188 44 62 33
0.0790118 0.137186 1.189 45 63 34
0.0808583 0.137186 1.189 44 63 31
0.0827745 0.137301 1.19 46 65 33
0.0846226 0.137301 1.19 44 63 31
0.0865433 0.137416 1.191 44 63 31
0.0884672 0.137532 1.192 46 63 30
0.0903184 0.137532 1.192 47 64 31
0.0921697 0.137532 1.192 47 64 31
0.0940998 0.137647 1.193 48 65 32
0.0959525 0.137647 1.193 49 66 33
0.0978053 0.137647 1.193 48 65 32
0.0997416 0.137762 1.194 49 66 33
0.101681 0.137878 1.195 49 66 33
0.10345 0.137762 1.194 49 66 33
0.105393 0.137878 1.195 48 65 32
0.107249 0.137878 1.195 49 66 33
0.109013 0.137762 1.194 49 66 33
0.110868 0.137762 1.194 50 67 34
0.112627 0.137647 1.193 50 67 34
0.114384 0.137532 1.192 50 67 34
0.116235 0.137532 1.192 49 66 33
0.118087 0.137532 1.192 48 65 32
0.119938 0.137532 1.192 49 66 33
0.121687 0.137416 1.191 48 65 32
0.123537 0.137416 1.191 47 64 31
0.125492 0.137532 1.192 50 66 35
0.127343 0.137532 1.192 50 66 35
0.129194 0.137532 1.192 50 66 35
0.131155 0.137647 1.193 50 66 35
0.133119 0.137762 1.194 49 65 34
0.135087 0.137878 1.195 48 64 33
0.136943 0.137878 1.195 42 58 27
0.138915 0.137993 1.196 40 56 25
0.140772 0.137993 1.196 48 64 33
0.142749 0.138109 1.197 50 66 35
0.144729 0.138224 1.198 49 65 34
0.146711 0.138339 1.199 49 65 34
0.148574 0.138339 1.199 49 65 34
0.150561 0.138455 1.2 50 66 35
0.152552 0.13857 1.201 52 68 37
0.154417 0.13857 1.201 53 69 38
0.156412 0.138685 1.202 53 69 38
0.158279 0.138685 1.202 53 69 38
0.160146 0.138685 1.202 52 68 37
0.162013 0.138685 1.202 52 68 37
0.163743 0.13857 1.201 53 69 38
0.16547 0.138455 1.2 52 68 37
0.167334 0.138455 1.2 53 69 38
0.169057 0.138339 1.199 52 68 37
0.170634 0.138109 1.197 54 70 39
0.172348 0.137993 1.196 53 69 38
0.17406 0.137878 1.195 53 69 38
0.175916 0.137878 1.195 53 69 38
0.177623 0.137762 1.194 54 70 39
0.179177 0.137532 1.192 56 72 41
0.181028 0.137532 1.192 56 72 41
0.182726 0.137416 1.191 55 71 40
0.184576 0.137416 1.191 54 70 39
0.186269 0.137301 1.19 54 70 39
0.188117 0.137301 1.19 54 70 39
0.189965 0.137301 1.19 55 71 40
0.191974 0.137416 1.191 52 68 37
0.193824 0.137416 1.191 55 71 40
0.195838 0.137532 1.192 55 71 40
0.197689 0.137532 1.192 53 69 38
0.199708 0.137647 1.193 53 69 38
0.20156 0.137647 1.193 53 69 38
0.203413 0.137647 1.193 53 69 38
0.205266 0.137647 1.193 53 69 38
0.207119 0.137647 1.193 53 70 37
0.208971 0.137647 1.193 54 71 38
0.210824 0.137647 1.193 54 71 38
0.212677 0.137647 1.193 55 72 39
0.21453 0.137647 1.193 54 71 38
0.216383 0.137647 1.193 54 71 38
0.218052 0.137532 1.192 55 72 39
0.219904 0.137532 1.192 55 72 39
0.221755 0.137532 1.192 55 72 39
0.223606 0.137532 1.192 54 71 38
0.225457 0.137532 1.192 55 72 39
0.227308 0.137532 1.192 56 73 40
0.22916 0.137532 1.192 55 72 39
0.231011 0.137532 1.192 55 72 39
0.232862 0.137532 1.192 56 73 40
0.23491 0.137647 1.193 56 73 40
0.236763 0.137647 1.193 56 73 40
0.238816 0.137762 1.194 57 74 41
0.24067 0.137762 1.194 56 73 40
0.242728 0.137878 1.195 55 72 39
0.244583 0.137878 1.195 55 72 39
0.246439 0.137878 1.195 54 71 38
0.248295 0.137878 1.195 56 73 40
0.250151 0.137878 1.195 55 72 39
0.252218 0.137993 1.196 56 73 40
0.254075 0.137993 1.196 57 74 41
0.255933 0.137993 1.196 56 73 40
0.25779 0.137993 1.196 56 73 40
0.259648 0.137993 1.196 57 74 41
0.261286 0.137878 1.195 59 76 43
0.263142 0.137878 1.195 59 76 43
0.264998 0.137878 1.195 59 76 43
0.266854 0.137878 1.195 56 73 40
0.268485 0.137762 1.194 56 73 40
0.270339 0.137762 1.194 56 73 40
0.271966 0.137647 1.193 56 73 40
0.273818 0.137647 1.193 56 74 38
0.27544 0.137532 1.192 56 74 38
0.277291 0.137532 1.192 56 74 38
0.279143 0.137532 1.192 54 72 36
0.280994 0.137532 1.192 54 72 36
0.282845 0.137532 1.192 54 72 36
0.284935 0.137647 1.193 55 74 36
0.286788 0.137647 1.193 56 75 37
0.288641 0.137647 1.193 55 74 36
0.290737 0.137762 1.194 55 74 36
0.292591 0.137762 1.194 55 74 36
0.294445 0.137762 1.194 54 73 35
0.296548 0.137878 1.195 59 78 40
0.298154 0.137762 1.194 61 80 42
0.300008 0.137762 1.194 59 78 40
0.302116 0.137878 1.195 57 76 38
0.303717 0.137762 1.194 60 79 41
0.305827 0.137878 1.195 62 81 43
0.307683 0.137878 1.195 63 81 45
0.309798 0.137993 1.196 60 78 42
0.311916 0.138109 1.197 61 79 43
0.313775 0.138109 1.197 61 79 43
0.316161 0.138339 1.199 61 79 43
0.318289 0.138455 1.2 62 80 44
0.320152 0.138455 1.2 62 81 43
0.322284 0.13857 1.201 61 80 42
0.32442 0.138685 1.202 66 85 45
0.326286 0.138685 1.202 67 86 46
0.328153 0.138685 1.202 71 89 46
0.33002 0.138685 1.202 79 97 54
0.331334 0.138455 1.2 84 102 59
0.333198 0.138455 1.2 80 98 55
0.334503 0.138224 1.198 84 102 59
0.336083 0.138109 1.197 84 102 59
0.337377 0.137878 1.195 79 99 56
0.338949 0.137762 1.194 76 96 53
0.340233 0.137532 1.192 75 95 61
0.341797 0.137416 1.191 101 121 87
0.343358 0.137301 1.19 76 99 76
0.345206 0.137301 1.19 68 91 68
0.347054 0.137301 1.19 80 97 77
0.348902 0.137301 1.19 94 111 91
0.35075 0.137301 1.19 70 88 59
0.352599 0.137301 1.19 79 97 68
0.354447 0.137301 1.19 84 102 66
0.356295 0.137301 1.19 85 103 67
0.357541 0.13707 1.188 80 87 46
0.359084 0.136955 1.187 75 82 41
0.360319 0.136724 1.185 199 199 159
0.361242 0.136378 1.182 106 106 66
0.361849 0.135916 1.178 78 75 45
0.362135 0.135339 1.173 89 86 56
0.362095 0.134647 1.167 74 71 61
0.362348 0.13407 1.162 90 87 77
0.360079 0.13257 1.149 217 223 216
0.360919 0.132224 1.146 247 253 246
0.362065 0.131993 1.144 181 188 184
0.363206 0.131763 1.142 211 218 214
0.36466 0.131647 1.141 230 232 244
0.366111 0.131532 1.14 163 165 177
0.368527 0.131763 1.142 106 112 112
0.372246 0.132455 1.148 116 122 122
-0.168121 0.140321 1.2 48 70 41
-0.166258 0.140321 1.2 48 70 41
-0.164394 0.140321 1.2 57 80 48
-0.162531 0.140321 1.2 55 78 46
-0.160533 0.140204 1.199 56 80 46
-0.158406 0.13997 1.197 56 80 46
-0.156547 0.13997 1.197 56 81 44
-0.15443 0.139736 1.195 57 82 45
-0.152446 0.139619 1.194 57 82 45
-0.15034 0.139385 1.192 58 83 46
-0.148364 0.139268 1.191 57 82 45
-0.146514 0.139268 1.191 57 82 45
-0.144543 0.139151 1.19 62 86 47
-0.142575 0.139034 1.189 62 86 47
-0.140847 0.139151 1.19 62 86 47
-0.138882 0.139034 1.189 59 83 44
-0.137151 0.139151 1.19 63 87 48
-0.135303 0.139151 1.19 63 87 48
-0.133454 0.139151 1.19 63 87 48
-0.131828 0.139385 1.192 63 87 48
-0.130085 0.139502 1.193 62 86 47
-0.12834 0.139619 1.194 65 89 50
-0.126592 0.139736 1.195 67 91 52
-0.124736 0.139736 1.195 66 90 51
-0.122983 0.139853 1.196 69 91 52
-0.121227 0.13997 1.197 66 88 49
-0.119368 0.13997 1.197 66 88 47
-0.117509 0.13997 1.197 66 88 47
-0.11565 0.13997 1.197 68 90 49
-0.113791 0.13997 1.197 66 88 47
-0.111932 0.13997 1.197 66 88 47
-0.110165 0.140087 1.198 66 88 47
-0.108304 0.140087 1.198 63 87 46
-0.106532 0.140204 1.199 64 88 47
-0.10467 0.140204 1.199 63 87 46
-0.102894 0.140321 1.2 63 87 46
-0.10103 0.140321 1.2 63 88 44
-0.0991668 0.140321 1.2 64 89 45
-0.0973842 0.140438 1.201 65 90 46
-0.095519 0.140438 1.201 66 91 47
-0.0936538 0.140438 1.201 69 92 48
-0.0917122 0.140321 1.2 69 92 48
-0.0898486 0.140321 1.2 70 93 49
-0.0879849 0.140321 1.2 70 93 49
-0.0860495 0.140204 1.199 74 97 53
-0.0841172 0.140087 1.198 66 89 45
-0.082188 0.13997 1.197 66 89 45
-0.0802619 0.139853 1.196 66 89 45
-0.0783389 0.139736 1.195 66 88 47
-0.0764191 0.139619 1.194 67 89 48
-0.0745023 0.139502 1.193 67 89 48
-0.0725886 0.139385 1.192 67 89 48
-0.0707374 0.139385 1.192 73 95 54
-0.0688284 0.139268 1.191 69 91 50
-0.0669787 0.139268 1.191 69 91 50
-0.0651291 0.139268 1.191 69 91 50
-0.0632794 0.139268 1.191 66 88 49
-0.0614813 0.139385 1.192 68 90 51
-0.0596301 0.139385 1.192 69 91 52
-0.0577789 0.139385 1.192 66 88 49
-0.0559277 0.139385 1.192 66 88 49
-0.0540765 0.139385 1.192 65 87 48
-0.0522252 0.139385 1.192 65 87 48
-0.0504163 0.139502 1.193 65 87 48
-0.0486042 0.139619 1.194 64 86 47
-0.046789 0.139736 1.195 64 86 47
-0.0449332 0.139736 1.195 59 81 42
-0.0430773 0.139736 1.195 57 79 40
-0.0412559 0.139853 1.196 57 79 40
-0.0393985 0.139853 1.196 60 82 43
-0.0375411 0.139853 1.196 60 82 43
-0.0356836 0.139853 1.196 59 81 42
-0.0338262 0.139853 1.196 59 81 42
-0.0319688 0.139853 1.196 59 81 42
-0.0301113 0.139853 1.196 58 80 41
-0.0282303 0.139736 1.195 58 80 41
-0.0263744 0.139736 1.195 58 80 41
-0.0245185 0.139736 1.195 57 79 40
-0.0226627 0.139736 1.195 57 79 40
-0.0208068 0.139736 1.195 57 79 40
-0.0189509 0.139736 1.195 55 77 38
-0.017095 0.139736 1.195 57 79 40
-0.0152392 0.139736 1.195 57 79 40
-0.0133833 0.139736 1.195 58 80 41
-0.0115274 0.139736 1.195 58 80 41
-0.00967153 0.139736 1.195 55 77 38
-0.00781566 0.139736 1.195 53 75 36
-0.00595479 0.139619 1.194 54 76 37
-0.00410047 0.139619 1.194 55 77 38
-0.00224615 0.139619 1.194 55 77 38
