ply
format ascii 1.0
comment Created by Open3D
element vertex 1268
property double x
property double y
property double z
property uchar red
property uchar green
property uchar blue
end_header
0.346532 -0.00708793 1.201 40 58 29
0.348397 -0.00708793 1.201 40 58 29
0.350262 -0.00708793 1.201 41 59 32
0.351834 -0.00708203 1.2 41 59 32
0.353698 -0.00708203 1.2 44 61 36
0.355265 -0.00707613 1.199 41 58 33
0.35683 -0.00707023 1.198 41 57 35
0.358391 -0.00706432 1.197 40 56 34
0.359648 -0.00705252 1.195 40 53 40
0.361201 -0.00704662 1.194 31 44 31
0.362447 -0.00703482 1.192 27 38 30
0.363687 -0.00702301 1.19 45 56 48
0.365535 -0.00702301 1.19 30 41 33
0.36584 -0.0069935 1.185 25 36 28
0.364267 -0.00692859 1.174 23 33 28
0.358399 -0.00671612 1.138 147 156 154
0.358901 -0.00669252 1.134 150 159 157
0.360344 -0.00668662 1.133 159 168 166
0.361464 -0.00667481 1.131 162 170 172
0.363221 -0.00667481 1.131 111 119 121
0.366591 -0.00670432 1.136 93 100 104
0.370949 -0.00675153 1.144 94 101 105
-0.146686 -0.00455111 1.047 35 25 119
-0.14506 -0.00455111 1.047 48 38 132
-0.143434 -0.00455111 1.047 36 21 130
-0.141808 -0.00455111 1.047 27 12 121
-0.140182 -0.00455111 1.047 53 35 133
-0.138556 -0.00455111 1.047 149 131 229
-0.13693 -0.00455111 1.047 202 196 244
-0.135304 -0.00455111 1.047 187 181 229
-0.13355 -0.00454676 1.046 171 177 191
-0.131926 -0.00454676 1.046 185 191 205
-0.130301 -0.00454676 1.046 185 191 205
-0.128677 -0.00454676 1.046 160 166 180
-0.127174 -0.00455111 1.047 163 167 193
-0.125548 -0.00455111 1.047 191 195 221
-0.123922 -0.00455111 1.047 165 159 236
-0.122296 -0.00455111 1.047 58 52 129
-0.12067 -0.00455111 1.047 32 6 153
-0.119157 -0.00455546 1.048 39 13 160
-0.11753 -0.00455546 1.048 37 5 191
-0.115902 -0.00455546 1.048 35 3 189
-0.114165 -0.00455111 1.047 31 5 195
-0.112539 -0.00455111 1.047 29 3 193
-0.110807 -0.00454676 1.046 28 2 192
-0.109079 -0.00454242 1.045 26 0 190
-0.107456 -0.00454242 1.045 32 10 201
-0.105731 -0.00453807 1.044 39 17 208
-0.10411 -0.00453807 1.044 22 0 187
-0.102489 -0.00453807 1.044 22 0 187
-0.100867 -0.00453807 1.044 24 1 188
-0.099246 -0.00453807 1.044 24 1 188
-0.0976247 -0.00453807 1.044 25 2 189
-0.0960033 -0.00453807 1.044 25 2 189
-0.0943819 -0.00453807 1.044 25 2 189
-0.0927606 -0.00453807 1.044 24 1 188
-0.0911392 -0.00453807 1.044 24 1 188
-0.0895178 -0.00453807 1.044 25 2 189
-0.0878964 -0.00453807 1.044 26 3 190
-0.0862751 -0.00453807 1.044 25 2 189
-0.0846537 -0.00453807 1.044 32 11 191
-0.0829528 -0.00453372 1.043 32 11 191
-0.081333 -0.00453372 1.043 23 6 154
-0.0797132 -0.00453372 1.043 14 0 145
-0.0780934 -0.00453372 1.043 14 1 104
-0.0765469 -0.00453807 1.044 33 20 123
-0.0749255 -0.00453807 1.044 171 159 212
-0.0733744 -0.00454242 1.045 248 236 255
-0.0716828 -0.00453807 1.044 249 251 255
-0.0701285 -0.00454242 1.045 249 251 255
-0.0685056 -0.00454242 1.045 251 255 254
-0.0669467 -0.00454676 1.046 251 255 254
-0.0653222 -0.00454676 1.046 253 253 253
-0.0636977 -0.00454676 1.046 239 239 239
-0.0620733 -0.00454676 1.046 238 238 238
-0.0604488 -0.00454676 1.046 243 243 243
-0.0588243 -0.00454676 1.046 239 237 237
-0.0571998 -0.00454676 1.046 245 243 243
-0.0555754 -0.00454676 1.046 249 247 247
-0.0539509 -0.00454676 1.046 252 250 250
-0.0523264 -0.00454676 1.046 249 245 246
-0.0507019 -0.00454676 1.046 235 231 232
-0.0490305 -0.00454242 1.045 240 236 237
-0.0474076 -0.00454242 1.045 255 251 252
-0.0457847 -0.00454242 1.045 255 251 253
-0.044204 -0.00454676 1.046 250 243 245
-0.0425389 -0.00454242 1.045 245 238 239
-0.0408768 -0.00453807 1.044 245 238 239
-0.0392554 -0.00453807 1.044 250 243 244
-0.037598 -0.00453372 1.043 252 245 246
-0.0359782 -0.00453372 1.043 255 248 249
-0.0343584 -0.00453372 1.043 250 243 244
-0.0327072 -0.00452938 1.042 251 244 245
-0.0310889 -0.00452938 1.042 250 243 244
-0.0294424 -0.00452503 1.041 252 245 246
-0.0278257 -0.00452503 1.041 252 245 246
-0.026209 -0.00452503 1.041 252 245 246
-0.0246159 -0.00452938 1.042 252 245 246
-0.0230197 -0.00453372 1.043 252 245 246
-0.0214204 -0.00453807 1.044 253 246 247
-0.019818 -0.00454242 1.045 253 246 247
-0.0181951 -0.00454242 1.045 252 245 246
-0.016588 -0.00454676 1.046 255 250 251
-0.0149635 -0.00454676 1.046 253 246 247
-0.0133518 -0.00455111 1.047 245 238 239
-0.0117258 -0.00455111 1.047 245 238 239
-0.0101094 -0.00455546 1.048 255 253 253
-0.00848181 -0.00455546 1.048 254 250 250
-0.00685423 -0.00455546 1.048 254 250 250
-0.00522665 -0.00455546 1.048 246 242 242
-0.00360251 -0.00455981 1.049 253 251 251
-0.00197337 -0.00455981 1.049 255 254 254
-0.000344242 -0.00455981 1.049 255 253 253
0.00128367 -0.00455546 1.048 251 249 249
0.00291125 -0.00455546 1.048 246 244 244
0.00453883 -0.00455546 1.048 254 252 252
0.00616641 -0.00455546 1.048 255 254 254
0.00780142 -0.00455981 1.049 255 254 254
0.00943055 -0.00455981 1.049 254 254 254
0.0110597 -0.00455981 1.049 254 254 254
0.0126888 -0.00455981 1.049 254 254 254
0.014318 -0.00455981 1.049 254 254 254
0.0159319 -0.00455546 1.048 254 254 254
0.0175427 -0.00455111 1.047 254 254 254
0.0191687 -0.00455111 1.047 251 255 254
0.0207749 -0.00454676 1.046 251 255 254
0.022378 -0.00454242 1.045 249 251 255
0.0239779 -0.00453807 1.044 249 251 255
0.0255748 -0.00453372 1.043 232 217 255
0.0271946 -0.00453372 1.043 99 84 145
0.0288144 -0.00453372 1.043 49 15 152
0.0304342 -0.00453372 1.043 42 8 145
0.0320848 -0.00453807 1.044 40 2 180
0.0337061 -0.00453807 1.044 46 8 186
0.0353275 -0.00453807 1.044 42 5 194
0.0369842 -0.00454242 1.045 42 5 194
0.0386072 -0.00454242 1.045 39 6 197
0.0402301 -0.00454242 1.045 39 6 197
0.0418931 -0.00454676 1.046 36 3 199
0.0435175 -0.00454676 1.046 31 0 194
0.045142 -0.00454676 1.046 31 0 191
0.0467665 -0.00454676 1.046 32 1 192
0.048391 -0.00454676 1.046 36 8 170
0.0500632 -0.00455111 1.047 31 3 165
0.0516893 -0.00455111 1.047 51 28 147
0.0533662 -0.00455546 1.048 124 101 220
0.0549938 -0.00455546 1.048 198 193 252
0.0566214 -0.00455546 1.048 194 189 248
0.058249 -0.00455546 1.048 179 187 207
0.0598765 -0.00455546 1.048 181 189 209
0.0615041 -0.00455546 1.048 188 194 208
0.0631317 -0.00455546 1.048 216 222 236
0.0646975 -0.00455111 1.047 222 224 250
0.0663235 -0.00455111 1.047 156 158 184
0.0678846 -0.00454676 1.046 93 84 141
0.0695091 -0.00454676 1.046 46 37 94
0.0711336 -0.00454676 1.046 37 21 113
0.0726885 -0.00454242 1.045 44 28 120
0.0743114 -0.00454242 1.045 42 18 153
0.0758617 -0.00453807 1.044 43 19 154
0.077483 -0.00453807 1.044 35 16 165
0.0791044 -0.00453807 1.044 39 20 169
0.0807258 -0.00453807 1.044 40 17 177
0.0823471 -0.00453807 1.044 38 15 175
0.0839685 -0.00453807 1.044 30 5 163
0.0855899 -0.00453807 1.044 30 5 163
0.0872112 -0.00453807 1.044 30 9 170
0.0888326 -0.00453807 1.044 23 2 163
0.090454 -0.00453807 1.044 39 16 177
0.0921635 -0.00454242 1.045 85 62 223
0.0938762 -0.00454676 1.046 113 106 225
0.0955007 -0.00454676 1.046 85 78 197
0.0970323 -0.00454242 1.045 30 34 107
0.0987496 -0.00454676 1.046 28 32 105
0.124228 -0.00512924 1.18 48 70 43
0.126168 -0.00513358 1.181 46 68 41
0.12811 -0.00513793 1.182 43 65 36
0.130166 -0.00514662 1.184 47 69 40
0.132116 -0.00515097 1.185 49 73 39
0.134182 -0.00515967 1.187 48 72 38
0.136026 -0.00515967 1.187 46 71 34
0.138102 -0.00516836 1.189 46 71 34
0.139948 -0.00516836 1.189 46 71 34
0.141795 -0.00516836 1.189 47 72 35
0.143641 -0.00516836 1.189 47 72 35
0.145365 -0.00516401 1.188 47 72 35
0.147211 -0.00516401 1.188 47 73 34
0.14893 -0.00515967 1.187 48 74 35
0.150646 -0.00515532 1.186 49 75 36
0.15236 -0.00515097 1.185 49 75 36
0.1542 -0.00515097 1.185 53 79 40
0.155909 -0.00514662 1.184 54 80 41
0.157748 -0.00514662 1.184 53 79 40
0.159317 -0.00513793 1.182 54 80 41
0.161153 -0.00513793 1.182 55 79 40
0.162988 -0.00513793 1.182 56 80 41
0.164824 -0.00513793 1.182 59 83 44
0.16666 -0.00513793 1.182 58 82 43
0.16878 -0.00514662 1.184 59 83 44
0.170763 -0.00515097 1.185 60 84 45
0.172604 -0.00515097 1.185 62 86 47
0.174738 -0.00515967 1.187 60 84 45
0.176731 -0.00516401 1.188 58 82 43
0.178876 -0.00517271 1.19 60 84 45
0.180724 -0.00517271 1.19 62 86 45
0.182572 -0.00517271 1.19 62 86 45
0.184576 -0.00517705 1.191 60 84 43
0.186425 -0.00517705 1.191 62 86 45
0.188117 -0.00517271 1.19 62 86 45
0.189965 -0.00517271 1.19 62 86 45
0.191652 -0.00516836 1.189 62 86 45
0.193336 -0.00516401 1.188 62 86 45
0.195016 -0.00515967 1.187 60 84 43
0.19686 -0.00515967 1.187 60 84 43
0.198536 -0.00515532 1.186 62 86 45
0.200547 -0.00515967 1.187 62 86 45
0.20239 -0.00515967 1.187 60 84 43
0.204406 -0.00516401 1.188 62 86 45
0.206424 -0.00516836 1.189 60 84 43
0.208271 -0.00516836 1.189 62 86 45
0.210294 -0.00517271 1.19 60 84 43
0.21232 -0.00517705 1.191 62 86 45
0.21435 -0.0051814 1.192 62 86 45
0.216201 -0.0051814 1.192 60 84 43
0.218052 -0.0051814 1.192 59 83 42
0.220088 -0.00518575 1.193 60 84 43
0.221941 -0.00518575 1.193 62 86 45
0.223981 -0.00519009 1.194 60 84 43
0.225836 -0.00519009 1.194 65 89 48
0.227499 -0.00518575 1.193 56 80 39
0.229352 -0.00518575 1.193 50 74 33
0.231011 -0.0051814 1.192 51 75 34
0.232862 -0.0051814 1.192 50 72 31
0.234713 -0.0051814 1.192 47 69 28
0.236366 -0.00517705 1.191 47 69 28
0.238016 -0.00517271 1.19 47 69 28
0.239864 -0.00517271 1.19 46 68 27
0.241712 -0.00517271 1.19 50 72 31
0.243355 -0.00516836 1.189 43 61 25
0.245202 -0.00516836 1.189 33 51 15
0.246841 -0.00516401 1.188 38 56 20
0.248686 -0.00516401 1.188 34 52 16
0.250531 -0.00516401 1.188 32 48 17
0.252376 -0.00516401 1.188 32 48 17
0.254007 -0.00515967 1.187 33 48 20
0.25585 -0.00515967 1.187 32 47 19
0.257477 -0.00515532 1.186 33 48 20
0.259318 -0.00515532 1.186 32 47 19
0.26094 -0.00515097 1.185 31 46 18
0.262781 -0.00515097 1.185 32 47 19
0.264398 -0.00514662 1.184 33 48 22
0.266011 -0.00514228 1.183 32 47 21
0.267622 -0.00513793 1.182 32 47 21
0.26923 -0.00513358 1.181 32 47 21
0.273129 -0.00513793 1.182 30 48 21
0.274965 -0.00513793 1.182 31 49 22
0.276801 -0.00513793 1.182 32 50 23
0.278636 -0.00513793 1.182 32 50 23
0.280947 -0.00514662 1.184 30 48 21
0.282785 -0.00514662 1.184 27 45 18
0.284865 -0.00515097 1.185 32 50 23
0.286947 -0.00515532 1.186 32 50 23
0.289032 -0.00515967 1.187 32 50 23
0.290876 -0.00515967 1.187 32 50 23
0.292966 -0.00516401 1.188 32 50 23
0.295059 -0.00516836 1.189 32 50 23
0.296656 -0.00516401 1.188 31 49 22
0.298501 -0.00516401 1.188 31 49 22
0.300346 -0.00516401 1.188 31 49 22
0.302191 -0.00516401 1.188 31 49 22
0.304036 -0.00516401 1.188 30 48 21
0.305623 -0.00515967 1.187 32 50 23
0.307467 -0.00515967 1.187 30 48 21
0.30931 -0.00515967 1.187 29 47 20
0.310892 -0.00515532 1.186 30 48 21
0.312997 -0.00515967 1.187 31 49 20
0.314841 -0.00515967 1.187 31 49 20
0.316684 -0.00515967 1.187 32 50 21
0.318528 -0.00515967 1.187 41 59 30
0.320641 -0.00516401 1.188 43 61 32
0.322757 -0.00516836 1.189 38 56 27
0.324877 -0.00517271 1.19 38 56 27
0.327274 -0.0051814 1.192 36 54 25
0.329401 -0.00518575 1.193 34 52 25
0.33181 -0.00519444 1.195 39 57 30
0.333945 -0.00519879 1.196 41 59 32
0.336083 -0.00520313 1.197 39 57 30
0.338507 -0.00521183 1.199 39 57 28
0.340652 -0.00521617 1.2 39 57 28
0.342516 -0.00521617 1.2 40 58 29
0.34438 -0.00521617 1.2 41 59 30
0.346532 -0.00522052 1.201 41 59 30
0.348107 -0.00521617 1.2 40 58 29
0.349971 -0.00521617 1.2 43 61 34
0.351834 -0.00521617 1.2 43 61 34
0.353403 -0.00521183 1.199 45 62 37
0.354969 -0.00520748 1.198 41 58 33
0.356532 -0.00520313 1.197 40 56 34
0.358091 -0.00519879 1.196 41 57 35
0.359347 -0.00519009 1.194 41 54 41
0.360596 -0.0051814 1.192 29 42 29
0.361839 -0.00517271 1.19 27 38 30
0.363382 -0.00516836 1.189 48 59 51
0.364 -0.00515097 1.185 33 44 36
0.364914 -0.00513793 1.182 24 35 27
0.363957 -0.00509881 1.173 25 35 30
0.359452 -0.00498579 1.147 119 129 124
0.358714 -0.00495102 1.139 147 157 152
0.358901 -0.00492928 1.134 155 162 158
0.360662 -0.00492928 1.134 164 171 167
0.361784 -0.00492059 1.132 164 173 172
0.363542 -0.00492059 1.132 107 116 115
0.366913 -0.00494232 1.137 93 99 106
0.370949 -0.00497275 1.144 94 100 107
-0.146826 -0.00292594 1.048 50 43 128
-0.14506 -0.00292315 1.047 33 26 111
-0.143434 -0.00292315 1.047 29 15 121
-0.141808 -0.00292315 1.047 26 12 118
-0.140182 -0.00292315 1.047 50 34 133
-0.138556 -0.00292315 1.047 128 112 211
-0.13693 -0.00292315 1.047 201 195 243
-0.135175 -0.00292036 1.046 184 178 226
-0.13355 -0.00292036 1.046 169 174 190
-0.131926 -0.00292036 1.046 178 183 199
-0.130301 -0.00292036 1.046 183 189 203
-0.128677 -0.00292036 1.046 158 164 178
-0.127174 -0.00292315 1.047 163 167 193
-0.125548 -0.00292315 1.047 191 195 221
-0.123922 -0.00292315 1.047 167 158 236
-0.122296 -0.00292315 1.047 62 53 131
-0.12067 -0.00292315 1.047 30 4 151
-0.119157 -0.00292594 1.048 38 12 159
-0.11753 -0.00292594 1.048 32 2 188
-0.115902 -0.00292594 1.048 31 1 187
-0.114165 -0.00292315 1.047 26 2 192
-0.112539 -0.00292315 1.047 26 2 192
-0.110807 -0.00292036 1.046 26 2 192
-0.109079 -0.00291757 1.045 23 0 189
-0.107353 -0.00291478 1.044 39 14 206
-0.105731 -0.00291478 1.044 40 15 207
-0.10401 -0.00291198 1.043 24 0 189
-0.102391 -0.00291198 1.043 27 0 192
-0.100771 -0.00291198 1.043 27 2 189
-0.099151 -0.00291198 1.043 26 1 188
-0.0976247 -0.00291478 1.044 27 2 189
-0.0960033 -0.00291478 1.044 27 2 189
-0.0943819 -0.00291478 1.044 25 2 189
-0.0927606 -0.00291478 1.044 24 1 188
-0.0911392 -0.00291478 1.044 24 1 188
-0.0895178 -0.00291478 1.044 24 1 188
-0.0878964 -0.00291478 1.044 25 2 189
-0.0862751 -0.00291478 1.044 25 2 189
-0.0846537 -0.00291478 1.044 29 8 188
-0.0829528 -0.00291198 1.043 34 13 193
-0.081333 -0.00291198 1.043 22 5 153
-0.0797132 -0.00291198 1.043 14 0 145
-0.0780934 -0.00291198 1.043 20 6 107
-0.0765469 -0.00291478 1.044 36 22 123
-0.0749255 -0.00291478 1.044 186 180 228
-0.0733041 -0.00291478 1.044 244 238 255
-0.0717514 -0.00291757 1.045 245 253 255
-0.0701956 -0.00292036 1.046 245 253 255
-0.0685711 -0.00292036 1.046 247 255 254
-0.0669467 -0.00292036 1.046 247 255 254
-0.0653222 -0.00292036 1.046 253 253 253
-0.0636977 -0.00292036 1.046 239 239 239
-0.0620733 -0.00292036 1.046 239 239 239
-0.0604488 -0.00292036 1.046 245 245 245
-0.0588243 -0.00292036 1.046 246 246 246
-0.0571998 -0.00292036 1.046 250 250 250
-0.0555754 -0.00292036 1.046 254 254 254
-0.0539509 -0.00292036 1.046 253 253 253
-0.0523264 -0.00292036 1.046 247 243 244
-0.0507019 -0.00292036 1.046 235 231 232
-0.0490775 -0.00292036 1.046 240 236 237
-0.0474076 -0.00291757 1.045 255 251 252
-0.0457847 -0.00291757 1.045 255 249 251
-0.0441618 -0.00291757 1.045 246 239 241
-0.0425389 -0.00291757 1.045 245 238 240
-0.0408768 -0.00291478 1.044 243 236 238
-0.0392554 -0.00291478 1.044 243 236 238
-0.037598 -0.00291198 1.043 237 230 232
-0.0359782 -0.00291198 1.043 239 232 233
-0.0343584 -0.00291198 1.043 248 241 242
-0.0327072 -0.00290919 1.042 250 243 244
-0.0310889 -0.00290919 1.042 251 244 245
-0.0294424 -0.0029064 1.041 250 243 244
-0.0278524 -0.00290919 1.042 250 243 244
-0.0262341 -0.00290919 1.042 250 243 244
-0.0246159 -0.00290919 1.042 249 242 243
-0.0230197 -0.00291198 1.043 250 243 244
-0.0214204 -0.00291478 1.044 251 244 245
-0.019799 -0.00291478 1.044 250 243 244
-0.0181951 -0.00291757 1.045 249 242 243
-0.016588 -0.00292036 1.046 251 244 245
-0.0149635 -0.00292036 1.046 251 244 245
-0.0133518 -0.00292315 1.047 251 244 245
-0.011737 -0.00292594 1.048 249 242 243
-0.0101094 -0.00292594 1.048 250 246 246
-0.00848181 -0.00292594 1.048 253 249 249
-0.00685423 -0.00292594 1.048 252 250 250
-0.00522665 -0.00292594 1.048 251 249 249
-0.00359907 -0.00292594 1.048 255 253 253
-0.00197337 -0.00292874 1.049 255 254 254
-0.000343914 -0.00292594 1.048 255 253 253
0.00128367 -0.00292594 1.048 245 243 243
0.00291125 -0.00292594 1.048 246 244 244
0.00453883 -0.00292594 1.048 255 254 254
0.00616641 -0.00292594 1.048 255 254 254
0.00779398 -0.00292594 1.048 255 254 254
0.00943055 -0.00292874 1.049 254 254 254
0.0110597 -0.00292874 1.049 254 254 254
0.0126888 -0.00292874 1.049 254 254 254
0.0143043 -0.00292594 1.048 254 254 254
0.0159319 -0.00292594 1.048 254 254 254
0.0175595 -0.00292594 1.048 253 253 253
0.0191687 -0.00292315 1.047 251 255 254
0.0207749 -0.00292036 1.046 251 255 254
0.022378 -0.00291757 1.045 249 251 255
0.0239779 -0.00291478 1.044 248 250 255
0.0255993 -0.00291478 1.044 229 221 255
0.0272206 -0.00291478 1.044 94 86 134
0.028842 -0.00291478 1.044 49 31 135
0.0304342 -0.00291198 1.043 39 21 125
0.0320848 -0.00291478 1.044 37 11 158
0.0337384 -0.00291757 1.045 36 10 157
0.0353952 -0.00292036 1.046 34 3 173
0.0370196 -0.00292036 1.046 34 3 173
0.0386441 -0.00292036 1.046 34 2 175
0.0402686 -0.00292036 1.046 34 2 175
0.0418931 -0.00292036 1.046 32 1 171
0.0435175 -0.00292036 1.046 32 1 171
0.045142 -0.00292036 1.046 34 5 170
0.0467665 -0.00292036 1.046 36 7 172
0.048391 -0.00292036 1.046 36 14 149
0.0500632 -0.00292315 1.047 31 9 144
0.0516893 -0.00292315 1.047 54 43 126
0.0533153 -0.00292315 1.047 110 99 182
0.0549938 -0.00292594 1.048 199 198 238
0.0566214 -0.00292594 1.048 195 194 234
0.058249 -0.00292594 1.048 185 190 211
0.0598765 -0.00292594 1.048 182 187 208
0.0615041 -0.00292594 1.048 192 197 213
0.0631317 -0.00292594 1.048 215 220 236
0.0646975 -0.00292315 1.047 220 223 244
0.0663235 -0.00292315 1.047 138 141 162
0.0678846 -0.00292036 1.046 96 92 135
0.0695091 -0.00292036 1.046 53 49 92
0.0711336 -0.00292036 1.046 37 24 107
0.0726885 -0.00291757 1.045 45 32 115
0.0743114 -0.00291757 1.045 51 30 151
0.0758617 -0.00291478 1.044 58 37 158
0.077483 -0.00291478 1.044 57 40 169
0.0790286 -0.00291198 1.043 63 46 175
0.0806485 -0.00291198 1.043 63 44 178
0.0822683 -0.00291198 1.043 61 42 176
0.0838881 -0.00291198 1.043 51 36 165
0.0855899 -0.00291478 1.044 36 21 150
0.0872112 -0.00291478 1.044 50 34 160
0.0888326 -0.00291478 1.044 54 38 164
0.090454 -0.00291478 1.044 89 83 185
0.0922517 -0.00292036 1.046 133 127 229
0.0938762 -0.00292036 1.046 176 170 255
0.0955007 -0.00292036 1.046 135 129 231
0.0971252 -0.00292036 1.046 48 50 110
0.0987496 -0.00292036 1.046 26 28 88
0.124228 -0.00329448 1.18 44 66 39
0.126274 -0.00330006 1.182 44 66 39
0.12811 -0.00330006 1.182 43 65 36
0.130166 -0.00330565 1.184 49 71 42
0.132116 -0.00330844 1.185 48 71 39
0.134182 -0.00331402 1.187 46 69 37
0.13614 -0.00331681 1.188 46 70 36
0.137985 -0.00331681 1.188 44 68 34
0.139948 -0.00331961 1.189 46 71 34
0.141795 -0.00331961 1.189 46 71 34
0.143641 -0.00331961 1.189 47 72 35
0.145365 -0.00331681 1.188 48 73 36
0.147087 -0.00331402 1.187 48 73 36
0.14893 -0.00331402 1.187 48 73 36
0.150646 -0.00331123 1.186 49 75 36
0.15236 -0.00330844 1.185 48 74 35
0.1542 -0.00330844 1.185 53 79 40
0.155909 -0.00330565 1.184 55 81 42
0.157614 -0.00330286 1.183 53 79 40
0.159317 -0.00330006 1.182 55 81 42
0.161153 -0.00330006 1.182 53 79 40
0.16285 -0.00329727 1.181 54 80 41
0.164824 -0.00330006 1.182 59 83 44
0.16666 -0.00330006 1.182 59 83 44
0.16878 -0.00330565 1.184 59 83 44
0.170763 -0.00330844 1.185 59 83 44
0.172749 -0.00331123 1.186 62 86 47
0.174886 -0.00331681 1.188 63 87 48
0.176879 -0.00331961 1.189 62 86 47
0.179027 -0.00332519 1.191 62 86 47
0.181028 -0.00332798 1.192 62 86 47
0.182879 -0.00332798 1.192 62 86 47
0.18473 -0.00332798 1.192 62 86 45
0.186582 -0.00332798 1.192 62 86 45
0.188433 -0.00332798 1.192 63 87 46
0.190125 -0.00332519 1.191 63 87 46
0.191813 -0.0033224 1.19 63 87 46
0.193661 -0.0033224 1.19 64 88 47
0.195509 -0.0033224 1.19 63 87 46
0.197026 -0.00331681 1.188 62 86 45
0.198871 -0.00331681 1.188 63 87 46
0.200716 -0.00331681 1.188 64 88 47
0.202731 -0.00331961 1.189 63 87 46
0.20475 -0.0033224 1.19 63 87 46
0.206598 -0.0033224 1.19 60 84 43
0.208621 -0.00332519 1.191 63 87 46
0.210648 -0.00332798 1.192 62 86 45
0.212499 -0.00332798 1.192 63 87 46
0.21453 -0.00333077 1.193 63 87 46
0.216383 -0.00333077 1.193 60 84 43
0.218418 -0.00333357 1.194 60 84 43
0.220273 -0.00333357 1.194 62 86 45
0.222127 -0.00333357 1.194 62 86 45
0.223981 -0.00333357 1.194 60 84 43
0.225836 -0.00333357 1.194 58 82 41
0.227499 -0.00333077 1.193 56 80 39
0.22916 -0.00332798 1.192 53 77 36
0.231011 -0.00332798 1.192 50 74 33
0.232862 -0.00332798 1.192 53 75 34
0.234516 -0.00332519 1.191 53 75 34
0.236168 -0.0033224 1.19 48 70 29
0.238016 -0.0033224 1.19 47 69 28
0.239662 -0.00331961 1.189 48 67 27
0.241306 -0.00331681 1.188 53 72 32
0.243151 -0.00331681 1.188 42 60 24
0.244996 -0.00331681 1.188 35 53 17
0.246841 -0.00331681 1.188 36 54 18
0.248686 -0.00331681 1.188 33 51 15
0.250531 -0.00331681 1.188 32 48 17
0.252163 -0.00331402 1.187 31 47 16
0.254007 -0.00331402 1.187 30 48 19
0.25585 -0.00331402 1.187 31 49 20
0.257477 -0.00331123 1.186 30 48 19
0.2591 -0.00330844 1.185 29 47 18
0.26094 -0.00330844 1.185 30 48 19
0.262559 -0.00330565 1.184 31 49 20
0.264398 -0.00330565 1.184 31 49 22
0.266011 -0.00330286 1.183 31 49 22
0.267622 -0.00330006 1.182 30 48 21
0.26923 -0.00329727 1.181 31 49 22
0.271064 -0.00329727 1.181 31 49 22
0.272898 -0.00329727 1.181 32 50 23
0.276801 -0.00330006 1.182 30 48 21
0.278636 -0.00330006 1.182 31 49 22
0.282547 -0.00330286 1.183 29 47 20
0.284624 -0.00330565 1.184 32 50 23
0.286463 -0.00330565 1.184 31 49 22
0.288545 -0.00330844 1.185 33 51 24
0.290631 -0.00331123 1.186 32 50 23
0.292719 -0.00331402 1.187 32 50 23
0.294563 -0.00331402 1.187 32 50 23
0.296406 -0.00331402 1.187 31 49 22
0.29825 -0.00331402 1.187 31 49 22
0.300093 -0.00331402 1.187 31 49 22
0.301937 -0.00331402 1.187 31 49 22
0.30378 -0.00331402 1.187 30 48 21
0.305366 -0.00331123 1.186 31 49 22
0.307208 -0.00331123 1.186 30 48 21
0.308789 -0.00330844 1.185 30 48 21
0.310629 -0.00330844 1.185 31 49 22
0.312734 -0.00331123 1.186 31 49 20
0.31431 -0.00330844 1.185 31 49 20
0.316417 -0.00331123 1.186 31 49 20
0.318528 -0.00331402 1.187 32 50 21
0.320371 -0.00331402 1.187 36 54 25
0.322486 -0.00331681 1.188 38 56 27
0.324877 -0.0033224 1.19 37 55 26
0.327 -0.00332519 1.191 34 52 23
0.329125 -0.00332798 1.192 30 48 19
0.331532 -0.00333357 1.194 32 50 21
0.333665 -0.00333636 1.195 41 59 30
0.336083 -0.00334194 1.197 39 57 28
0.338224 -0.00334473 1.198 39 57 28
0.340369 -0.00334753 1.199 39 57 28
0.342516 -0.00335032 1.2 40 58 29
0.34438 -0.00335032 1.2 47 65 36
0.346243 -0.00335032 1.2 44 62 33
0.348107 -0.00335032 1.2 38 56 27
0.349971 -0.00335032 1.2 36 54 27
0.351834 -0.00335032 1.2 43 61 34
0.353108 -0.00334473 1.198 45 62 37
0.354673 -0.00334194 1.197 43 60 35
0.356234 -0.00333915 1.196 43 59 37
0.357792 -0.00333636 1.195 47 63 41
0.358745 -0.00332798 1.192 41 54 41
0.360294 -0.00332519 1.191 27 40 27
0.361535 -0.00331961 1.189 29 41 31
0.362159 -0.00330844 1.185 51 63 53
0.363385 -0.00330286 1.183 31 41 36
0.364296 -0.00329448 1.18 24 34 29
0.363647 -0.00327214 1.172 24 35 27
0.359452 -0.00320235 1.147 121 131 126
0.359029 -0.0031828 1.14 148 158 153
0.358901 -0.00316605 1.134 152 162 157
0.360662 -0.00316605 1.134 166 176 171
0.361784 -0.00316047 1.132 166 175 174
0.363542 -0.00316047 1.132 107 116 115
0.367236 -0.00317722 1.138 95 102 106
0.370949 -0.00319397 1.144 94 101 105
-0.146826 -0.00129643 1.048 64 57 136
-0.145199 -0.00129643 1.048 64 57 136
-0.143434 -0.00129519 1.047 64 52 153
-0.141808 -0.00129519 1.047 33 21 122
-0.140182 -0.00129519 1.047 47 33 120
-0.138556 -0.00129519 1.047 126 112 199
-0.13693 -0.00129519 1.047 200 195 240
-0.135175 -0.00129396 1.046 181 176 221
-0.13355 -0.00129396 1.046 165 170 186
-0.131926 -0.00129396 1.046 180 185 201
-0.130301 -0.00129396 1.046 180 186 200
-0.128677 -0.00129396 1.046 159 165 179
-0.127052 -0.00129396 1.046 162 167 190
-0.125548 -0.00129519 1.047 189 194 217
-0.123922 -0.00129519 1.047 170 162 236
-0.122296 -0.00129519 1.047 66 58 132
-0.12067 -0.00129519 1.047 27 1 148
-0.119157 -0.00129643 1.048 34 8 155
-0.11753 -0.00129643 1.048 31 2 186
-0.115791 -0.00129519 1.047 31 2 186
-0.114165 -0.00129519 1.047 28 3 190
-0.112432 -0.00129396 1.046 28 3 190
-0.110702 -0.00129272 1.045 28 2 192
-0.108974 -0.00129148 1.044 25 0 189
-0.107353 -0.00129148 1.044 42 17 209
-0.10563 -0.00129025 1.043 42 17 209
-0.10401 -0.00129025 1.043 24 0 189
-0.102391 -0.00129025 1.043 27 0 192
-0.100674 -0.00128901 1.042 25 2 189
-0.099151 -0.00129025 1.043 25 2 189
-0.0975311 -0.00129025 1.043 27 4 191
-0.0959113 -0.00129025 1.043 26 3 190
-0.0943819 -0.00129148 1.044 26 3 190
-0.0927606 -0.00129148 1.044 25 2 189
-0.0911392 -0.00129148 1.044 24 1 188
-0.0895178 -0.00129148 1.044 24 1 188
-0.0878964 -0.00129148 1.044 26 3 188
-0.0862751 -0.00129148 1.044 26 3 188
-0.0845726 -0.00129025 1.043 29 9 187
-0.0829528 -0.00129025 1.043 36 16 194
-0.081333 -0.00129025 1.043 20 1 149
-0.0797132 -0.00129025 1.043 16 0 145
-0.0780934 -0.00129025 1.043 23 6 108
-0.0765469 -0.00129148 1.044 39 22 124
-0.0749255 -0.00129148 1.044 201 189 235
-0.0733744 -0.00129272 1.045 250 238 255
-0.0717514 -0.00129272 1.045 249 253 255
-0.0701956 -0.00129396 1.046 249 253 255
-0.0685711 -0.00129396 1.046 251 255 254
-0.0670107 -0.00129519 1.047 251 255 254
-0.0653847 -0.00129519 1.047 251 255 254
-0.0637586 -0.00129519 1.047 244 248 247
-0.0621326 -0.00129519 1.047 243 243 243
-0.0604488 -0.00129396 1.046 253 253 253
-0.0588243 -0.00129396 1.046 254 254 254
-0.0571998 -0.00129396 1.046 254 254 254
-0.0555754 -0.00129396 1.046 255 254 254
-0.0539509 -0.00129396 1.046 254 252 252
-0.0523264 -0.00129396 1.046 239 232 234
-0.0507019 -0.00129396 1.046 239 232 234
-0.0490775 -0.00129396 1.046 245 238 240
-0.0474076 -0.00129272 1.045 253 246 248
-0.0457847 -0.00129272 1.045 246 239 241
-0.044204 -0.00129396 1.046 243 236 238
-0.0425389 -0.00129272 1.045 244 237 239
-0.0409159 -0.00129272 1.045 243 236 238
-0.0392554 -0.00129148 1.044 242 235 237
-0.037598 -0.00129025 1.043 243 236 238
-0.0359782 -0.00129025 1.043 238 231 232
-0.0343584 -0.00129025 1.043 248 241 242
-0.0327386 -0.00129025 1.043 251 244 245
-0.0310889 -0.00128901 1.042 249 242 243
-0.0294707 -0.00128901 1.042 248 241 242
-0.0278257 -0.00128777 1.041 249 242 243
-0.026209 -0.00128777 1.041 248 241 242
-0.0246159 -0.00128901 1.042 249 242 243
-0.0230197 -0.00129025 1.043 249 242 243
-0.0214204 -0.00129148 1.044 251 244 245
-0.019818 -0.00129272 1.045 250 243 244
-0.0182125 -0.00129396 1.046 250 243 244
-0.016588 -0.00129396 1.046 251 244 245
-0.0149778 -0.00129519 1.047 252 245 246
-0.0133518 -0.00129519 1.047 253 246 247
-0.011737 -0.00129643 1.048 251 244 245
-0.0101094 -0.00129643 1.048 249 245 245
-0.00848181 -0.00129643 1.048 254 250 250
-0.00685423 -0.00129643 1.048 255 253 253
-0.00522665 -0.00129643 1.048 252 250 250
-0.00359907 -0.00129643 1.048 254 254 254
-0.00197149 -0.00129643 1.048 254 254 254
-0.000343914 -0.00129643 1.048 253 253 253
0.00128367 -0.00129643 1.048 246 246 246
0.00291125 -0.00129643 1.048 244 244 244
0.00453883 -0.00129643 1.048 254 254 254
0.00616641 -0.00129643 1.048 254 254 254
0.00779398 -0.00129643 1.048 252 252 252
0.00942156 -0.00129643 1.048 246 246 246
0.0110491 -0.00129643 1.048 250 250 250
0.0126767 -0.00129643 1.048 250 250 250
0.0143043 -0.00129643 1.048 250 250 250
0.0159319 -0.00129643 1.048 250 250 250
0.0175595 -0.00129643 1.048 253 253 253
0.0191687 -0.00129519 1.047 251 255 254
0.0207749 -0.00129396 1.046 251 255 254
0.0223994 -0.00129396 1.046 249 251 255
0.0239779 -0.00129148 1.044 249 251 255
0.0255993 -0.00129148 1.044 232 228 255
0.0272206 -0.00129148 1.044 100 96 132
0.028842 -0.00129148 1.044 60 42 133
0.0304634 -0.00129148 1.044 48 30 121
0.0321155 -0.00129272 1.045 37 14 141
0.0337707 -0.00129396 1.046 41 18 145
0.0353952 -0.00129396 1.046 41 12 162
0.0370196 -0.00129396 1.046 39 10 160
0.0386441 -0.00129396 1.046 36 8 155
0.0403071 -0.00129519 1.047 40 12 159
0.0418931 -0.00129396 1.046 45 18 163
0.0435175 -0.00129396 1.046 47 20 165
0.045142 -0.00129396 1.046 50 28 158
0.0467665 -0.00129396 1.046 52 30 160
0.048391 -0.00129396 1.046 56 39 148
0.0500154 -0.00129396 1.046 59 42 151
0.0516893 -0.00129519 1.047 70 65 126
0.0533153 -0.00129519 1.047 145 140 201
0.0549413 -0.00129519 1.047 195 200 230
0.0565673 -0.00129519 1.047 193 198 228
0.058249 -0.00129643 1.048 191 200 218
0.0598765 -0.00129643 1.048 180 189 207
0.0615041 -0.00129643 1.048 199 204 220
0.0630715 -0.00129519 1.047 214 219 235
0.0646975 -0.00129519 1.047 214 219 235
0.0663235 -0.00129519 1.047 136 141 157
0.0678846 -0.00129396 1.046 103 103 134
0.0695091 -0.00129396 1.046 96 96 127
0.0711336 -0.00129396 1.046 79 75 123
0.0726885 -0.00129272 1.045 128 124 172
0.0743114 -0.00129272 1.045 161 151 225
0.0758617 -0.00129148 1.044 162 152 226
0.077483 -0.00129148 1.044 160 157 230
0.0790286 -0.00129025 1.043 178 175 248
0.0806485 -0.00129025 1.043 189 184 255
0.0822683 -0.00129025 1.043 177 172 251
0.0839685 -0.00129148 1.044 155 154 228
0.0855899 -0.00129148 1.044 141 140 214
0.0872112 -0.00129148 1.044 158 156 233
0.0888326 -0.00129148 1.044 183 181 255
0.090454 -0.00129148 1.044 201 211 255
0.0922517 -0.00129396 1.046 222 232 255
0.0938762 -0.00129396 1.046 226 231 255
0.0955007 -0.00129396 1.046 185 190 255
0.0971252 -0.00129396 1.046 57 70 96
0.098844 -0.00129519 1.047 26 39 65
0.122396 -0.00145972 1.18 43 63 41
0.124334 -0.00146096 1.181 43 64 39
0.126274 -0.0014622 1.182 43 64 39
0.128219 -0.00146343 1.183 42 64 37
0.130166 -0.00146467 1.184 44 66 39
0.132116 -0.00146591 1.185 47 70 38
0.134182 -0.00146838 1.187 46 69 37
0.136026 -0.00146838 1.187 43 67 33
0.137985 -0.00146962 1.188 43 67 33
0.139948 -0.00147085 1.189 43 68 31
0.141795 -0.00147085 1.189 46 71 34
0.143641 -0.00147085 1.189 48 73 36
0.145365 -0.00146962 1.188 48 73 36
0.147211 -0.00146962 1.188 48 73 36
0.14893 -0.00146838 1.187 48 73 36
0.150646 -0.00146714 1.186 48 74 35
0.15236 -0.00146591 1.185 49 75 36
0.1542 -0.00146591 1.185 53 79 40
0.155909 -0.00146467 1.184 54 80 41
0.157614 -0.00146343 1.183 53 79 40
0.159317 -0.0014622 1.182 55 81 42
0.161153 -0.0014622 1.182 54 80 39
0.162988 -0.0014622 1.182 54 80 39
0.164824 -0.0014622 1.182 57 83 42
0.166801 -0.00146343 1.183 58 84 43
0.16878 -0.00146467 1.184 58 84 43
0.170763 -0.00146591 1.185 58 84 43
0.172895 -0.00146838 1.187 60 84 43
0.175033 -0.00147085 1.189 63 87 46
0.177028 -0.00147209 1.19 63 87 46
0.179177 -0.00147457 1.192 63 87 46
0.18118 -0.0014758 1.193 62 86 45
0.183033 -0.0014758 1.193 62 86 45
0.18504 -0.00147704 1.194 62 86 45
0.186895 -0.00147704 1.194 63 87 46
0.188749 -0.00147704 1.194 63 87 46
0.190284 -0.00147457 1.192 63 87 46
0.192135 -0.00147457 1.192 64 88 47
0.193987 -0.00147457 1.192 64 88 47
0.195673 -0.00147333 1.191 65 89 48
0.197357 -0.00147209 1.19 63 87 46
0.199205 -0.00147209 1.19 63 87 46
0.201054 -0.00147209 1.19 64 88 47
0.203072 -0.00147333 1.191 63 87 46
0.204922 -0.00147333 1.191 63 87 46
0.206945 -0.00147457 1.192 60 84 43
0.208796 -0.00147457 1.192 62 86 45
0.210648 -0.00147457 1.192 60 84 43
0.212855 -0.00147704 1.194 64 88 47
0.21471 -0.00147704 1.194 64 88 47
0.216564 -0.00147704 1.194 59 83 42
0.218418 -0.00147704 1.194 60 84 43
0.220273 -0.00147704 1.194 60 84 43
0.222127 -0.00147704 1.194 62 86 45
0.223981 -0.00147704 1.194 60 84 43
0.225836 -0.00147704 1.194 53 77 36
0.227499 -0.0014758 1.193 56 80 39
0.22916 -0.00147457 1.192 58 81 37
0.231011 -0.00147457 1.192 54 77 33
0.232667 -0.00147333 1.191 50 73 29
0.23432 -0.00147209 1.19 48 71 27
0.236168 -0.00147209 1.19 48 68 25
0.237816 -0.00147085 1.189 49 69 26
0.239461 -0.00146962 1.188 47 66 26
0.241103 -0.00146838 1.187 46 65 25
0.242946 -0.00146838 1.187 40 58 22
0.24479 -0.00146838 1.187 35 53 17
0.246633 -0.00146838 1.187 36 54 18
0.248476 -0.00146838 1.187 35 53 17
0.25032 -0.00146838 1.187 34 50 19
0.252163 -0.00146838 1.187 32 48 17
0.254007 -0.00146838 1.187 33 48 20
0.25585 -0.00146838 1.187 33 48 20
0.257477 -0.00146714 1.186 31 49 20
0.2591 -0.00146591 1.185 30 48 19
0.26094 -0.00146591 1.185 32 50 21
0.262559 -0.00146467 1.184 31 49 20
0.264174 -0.00146343 1.183 32 50 23
0.266011 -0.00146343 1.183 31 49 22
0.267622 -0.0014622 1.182 30 48 21
0.26923 -0.00146096 1.181 31 49 22
0.271064 -0.00146096 1.181 30 48 21
0.272898 -0.00146096 1.181 31 49 22
0.274732 -0.00146096 1.181 32 50 23
0.276567 -0.00146096 1.181 30 48 21
0.280472 -0.0014622 1.182 32 50 23
0.282308 -0.0014622 1.182 30 48 21
0.284143 -0.0014622 1.182 32 50 23
0.288058 -0.00146343 1.183 32 50 23
0.289896 -0.00146343 1.183 31 49 22
0.291979 -0.00146467 1.184 31 49 22
0.294066 -0.00146591 1.185 32 50 23
0.295907 -0.00146591 1.185 32 50 23
0.297747 -0.00146591 1.185 32 50 23
0.299587 -0.00146591 1.185 31 49 22
0.301428 -0.00146591 1.185 33 51 24
0.303268 -0.00146591 1.185 32 50 23
0.304851 -0.00146467 1.184 32 50 21
0.30669 -0.00146467 1.184 31 49 20
0.308529 -0.00146467 1.184 30 48 19
0.310367 -0.00146467 1.184 30 48 19
0.312206 -0.00146467 1.184 30 48 19
0.314045 -0.00146467 1.184 32 50 21
0.316151 -0.00146591 1.185 30 48 19
0.317991 -0.00146591 1.185 26 44 15
0.320101 -0.00146714 1.186 30 48 19
0.322214 -0.00146838 1.187 33 51 22
0.324331 -0.00146962 1.188 36 54 25
0.326725 -0.00147209 1.19 37 55 26
0.328849 -0.00147333 1.191 36 54 25
0.330977 -0.00147457 1.192 37 55 26
0.333386 -0.00147704 1.194 41 59 30
0.335521 -0.00147828 1.195 39 57 28
0.33766 -0.00147951 1.196 46 64 35
0.339801 -0.00148075 1.197 41 59 30
0.34166 -0.00148075 1.197 41 59 30
0.343806 -0.00148199 1.198 44 62 33
0.345666 -0.00148199 1.198 43 61 34
0.347527 -0.00148199 1.198 37 55 28
0.349387 -0.00148199 1.198 34 52 25
0.350955 -0.00148075 1.197 41 59 32
0.352519 -0.00147951 1.196 45 62 37
0.35408 -0.00147828 1.195 44 61 36
0.355638 -0.00147704 1.194 44 60 38
0.356894 -0.00147457 1.192 48 64 42
0.358444 -0.00147333 1.191 39 52 39
0.359689 -0.00147085 1.189 26 39 26
0.360319 -0.00146591 1.185 30 42 32
0.361548 -0.00146343 1.183 53 65 55
0.362771 -0.00146096 1.181 25 35 30
0.363679 -0.00145725 1.178 24 34 29
0.363336 -0.00144859 1.171 23 34 26
0.362273 -0.00143003 1.156 125 133 126
0.359659 -0.00141271 1.142 150 158 151
0.359534 -0.00140529 1.136 147 155 148
0.36098 -0.00140405 1.135 167 175 168
0.362103 -0.00140158 1.133 168 177 176
0.363863 -0.00140158 1.133 112 121 120
0.367236 -0.00140777 1.138 97 103 110
0.371273 -0.00141642 1.145 95 101 108
-0.146826 0.000333084 1.048 53 50 124
-0.145199 0.000333084 1.048 70 67 141
-0.143434 0.000332766 1.047 64 52 153
-0.141808 0.000332766 1.047 36 24 125
-0.140182 0.000332766 1.047 42 27 117
-0.138556 0.000332766 1.047 120 105 195
-0.136799 0.000332448 1.046 200 194 242
-0.135175 0.000332448 1.046 180 174 222
-0.13355 0.000332448 1.046 167 171 190
-0.131926 0.000332448 1.046 183 187 206
-0.130301 0.000332448 1.046 179 185 199
-0.128677 0.000332448 1.046 160 166 180
-0.127052 0.000332448 1.046 162 167 190
-0.125548 0.000332766 1.047 189 194 217
-0.123922 0.000332766 1.047 174 164 238
-0.122296 0.000332766 1.047 71 61 135
-0.120785 0.000333084 1.048 29 2 147
-0.119157 0.000333084 1.048 35 8 153
-0.11753 0.000333084 1.048 34 3 187
-0.115791 0.000332766 1.047 34 3 187
-0.114165 0.000332766 1.047 28 3 190
-0.112432 0.000332448 1.046 28 3 190
-0.110596 0.000331812 1.044 29 3 193
-0.108974 0.000331812 1.044 27 1 191
-0.10725 0.000331495 1.043 46 19 211
-0.10563 0.000331495 1.043 48 21 213
-0.103911 0.000331177 1.042 27 0 190
-0.102292 0.000331177 1.042 23 0 186
-0.100674 0.000331177 1.042 26 1 188
-0.0990559 0.000331177 1.042 27 2 189
-0.0975311 0.000331495 1.043 29 4 191
-0.0960033 0.000331812 1.044 28 3 190
-0.0943819 0.000331812 1.044 28 3 190
-0.0927606 0.000331812 1.044 28 3 190
-0.0911392 0.000331812 1.044 27 2 189
-0.0895178 0.000331812 1.044 27 2 189
-0.0878964 0.000331812 1.044 28 3 188
-0.0862751 0.000331812 1.044 31 6 191
-0.0846537 0.000331812 1.044 38 14 190
-0.0830323 0.000331812 1.044 40 16 192
-0.081333 0.000331495 1.043 23 1 145
-0.0797132 0.000331495 1.043 18 0 140
-0.0780934 0.000331495 1.043 26 8 106
-0.0764736 0.000331495 1.043 45 27 125
-0.0749255 0.000331812 1.044 203 199 237
-0.0734446 0.000332448 1.046 246 242 255
-0.0718201 0.000332448 1.046 249 254 255
-0.0701956 0.000332448 1.046 249 254 255
-0.0685711 0.000332448 1.046 249 255 254
-0.0670107 0.000332766 1.047 249 255 254
-0.0653847 0.000332766 1.047 251 255 254
-0.0637586 0.000332766 1.047 251 255 254
-0.0621326 0.000332766 1.047 251 255 254
-0.0605066 0.000332766 1.047 251 255 254
-0.0588243 0.000332448 1.046 251 255 252
-0.0571998 0.000332448 1.046 251 255 252
-0.0555754 0.000332448 1.046 255 253 253
-0.0539509 0.000332448 1.046 247 243 243
-0.0523264 0.000332448 1.046 241 234 236
-0.0507019 0.000332448 1.046 245 238 240
-0.0490775 0.000332448 1.046 246 239 241
-0.047453 0.000332448 1.046 249 242 244
-0.0458285 0.000332448 1.046 246 239 241
-0.044204 0.000332448 1.046 242 235 237
-0.0425796 0.000332448 1.046 241 234 236
-0.0409159 0.00033213 1.045 241 234 236
-0.0392554 0.000331812 1.044 242 234 239
-0.0376341 0.000331812 1.044 243 235 240
-0.0359782 0.000331495 1.043 239 232 233
-0.0343584 0.000331495 1.043 248 241 242
-0.0327386 0.000331495 1.043 249 242 243
-0.0310889 0.000331177 1.042 248 241 242
-0.0294707 0.000331177 1.042 248 241 242
-0.0278524 0.000331177 1.042 251 244 245
-0.0262341 0.000331177 1.042 249 242 243
-0.0246159 0.000331177 1.042 249 242 243
-0.0230197 0.000331495 1.043 249 242 243
-0.0214409 0.00033213 1.045 249 242 243
-0.0198369 0.000332448 1.046 250 243 244
-0.0182125 0.000332448 1.046 250 243 244
-0.016588 0.000332448 1.046 250 243 244
-0.0149778 0.000332766 1.047 250 243 244
-0.0133518 0.000332766 1.047 249 242 243
-0.011737 0.000333084 1.048 244 237 238
-0.0101094 0.000333084 1.048 249 247 247
-0.00848181 0.000333084 1.048 254 252 252
-0.00685423 0.000333084 1.048 254 254 254
-0.00522665 0.000333084 1.048 251 251 251
-0.00359907 0.000333084 1.048 254 254 254
-0.00197149 0.000333084 1.048 254 254 254
-0.000343914 0.000333084 1.048 254 254 254
0.00128367 0.000333084 1.048 254 254 254
0.00291125 0.000333084 1.048 253 253 253
0.00453883 0.000333084 1.048 252 252 252
0.00616641 0.000333084 1.048 252 252 252
0.00779398 0.000333084 1.048 251 251 251
0.00942156 0.000333084 1.048 250 250 250
0.0110491 0.000333084 1.048 250 250 250
0.0126767 0.000333084 1.048 250 250 250
0.0143043 0.000333084 1.048 251 251 251
0.0159319 0.000333084 1.048 252 252 252
0.0175595 0.000333084 1.048 253 253 253
0.0191687 0.000332766 1.047 250 254 253
0.0207749 0.000332448 1.046 250 254 253
0.0223994 0.000332448 1.046 249 253 255
0.0240009 0.00033213 1.045 249 253 255
0.0256238 0.00033213 1.045 233 235 255
0.0272467 0.00033213 1.045 110 112 138
0.0288973 0.000332448 1.046 115 114 163
0.0305217 0.000332448 1.046 83 82 131
0.0321462 0.000332448 1.046 80 76 158
0.0337707 0.000332448 1.046 97 93 175
0.035429 0.000332766 1.047 109 102 193
0.037055 0.000332766 1.047 114 107 198
0.0386811 0.000332766 1.047 123 119 209
0.0403071 0.000332766 1.047 134 130 220
0.0419331 0.000332766 1.047 136 133 221
0.0435591 0.000332766 1.047 137 134 222
0.0451852 0.000332766 1.047 152 152 230
0.0467665 0.000332448 1.046 160 160 238
0.048391 0.000332448 1.046 161 165 223
0.0500154 0.000332448 1.046 155 159 217
0.0516893 0.000332766 1.047 158 162 201
0.0533153 0.000332766 1.047 181 185 224
0.0549413 0.000332766 1.047 194 201 226
0.0565673 0.000332766 1.047 194 201 226
0.0581934 0.000332766 1.047 190 199 217
0.0598194 0.000332766 1.047 181 190 208
0.0614454 0.000332766 1.047 199 204 220
0.0630715 0.000332766 1.047 215 220 236
0.0646357 0.000332448 1.046 213 217 236
0.0662602 0.000332448 1.046 141 145 164
0.0678846 0.000332448 1.046 111 114 142
0.0695091 0.000332448 1.046 135 138 166
0.0711336 0.000332448 1.046 139 144 174
0.0726885 0.00033213 1.045 182 187 217
0.0743114 0.00033213 1.045 196 197 244
0.0758617 0.000331812 1.044 209 210 255
0.077483 0.000331812 1.044 211 217 255
0.0791044 0.000331812 1.044 219 225 255
0.0807258 0.000331812 1.044 228 232 255
0.0822683 0.000331495 1.043 232 236 255
0.0839685 0.000331812 1.044 197 207 255
0.0855899 0.000331812 1.044 176 186 235
0.0872112 0.000331812 1.044 188 194 240
0.0888326 0.000331812 1.044 204 210 255
0.0905406 0.00033213 1.045 226 240 255
0.0922517 0.000332448 1.046 231 245 255
0.0938762 0.000332448 1.046 235 239 255
0.0955007 0.000332448 1.046 223 227 255
0.097218 0.000332766 1.047 68 76 98
0.098844 0.000332766 1.047 33 41 63
0.122499 0.000375355 1.181 41 61 39
0.124439 0.000375673 1.182 42 63 38
0.126274 0.000375673 1.182 43 64 39
0.128219 0.00037599 1.183 42 64 37
0.130166 0.000376308 1.184 42 64 37
0.132116 0.000376626 1.185 44 66 37
0.134182 0.000377262 1.187 46 68 39
0.136026 0.000377262 1.187 44 67 35
0.138102 0.000377897 1.189 43 66 34
0.140066 0.000378215 1.19 44 68 34
0.141914 0.000378215 1.19 44 68 34
0.143762 0.000378215 1.19 47 72 35
0.14561 0.000378215 1.19 44 69 32
0.147334 0.000377897 1.189 48 73 36
0.149056 0.00037758 1.188 50 75 38
0.150773 0.000377262 1.187 49 74 37
0.152617 0.000377262 1.187 50 75 38
0.15433 0.000376944 1.186 51 77 38
0.15604 0.000376626 1.185 53 79 40
0.157881 0.000376626 1.185 53 79 40
0.159586 0.000376308 1.184 55 81 42
0.161289 0.00037599 1.183 55 81 40
0.163264 0.000376308 1.184 54 80 39
0.165103 0.000376308 1.184 56 82 41
0.166942 0.000376308 1.184 58 84 43
0.168923 0.000376626 1.185 58 84 43
0.171051 0.000377262 1.187 58 84 43
0.173041 0.00037758 1.188 60 84 43
0.17518 0.000378215 1.19 62 86 45
0.177326 0.000378851 1.192 63 87 46
0.179327 0.000379169 1.193 62 86 45
0.181484 0.000379804 1.195 62 86 45
0.18334 0.000379804 1.195 62 86 45
0.185195 0.000379804 1.195 63 87 46
0.187051 0.000379804 1.195 63 87 46
0.189065 0.000380122 1.196 63 87 46
0.190763 0.000379804 1.195 64 88 47
0.192619 0.000379804 1.195 64 88 47
0.194312 0.000379487 1.194 65 89 48
0.196002 0.000379169 1.193 64 88 47
0.197855 0.000379169 1.193 64 88 47
0.19954 0.000378851 1.192 63 87 46
0.201391 0.000378851 1.192 63 87 46
0.203413 0.000379169 1.193 62 86 45
0.205438 0.000379487 1.194 62 86 45
0.207292 0.000379487 1.194 62 86 45
0.209322 0.000379804 1.195 63 87 46
0.211178 0.000379804 1.195 63 87 46
0.213034 0.000379804 1.195 64 88 47
0.21471 0.000379487 1.194 63 87 46
0.216745 0.000379804 1.195 59 83 42
0.218601 0.000379804 1.195 60 84 43
0.220273 0.000379487 1.194 62 86 45
0.222127 0.000379487 1.194 62 86 45
0.223981 0.000379487 1.194 62 86 45
0.225646 0.000379169 1.193 55 79 38
0.227308 0.000378851 1.192 56 80 39
0.22916 0.000378851 1.192 57 80 36
0.231011 0.000378851 1.192 60 83 39
0.232667 0.000378533 1.191 51 74 30
0.23432 0.000378215 1.19 43 66 22
0.236168 0.000378215 1.19 47 70 26
0.237616 0.00037758 1.188 47 70 26
0.239259 0.000377262 1.187 47 66 26
0.241103 0.000377262 1.187 42 61 21
0.242946 0.000377262 1.187 40 58 22
0.24479 0.000377262 1.187 35 53 17
0.246633 0.000377262 1.187 36 54 18
0.248267 0.000376944 1.186 33 51 15
0.250109 0.000376944 1.186 32 48 17
0.251951 0.000376944 1.186 31 47 16
0.253793 0.000376944 1.186 30 48 19
0.255635 0.000376944 1.186 30 48 19
0.257259 0.000376626 1.185 31 49 20
0.2591 0.000376626 1.185 30 48 19
0.26094 0.000376626 1.185 31 49 20
0.262559 0.000376308 1.184 30 48 19
0.264398 0.000376308 1.184 32 50 23
0.265787 0.000375673 1.182 33 51 24
0.267396 0.000375355 1.181 32 50 23
0.269002 0.000375037 1.18 33 51 24
0.270835 0.000375037 1.18 31 49 22
0.272667 0.000375037 1.18 29 47 20
0.2745 0.000375037 1.18 31 49 22
0.276332 0.000375037 1.18 29 47 20
0.278165 0.000375037 1.18 31 49 22
0.279998 0.000375037 1.18 32 50 23
0.28183 0.000375037 1.18 32 50 23
0.283663 0.000375037 1.18 33 51 24
0.285495 0.000375037 1.18 32 50 23
0.287571 0.000375355 1.181 32 50 23
0.28916 0.000375037 1.18 32 50 23
0.291486 0.000375673 1.182 32 50 23
0.293322 0.000375673 1.182 32 50 23
0.295158 0.000375673 1.182 31 49 22
0.296993 0.000375673 1.182 31 49 22
0.298829 0.000375673 1.182 29 47 20
0.300665 0.000375673 1.182 33 51 24
0.3025 0.000375673 1.182 32 50 23
0.304336 0.000375673 1.182 32 50 23
0.306172 0.000375673 1.182 31 49 22
0.308007 0.000375673 1.182 31 49 22
0.309843 0.000375673 1.182 31 49 22
0.311679 0.000375673 1.182 30 48 19
0.31378 0.00037599 1.183 34 52 23
0.315617 0.00037599 1.183 31 49 20
0.319561 0.000376308 1.184 30 48 21
0.321672 0.000376626 1.185 32 50 23
0.324058 0.000377262 1.187 37 55 28
0.32645 0.000377897 1.189 45 63 36
0.328573 0.000378215 1.19 45 63 36
0.330699 0.000378533 1.191 41 59 32
0.332828 0.000378851 1.192 41 59 30
0.33496 0.000379169 1.193 40 58 29
0.337377 0.000379804 1.195 48 66 37
0.339233 0.000379804 1.195 44 62 33
0.341374 0.000380122 1.196 44 62 33
0.343519 0.00038044 1.197 45 63 34
0.345378 0.00038044 1.197 43 63 36
0.346947 0.000380122 1.196 44 64 37
0.348804 0.000380122 1.196 45 65 38
0.350368 0.000379804 1.195 43 63 36
0.351929 0.000379487 1.194 43 62 37
0.353488 0.000379169 1.193 43 62 37
0.355042 0.000378851 1.192 43 61 39
0.356295 0.000378215 1.19 48 66 44
0.357842 0.000377897 1.189 39 55 38
0.358478 0.000376626 1.185 30 46 29
0.360015 0.000376308 1.184 46 61 48
0.361242 0.000375673 1.182 53 68 55
0.362156 0.000374719 1.179 26 36 31
0.363061 0.000373766 1.176 23 33 28
0.362716 0.000371541 1.169 24 35 27
0.362348 0.000369316 1.162 32 43 35
0.362273 0.000367409 1.156 133 141 134
0.359974 0.000363277 1.143 153 161 154
0.35985 0.00036137 1.137 152 160 153
0.361298 0.000361053 1.136 166 174 167
0.362423 0.000360417 1.134 172 181 180
0.363863 0.000360099 1.133 117 126 125
0.367559 0.000362006 1.139 96 103 107
0.371273 0.000363913 1.145 96 103 107
-0.146686 0.00196072 1.047 26 20 97
-0.14506 0.00196072 1.047 56 50 127
-0.143434 0.00196072 1.047 64 53 151
-0.141808 0.00196072 1.047 26 15 113
-0.140048 0.00195885 1.046 37 24 107
-0.138424 0.00195885 1.046 116 103 186
-0.136799 0.00195885 1.046 200 194 244
-0.135175 0.00195885 1.046 181 175 225
-0.133422 0.00195698 1.045 169 172 195
-0.131799 0.00195698 1.045 180 183 206
-0.130301 0.00195885 1.046 178 183 199
-0.128677 0.00195885 1.046 162 167 183
-0.127052 0.00195885 1.046 165 170 191
-0.125548 0.00196072 1.047 190 195 216
-0.123922 0.00196072 1.047 177 169 237
-0.122296 0.00196072 1.047 76 68 136
-0.120785 0.0019626 1.048 29 6 145
-0.119157 0.0019626 1.048 33 10 149
-0.11753 0.0019626 1.048 34 5 184
-0.115791 0.00196072 1.047 34 5 184
-0.114165 0.00196072 1.047 30 2 190
-0.112432 0.00195885 1.046 30 2 190
-0.110702 0.00195698 1.045 28 2 192
-0.108974 0.00195511 1.044 26 0 190
-0.10725 0.00195323 1.043 44 18 208
-0.105529 0.00195136 1.042 48 22 212
-0.103911 0.00195136 1.042 24 0 184
-0.102194 0.00194949 1.041 23 0 183
-0.100674 0.00195136 1.042 28 0 186
-0.0990559 0.00195136 1.042 29 1 187
-0.0975311 0.00195323 1.043 30 3 187
-0.0959113 0.00195323 1.043 30 3 187
-0.0943819 0.00195511 1.044 30 3 187
-0.0927606 0.00195511 1.044 30 3 187
-0.0912265 0.00195698 1.045 27 4 184
-0.0896036 0.00195698 1.045 21 0 178
-0.0879806 0.00195698 1.045 21 0 175
-0.0863577 0.00195698 1.045 27 6 181
-0.0846537 0.00195511 1.044 39 18 178
-0.0829528 0.00195323 1.043 38 17 177
-0.081333 0.00195323 1.043 24 6 131
-0.0797132 0.00195323 1.043 18 0 125
-0.0780934 0.00195323 1.043 29 13 97
-0.0765469 0.00195511 1.044 51 35 119
-0.0749973 0.00195698 1.045 214 204 234
-0.0734446 0.00195885 1.046 253 243 255
-0.0718888 0.00196072 1.047 251 255 255
-0.0702627 0.00196072 1.047 251 255 255
-0.0686367 0.00196072 1.047 251 255 254
-0.0670747 0.0019626 1.048 251 255 254
-0.0653847 0.00196072 1.047 251 255 254
-0.0638195 0.0019626 1.048 251 255 254
-0.0621326 0.00196072 1.047 251 255 254
-0.0605066 0.00196072 1.047 251 255 254
-0.0588805 0.00196072 1.047 254 254 254
-0.0571998 0.00195885 1.046 251 251 251
-0.0555754 0.00195885 1.046 247 243 243
-0.0539509 0.00195885 1.046 242 238 238
-0.0523264 0.00195885 1.046 239 235 235
-0.0507019 0.00195885 1.046 243 239 239
-0.0490775 0.00195885 1.046 248 241 243
-0.047453 0.00195885 1.046 248 241 243
-0.0458285 0.00195885 1.046 248 241 243
-0.044204 0.00195885 1.046 246 239 241
-0.0425796 0.00195885 1.046 236 229 231
-0.0409551 0.00195885 1.046 236 229 231
-0.039293 0.00195698 1.045 243 236 238
-0.0376341 0.00195511 1.044 242 235 237
-0.0360127 0.00195511 1.044 242 235 236
-0.0343584 0.00195323 1.043 250 243 244
-0.0327386 0.00195323 1.043 255 249 250
-0.0311187 0.00195323 1.043 242 235 236
-0.0294989 0.00195323 1.043 244 237 238
-0.0278791 0.00195323 1.043 250 243 244
-0.0262341 0.00195136 1.042 249 242 243
-0.0246395 0.00195323 1.043 249 242 243
-0.0230417 0.00195511 1.044 249 242 243
