ply
format ascii 1.0
comment Created by Open3D
element vertex 1393
property double x
property double y
property double z
property uchar red
property uchar green
property uchar blue
end_header
0.110125 -0.163747 1.186 36 59 22
0.111872 -0.163609 1.185 35 58 21
0.113809 -0.163747 1.186 34 57 20
0.11565 -0.163747 1.186 35 58 21
0.117492 -0.163747 1.186 34 57 20
0.119435 -0.163885 1.187 36 59 22
0.12138 -0.164023 1.188 36 59 22
0.123329 -0.164161 1.189 37 60 23
0.125176 -0.164161 1.189 38 61 24
0.127129 -0.164299 1.19 38 61 24
0.128977 -0.164299 1.19 38 61 24
0.130935 -0.164437 1.191 37 60 23
0.132896 -0.164575 1.192 36 59 22
0.134748 -0.164575 1.192 32 55 18
0.136599 -0.164575 1.192 35 58 21
0.138566 -0.164713 1.193 37 60 23
0.140419 -0.164713 1.193 37 60 23
0.142272 -0.164713 1.193 37 60 23
0.144125 -0.164713 1.193 36 59 22
0.145977 -0.164713 1.193 36 59 22
0.14783 -0.164713 1.193 37 60 23
0.149683 -0.164713 1.193 37 60 23
0.151536 -0.164713 1.193 37 60 23
0.153388 -0.164713 1.193 37 60 23
0.155241 -0.164713 1.193 36 59 22
0.157094 -0.164713 1.193 37 60 23
0.158947 -0.164713 1.193 38 61 24
0.160665 -0.164575 1.192 36 59 22
0.162516 -0.164575 1.192 38 59 22
0.164367 -0.164575 1.192 37 58 21
0.166218 -0.164575 1.192 37 58 21
0.16807 -0.164575 1.192 39 60 23
0.169921 -0.164575 1.192 39 60 23
0.171772 -0.164575 1.192 39 60 23
0.173478 -0.164437 1.191 39 60 23
0.175327 -0.164437 1.191 39 60 23
0.177177 -0.164437 1.191 40 61 24
0.178876 -0.164299 1.19 40 61 24
0.180724 -0.164299 1.19 40 61 24
0.182572 -0.164299 1.19 39 60 23
0.184266 -0.164161 1.189 38 59 22
0.185956 -0.164023 1.188 32 53 16
0.187643 -0.163885 1.187 32 53 16
0.189486 -0.163885 1.187 39 60 23
0.191168 -0.163747 1.186 39 60 23
0.19301 -0.163747 1.186 39 60 23
0.194688 -0.163609 1.185 39 60 23
0.196528 -0.163609 1.185 40 61 24
0.198368 -0.163609 1.185 40 61 24
0.200209 -0.163609 1.185 43 64 27
0.202049 -0.163609 1.185 40 61 24
0.204062 -0.163747 1.186 40 61 24
0.206077 -0.163885 1.187 39 60 23
0.208096 -0.164023 1.188 41 62 25
0.210294 -0.164299 1.19 43 64 27
0.21232 -0.164437 1.191 43 64 27
0.21417 -0.164437 1.191 43 64 27
0.216201 -0.164575 1.192 40 61 24
0.218052 -0.164575 1.192 39 60 23
0.220088 -0.164713 1.193 40 61 24
0.221941 -0.164713 1.193 41 62 25
0.223794 -0.164713 1.193 41 62 25
0.225646 -0.164713 1.193 43 64 27
0.227499 -0.164713 1.193 37 58 21
0.229352 -0.164713 1.193 36 56 22
0.231011 -0.164575 1.192 36 56 22
0.232862 -0.164575 1.192 33 52 20
0.234516 -0.164437 1.191 32 51 19
0.236168 -0.164299 1.19 31 50 18
0.237816 -0.164161 1.189 31 50 18
0.239662 -0.164161 1.189 32 51 19
0.241306 -0.164023 1.188 34 53 21
0.242946 -0.163885 1.187 33 51 22
0.24479 -0.163885 1.187 25 43 14
0.246633 -0.163885 1.187 23 41 12
0.248476 -0.163885 1.187 20 38 9
0.250531 -0.164023 1.188 19 37 8
0.252376 -0.164023 1.188 19 37 8
0.254435 -0.164161 1.189 19 37 8
0.256281 -0.164161 1.189 19 37 8
0.258128 -0.164161 1.189 19 37 10
0.260193 -0.164299 1.19 18 36 9
0.262041 -0.164299 1.19 18 36 9
0.263889 -0.164299 1.19 18 36 9
0.265737 -0.164299 1.19 18 36 9
0.267586 -0.164299 1.19 19 37 10
0.26966 -0.164437 1.191 22 40 13
0.27151 -0.164437 1.191 20 38 11
0.273359 -0.164437 1.191 22 40 13
0.275209 -0.164437 1.191 20 38 11
0.277059 -0.164437 1.191 18 35 10
0.278908 -0.164437 1.191 22 39 14
0.280758 -0.164437 1.191 18 37 12
0.282845 -0.164575 1.192 18 37 12
0.284696 -0.164575 1.192 18 37 12
0.286547 -0.164575 1.192 20 39 14
0.288399 -0.164575 1.192 21 40 15
0.29025 -0.164575 1.192 20 39 14
0.292101 -0.164575 1.192 20 39 14
0.293952 -0.164575 1.192 18 37 12
0.295803 -0.164575 1.192 17 36 11
0.297655 -0.164575 1.192 18 37 12
0.299506 -0.164575 1.192 18 37 12
0.30161 -0.164713 1.193 18 37 12
0.303463 -0.164713 1.193 18 37 12
0.305315 -0.164713 1.193 20 39 14
0.307426 -0.164851 1.194 18 37 12
0.309539 -0.164989 1.195 17 36 11
0.311395 -0.164989 1.195 17 35 13
0.313251 -0.164989 1.195 17 35 13
0.315107 -0.164989 1.195 17 35 13
0.317228 -0.165128 1.196 18 36 14
0.319085 -0.165128 1.196 20 38 16
0.320943 -0.165128 1.196 20 38 16
0.3228 -0.165128 1.196 22 40 18
0.324658 -0.165128 1.196 18 36 14
0.326515 -0.165128 1.196 20 38 16
0.328098 -0.164989 1.195 21 39 17
0.329954 -0.164989 1.195 25 43 21
0.33181 -0.164989 1.195 24 42 20
0.333107 -0.164713 1.193 25 43 21
0.33496 -0.164713 1.193 24 42 20
0.33653 -0.164575 1.192 24 42 20
0.338381 -0.164575 1.192 25 43 21
0.340233 -0.164575 1.192 25 43 21
0.341797 -0.164437 1.191 24 42 20
0.343647 -0.164437 1.191 24 42 20
0.345786 -0.164575 1.192 22 40 18
0.347346 -0.164437 1.191 21 39 17
0.348902 -0.164299 1.19 22 40 18
0.35075 -0.164299 1.19 23 40 20
0.35171 -0.163885 1.187 23 40 20
0.352957 -0.163609 1.185 23 39 22
0.354498 -0.163471 1.184 22 38 21
0.355735 -0.163195 1.182 21 37 20
0.356966 -0.162918 1.18 21 37 20
0.357886 -0.162504 1.177 21 37 22
0.358797 -0.16209 1.174 22 38 23
0.360006 -0.161814 1.172 28 43 30
0.360592 -0.161262 1.168 7 22 9
0.361475 -0.160847 1.165 10 25 12
0.362037 -0.160295 1.161 13 28 15
0.360079 -0.158638 1.149 16 25 23
0.360799 -0.157396 1.14 90 98 100
0.361298 -0.156844 1.136 105 113 115
0.362423 -0.156567 1.134 112 120 122
0.363542 -0.156291 1.132 112 120 122
0.3653 -0.156291 1.132 78 82 87
0.367058 -0.156291 1.132 38 42 47
-0.16588 -0.16163 1.184 16 37 12
-0.16418 -0.161766 1.185 16 37 12
-0.162476 -0.161903 1.186 19 40 15
-0.16077 -0.162039 1.187 20 41 16
-0.15906 -0.162176 1.188 27 47 20
-0.157348 -0.162312 1.189 28 48 21
-0.155632 -0.162449 1.19 27 47 18
-0.153784 -0.162449 1.19 28 48 19
-0.151936 -0.162449 1.19 28 48 19
-0.150214 -0.162585 1.191 30 50 21
-0.148364 -0.162585 1.191 29 49 20
-0.146391 -0.162449 1.19 30 50 21
-0.144543 -0.162449 1.19 32 53 21
-0.142695 -0.162449 1.19 31 52 20
-0.140729 -0.162312 1.189 28 49 17
-0.138648 -0.162039 1.187 23 44 12
-0.13669 -0.161903 1.186 28 49 17
-0.134734 -0.161766 1.185 28 49 17
-0.132894 -0.161766 1.185 30 51 19
-0.130832 -0.161493 1.183 29 50 18
-0.128886 -0.161357 1.182 30 51 19
-0.12705 -0.161357 1.182 30 51 19
-0.125215 -0.161357 1.182 31 52 20
-0.123379 -0.161357 1.182 30 51 19
-0.121543 -0.161357 1.182 31 52 20
-0.119707 -0.161357 1.182 31 52 20
-0.117872 -0.161357 1.182 31 52 20
-0.116036 -0.161357 1.182 30 51 19
-0.1142 -0.161357 1.182 30 51 19
-0.112365 -0.161357 1.182 30 51 19
-0.110529 -0.161357 1.182 30 51 19
-0.108785 -0.161493 1.183 29 50 18
-0.107129 -0.161766 1.185 30 51 19
-0.105289 -0.161766 1.185 29 50 18
-0.103536 -0.161903 1.186 29 50 18
-0.0999359 -0.162039 1.187 29 50 18
-0.0980925 -0.162039 1.187 30 51 19
-0.096249 -0.162039 1.187 30 51 19
-0.0944056 -0.162039 1.187 29 50 18
-0.0925621 -0.162039 1.187 30 51 19
-0.0907186 -0.162039 1.187 30 51 19
-0.0888752 -0.162039 1.187 30 51 19
-0.0870317 -0.162039 1.187 27 48 16
-0.0851165 -0.161903 1.186 28 49 17
-0.0832044 -0.161766 1.185 28 49 17
-0.0813641 -0.161766 1.185 29 50 18
-0.0795237 -0.161766 1.185 29 50 18
-0.0776834 -0.161766 1.185 29 50 18
-0.075843 -0.161766 1.185 28 49 17
-0.0740651 -0.161903 1.186 30 51 19
-0.0722232 -0.161903 1.186 31 52 20
-0.0704407 -0.162039 1.187 31 52 20
-0.0685972 -0.162039 1.187 30 51 19
-0.06681 -0.162176 1.188 30 51 19
-0.0650744 -0.162449 1.19 30 51 19
-0.0632263 -0.162449 1.19 30 51 19
-0.0614297 -0.162585 1.191 29 50 18
-0.0577789 -0.162722 1.192 29 50 18
-0.0541218 -0.162858 1.193 29 50 18
-0.0522252 -0.162722 1.192 29 50 18
-0.050374 -0.162722 1.192 29 50 18
-0.0485228 -0.162722 1.192 29 50 18
-0.0465933 -0.162449 1.19 28 49 17
-0.0447452 -0.162449 1.19 29 50 18
-0.042825 -0.162176 1.188 29 50 18
-0.0409455 -0.162039 1.187 29 50 18
-0.039102 -0.162039 1.187 28 49 17
-0.0372272 -0.161903 1.186 29 50 18
-0.0353554 -0.161766 1.185 29 50 18
-0.0335151 -0.161766 1.185 30 51 19
-0.0316747 -0.161766 1.185 29 50 18
-0.0298344 -0.161766 1.185 30 51 19
-0.0279941 -0.161766 1.185 31 52 20
-0.0261537 -0.161766 1.185 31 52 20
-0.0243134 -0.161766 1.185 31 52 20
-0.0224541 -0.16163 1.184 31 52 20
-0.0206327 -0.161766 1.185 32 53 21
-0.0187923 -0.161766 1.185 32 53 21
-0.016952 -0.161766 1.185 32 53 21
-0.0151116 -0.161766 1.185 32 53 21
-0.0132713 -0.161766 1.185 32 53 21
-0.0114406 -0.161903 1.186 32 53 21
-0.00959869 -0.161903 1.186 32 53 21
-0.00776333 -0.162039 1.187 31 52 20
-0.00591988 -0.162039 1.187 30 51 19
-0.00407643 -0.162039 1.187 31 52 20
-0.00223298 -0.162039 1.187 32 53 21
-0.000389528 -0.162039 1.187 31 52 20
0.00145392 -0.162039 1.187 31 52 20
0.00329737 -0.162039 1.187 34 55 23
0.00514083 -0.162039 1.187 34 55 23
0.00698428 -0.162039 1.187 31 52 20
0.00882773 -0.162039 1.187 30 51 19
0.0106712 -0.162039 1.187 30 51 19
0.0125146 -0.162039 1.187 30 51 19
0.0143581 -0.162039 1.187 30 51 19
0.0162015 -0.162039 1.187 30 51 19
0.0180298 -0.161903 1.186 32 53 21
0.0198549 -0.161766 1.185 32 53 21
0.0216953 -0.161766 1.185 32 53 21
0.0235356 -0.161766 1.185 31 52 20
0.025376 -0.161766 1.185 32 53 21
0.0272163 -0.161766 1.185 31 52 20
0.0290567 -0.161766 1.185 31 52 20
0.030897 -0.161766 1.185 31 52 20
0.032765 -0.161903 1.186 31 53 19
0.034636 -0.162039 1.187 31 53 19
0.0365102 -0.162176 1.188 30 52 18
0.0383875 -0.162312 1.189 30 52 18
0.0402679 -0.162449 1.19 30 52 18
0.0421868 -0.162722 1.192 29 51 17
0.044075 -0.162858 1.193 30 52 18
0.0459662 -0.162995 1.194 31 53 19
0.0478606 -0.163131 1.195 34 56 22
0.0497165 -0.163131 1.195 35 57 23
0.0516155 -0.163268 1.196 35 57 23
0.053473 -0.163268 1.196 35 57 23
0.0553766 -0.163404 1.197 34 56 22
0.0571878 -0.163268 1.196 35 57 23
0.0589959 -0.163131 1.195 34 56 22
0.0608008 -0.162995 1.194 34 56 22
0.0626551 -0.162995 1.194 34 56 22
0.0644014 -0.162722 1.192 34 56 22
0.0662526 -0.162722 1.192 34 56 22
0.0680467 -0.162585 1.191 32 54 20
0.0698377 -0.162449 1.19 32 54 20
0.0716858 -0.162449 1.19 32 54 20
0.0735339 -0.162449 1.19 34 56 22
0.0754454 -0.162585 1.191 35 57 23
0.077295 -0.162585 1.191 34 56 22
0.0791447 -0.162585 1.191 34 56 22
0.0810624 -0.162722 1.192 32 54 20
0.0829136 -0.162722 1.192 34 56 22
0.0848359 -0.162858 1.193 34 56 22
0.086616 -0.162722 1.192 34 56 22
0.0884672 -0.162722 1.192 34 56 22
0.0903184 -0.162722 1.192 32 54 20
0.0921697 -0.162722 1.192 31 53 19
0.0940209 -0.162722 1.192 31 53 19
0.0957917 -0.162585 1.191 35 57 23
0.0975593 -0.162449 1.19 36 58 24
0.0994075 -0.162449 1.19 36 58 24
0.10117 -0.162312 1.189 36 58 24
0.10293 -0.162176 1.188 35 57 23
0.104687 -0.162039 1.187 36 58 24
0.106531 -0.162039 1.187 35 57 23
0.108283 -0.161903 1.186 35 57 23
0.110125 -0.161903 1.186 35 57 23
0.112061 -0.162039 1.187 34 56 22
0.113904 -0.162039 1.187 35 57 23
0.11565 -0.161903 1.186 36 58 24
0.117492 -0.161903 1.186 36 58 24
0.119435 -0.162039 1.187 36 58 24
0.121278 -0.162039 1.187 36 58 24
0.123225 -0.162176 1.188 37 59 25
0.125176 -0.162312 1.189 38 60 26
0.127129 -0.162449 1.19 37 59 25
0.128977 -0.162449 1.19 38 60 26
0.130935 -0.162585 1.191 38 60 26
0.132896 -0.162722 1.192 36 58 24
0.134748 -0.162722 1.192 32 54 20
0.136599 -0.162722 1.192 35 57 23
0.13845 -0.162722 1.192 37 59 25
0.140301 -0.162722 1.192 37 59 25
0.142153 -0.162722 1.192 37 59 25
0.144004 -0.162722 1.192 36 58 24
0.145855 -0.162722 1.192 36 58 24
0.147706 -0.162722 1.192 37 60 23
0.149557 -0.162722 1.192 37 60 23
0.151409 -0.162722 1.192 37 60 23
0.15326 -0.162722 1.192 36 59 22
0.155111 -0.162722 1.192 36 59 22
0.156962 -0.162722 1.192 37 60 23
0.158813 -0.162722 1.192 37 60 23
0.160665 -0.162722 1.192 38 61 24
0.162516 -0.162722 1.192 39 60 23
0.164367 -0.162722 1.192 39 60 23
0.166218 -0.162722 1.192 39 60 23
0.16807 -0.162722 1.192 41 62 25
0.169778 -0.162585 1.191 41 62 25
0.171628 -0.162585 1.191 41 62 25
0.173478 -0.162585 1.191 40 61 24
0.175327 -0.162585 1.191 40 61 24
0.177028 -0.162449 1.19 41 62 25
0.178876 -0.162449 1.19 41 62 25
0.180724 -0.162449 1.19 40 61 24
0.182572 -0.162449 1.19 39 60 23
0.184266 -0.162312 1.189 40 61 24
0.185956 -0.162176 1.188 41 62 25
0.187643 -0.162039 1.187 41 62 25
0.189486 -0.162039 1.187 41 62 25
0.191168 -0.161903 1.186 41 62 25
0.19301 -0.161903 1.186 43 64 27
0.194688 -0.161766 1.185 43 64 27
0.196528 -0.161766 1.185 43 64 27
0.198368 -0.161766 1.185 43 64 27
0.200209 -0.161766 1.185 43 64 27
0.202049 -0.161766 1.185 41 62 25
0.203889 -0.161766 1.185 41 62 25
0.206077 -0.162039 1.187 40 61 24
0.208271 -0.162312 1.189 40 61 24
0.210294 -0.162449 1.19 41 62 25
0.21232 -0.162585 1.191 40 61 24
0.21435 -0.162722 1.192 40 61 24
0.216201 -0.162722 1.192 40 61 24
0.218235 -0.162858 1.193 40 61 24
0.220273 -0.162995 1.194 40 61 24
0.222127 -0.162995 1.194 39 62 25
0.223981 -0.162995 1.194 38 61 24
0.225836 -0.162995 1.194 36 59 22
0.22769 -0.162995 1.194 28 51 14
0.229544 -0.162995 1.194 32 54 20
0.231205 -0.162858 1.193 34 56 22
0.232862 -0.162722 1.192 31 53 19
0.234516 -0.162585 1.191 30 52 18
0.236168 -0.162449 1.19 29 50 18
0.238016 -0.162449 1.19 29 50 18
0.239864 -0.162449 1.19 28 49 17
0.241509 -0.162312 1.189 18 39 7
0.243151 -0.162176 1.188 18 38 9
0.24479 -0.162039 1.187 21 41 12
0.246633 -0.162039 1.187 23 41 12
0.248686 -0.162176 1.188 22 40 11
0.250531 -0.162176 1.188 20 38 9
0.252588 -0.162312 1.189 19 37 8
0.254435 -0.162312 1.189 19 37 10
0.256281 -0.162312 1.189 19 37 10
0.258345 -0.162449 1.19 18 36 9
0.260193 -0.162449 1.19 18 36 9
0.262041 -0.162449 1.19 18 36 9
0.263889 -0.162449 1.19 18 36 9
0.265961 -0.162585 1.191 18 36 9
0.26781 -0.162585 1.191 18 36 9
0.26966 -0.162585 1.191 19 37 10
0.27151 -0.162585 1.191 19 37 10
0.273359 -0.162585 1.191 20 38 11
0.275209 -0.162585 1.191 19 37 10
0.277059 -0.162585 1.191 19 36 11
0.278908 -0.162585 1.191 22 39 14
0.280758 -0.162585 1.191 18 37 12
0.282608 -0.162585 1.191 20 39 14
0.284457 -0.162585 1.191 20 39 14
0.286547 -0.162722 1.192 21 40 15
0.288399 -0.162722 1.192 20 39 14
0.29025 -0.162722 1.192 18 37 12
0.292101 -0.162722 1.192 18 37 12
0.293952 -0.162722 1.192 18 37 12
0.295803 -0.162722 1.192 18 37 12
0.297655 -0.162722 1.192 18 37 12
0.299757 -0.162858 1.193 18 37 12
0.301863 -0.162995 1.194 20 39 14
0.303717 -0.162995 1.194 20 39 14
0.305827 -0.163131 1.195 20 39 14
0.307683 -0.163131 1.195 18 37 12
0.309539 -0.163131 1.195 17 36 11
0.311395 -0.163131 1.195 17 35 13
0.313513 -0.163268 1.196 16 34 12
0.31537 -0.163268 1.196 16 34 12
0.317228 -0.163268 1.196 17 35 13
0.319085 -0.163268 1.196 18 36 14
0.320943 -0.163268 1.196 18 36 14
0.32253 -0.163131 1.195 20 38 16
0.324386 -0.163131 1.195 18 36 14
0.326242 -0.163131 1.195 20 38 16
0.327823 -0.162995 1.194 22 40 18
0.329401 -0.162858 1.193 23 41 19
0.331254 -0.162858 1.193 23 41 19
0.332828 -0.162722 1.192 23 41 19
0.334398 -0.162585 1.191 23 41 19
0.335966 -0.162449 1.19 24 42 20
0.337814 -0.162449 1.19 27 45 23
0.339662 -0.162449 1.19 28 46 24
0.34151 -0.162449 1.19 28 46 24
0.343358 -0.162449 1.19 23 41 19
0.345206 -0.162449 1.19 21 39 17
0.347054 -0.162449 1.19 21 39 17
0.348902 -0.162449 1.19 22 40 18
0.350161 -0.162176 1.188 23 40 20
0.351413 -0.161903 1.186 24 41 21
0.352957 -0.161766 1.185 23 40 20
0.3539 -0.161357 1.182 22 39 19
0.355133 -0.161084 1.18 22 38 21
0.356361 -0.160811 1.178 21 37 20
0.357278 -0.160401 1.175 18 34 19
0.358186 -0.159992 1.172 18 34 19
0.359392 -0.159719 1.17 21 36 23
0.359974 -0.159173 1.166 9 24 11
0.361164 -0.158899 1.164 11 25 15
0.359854 -0.157534 1.154 13 27 17
0.359766 -0.156715 1.148 15 24 23
0.360799 -0.155623 1.14 96 104 106
0.361298 -0.155077 1.136 104 112 114
0.362423 -0.154804 1.134 115 123 125
0.363542 -0.154531 1.132 111 119 121
0.3653 -0.154531 1.132 67 71 76
0.367058 -0.154531 1.132 36 40 45
-0.16602 -0.159924 1.185 11 32 7
-0.164318 -0.160059 1.186 18 39 14
-0.162613 -0.160194 1.187 21 40 15
-0.160905 -0.160329 1.188 22 41 16
-0.159194 -0.160464 1.189 23 43 16
-0.15748 -0.160598 1.19 28 48 21
-0.155632 -0.160598 1.19 31 51 24
-0.153913 -0.160733 1.191 27 47 20
-0.152063 -0.160733 1.191 27 47 18
-0.15034 -0.160868 1.192 28 48 19
-0.148364 -0.160733 1.191 28 48 19
-0.146514 -0.160733 1.191 31 51 22
-0.144543 -0.160598 1.19 32 53 21
-0.142695 -0.160598 1.19 34 55 23
-0.140729 -0.160464 1.189 25 46 14
-0.138648 -0.160194 1.187 27 48 16
-0.136805 -0.160194 1.187 27 48 16
-0.134734 -0.159924 1.185 28 49 17
-0.132894 -0.159924 1.185 30 51 19
-0.130832 -0.159654 1.183 30 51 19
-0.128886 -0.159519 1.182 29 50 18
-0.12705 -0.159519 1.182 32 53 21
-0.125215 -0.159519 1.182 34 55 23
-0.123379 -0.159519 1.182 31 52 20
-0.121543 -0.159519 1.182 31 52 20
-0.119707 -0.159519 1.182 30 51 19
-0.117872 -0.159519 1.182 30 51 19
-0.116036 -0.159519 1.182 30 51 19
-0.1142 -0.159519 1.182 29 50 18
-0.11246 -0.159654 1.183 30 51 19
-0.110623 -0.159654 1.183 30 51 19
-0.108877 -0.159789 1.184 30 51 19
-0.107129 -0.159924 1.185 32 53 21
-0.105289 -0.159924 1.185 31 52 20
-0.103536 -0.160059 1.186 30 51 19
-0.0999359 -0.160194 1.187 29 50 18
-0.0980925 -0.160194 1.187 29 50 18
-0.096249 -0.160194 1.187 29 50 18
-0.0944056 -0.160194 1.187 29 50 18
-0.0925621 -0.160194 1.187 30 51 19
-0.0907186 -0.160194 1.187 30 51 19
-0.0888752 -0.160194 1.187 31 52 20
-0.0870317 -0.160194 1.187 27 48 16
-0.0851883 -0.160194 1.187 27 48 16
-0.0833448 -0.160194 1.187 27 48 16
-0.0815014 -0.160194 1.187 29 50 18
-0.0795908 -0.160059 1.186 29 50 18
-0.0777489 -0.160059 1.186 28 49 17
-0.075971 -0.160194 1.187 29 50 18
-0.0741276 -0.160194 1.187 30 51 19
-0.0722841 -0.160194 1.187 30 51 19
-0.0704407 -0.160194 1.187 31 52 20
-0.0687128 -0.160464 1.189 30 51 19
-0.0669225 -0.160598 1.19 30 51 19
-0.0650744 -0.160598 1.19 30 51 19
-0.0632794 -0.160733 1.191 29 50 18
-0.0596301 -0.160868 1.192 29 50 18
-0.0577789 -0.160868 1.192 29 50 18
-0.0559277 -0.160868 1.192 29 50 18
-0.0522252 -0.160868 1.192 29 50 18
-0.050374 -0.160868 1.192 29 50 18
-0.0485228 -0.160868 1.192 28 49 17
-0.0466324 -0.160733 1.191 28 49 17
-0.0447452 -0.160598 1.19 29 50 18
-0.042861 -0.160464 1.189 29 50 18
-0.0409455 -0.160194 1.187 29 50 18
-0.039102 -0.160194 1.187 29 50 18
-0.0372272 -0.160059 1.186 30 51 19
-0.0353554 -0.159924 1.185 30 51 19
-0.0335151 -0.159924 1.185 31 52 20
-0.0316747 -0.159924 1.185 31 52 20
-0.0298344 -0.159924 1.185 30 51 19
-0.0279941 -0.159924 1.185 31 52 20
-0.0261537 -0.159924 1.185 31 52 20
-0.0243134 -0.159924 1.185 31 52 20
-0.022473 -0.159924 1.185 31 52 20
-0.0206327 -0.159924 1.185 31 52 20
-0.0187923 -0.159924 1.185 32 53 21
-0.0169663 -0.160059 1.186 32 53 21
-0.0151244 -0.160059 1.186 32 53 21
-0.0132825 -0.160059 1.186 34 55 23
-0.0114502 -0.160194 1.187 36 57 25
-0.00960679 -0.160194 1.187 36 57 25
-0.00776987 -0.160329 1.188 31 52 20
-0.00592487 -0.160329 1.188 32 53 21
-0.0040833 -0.160464 1.189 32 53 21
-0.00223674 -0.160464 1.189 32 53 21
-0.000390184 -0.160464 1.189 31 52 20
0.00145515 -0.160329 1.188 32 53 21
0.00330015 -0.160329 1.188 34 55 23
0.00514516 -0.160329 1.188 34 55 23
0.00698428 -0.160194 1.187 31 52 20
0.00882773 -0.160194 1.187 31 52 20
0.0106712 -0.160194 1.187 31 52 20
0.0125146 -0.160194 1.187 31 52 20
0.0143581 -0.160194 1.187 31 52 20
0.0162015 -0.160194 1.187 31 52 20
0.018045 -0.160194 1.187 34 53 21
0.0198549 -0.159924 1.185 34 53 21
0.0216953 -0.159924 1.185 36 55 23
0.0235356 -0.159924 1.185 34 53 21
0.025376 -0.159924 1.185 36 55 23
0.0272163 -0.159924 1.185 34 53 21
0.0290567 -0.159924 1.185 31 52 20
0.030897 -0.159924 1.185 32 53 21
0.0327373 -0.159924 1.185 32 54 20
0.0346069 -0.160059 1.186 31 53 19
0.0364795 -0.160194 1.187 30 52 18
0.0383552 -0.160329 1.188 30 52 18
0.0402341 -0.160464 1.189 30 52 18
0.042116 -0.160598 1.19 30 52 18
0.044038 -0.160868 1.192 29 51 17
0.0459277 -0.161003 1.193 31 53 19
0.0478206 -0.161138 1.194 32 54 20
0.0497165 -0.161273 1.195 34 56 22
0.0515724 -0.161273 1.195 34 56 22
0.053473 -0.161408 1.196 34 56 22
0.0553304 -0.161408 1.196 31 53 19
0.05714 -0.161273 1.195 35 57 23
0.0589959 -0.161273 1.195 35 57 23
0.0608517 -0.161273 1.195 34 56 22
0.0626551 -0.161138 1.194 35 57 23
0.0644554 -0.161003 1.193 35 57 23
0.0663082 -0.161003 1.193 34 56 22
0.0681038 -0.160868 1.192 35 57 23
0.0699551 -0.160868 1.192 36 58 24
0.0718063 -0.160868 1.192 36 58 24
0.0735957 -0.160733 1.191 36 58 24
0.0755087 -0.160868 1.192 35 57 23
0.0773599 -0.160868 1.192 32 54 20
0.0792111 -0.160868 1.192 34 56 22
0.0810624 -0.160868 1.192 32 55 18
0.0829136 -0.160868 1.192 34 57 20
0.0847648 -0.160868 1.192 35 58 21
0.086616 -0.160868 1.192 35 58 21
0.0885414 -0.161003 1.193 35 58 21
0.0903184 -0.160868 1.192 32 55 18
0.0921697 -0.160868 1.192 27 50 13
0.0940209 -0.160868 1.192 34 57 20
0.0958721 -0.160868 1.192 36 59 22
0.0977233 -0.160868 1.192 36 59 22
0.0994075 -0.160598 1.19 35 58 21
0.101256 -0.160598 1.19 35 58 21
0.103017 -0.160464 1.189 35 58 21
0.104864 -0.160464 1.189 36 59 22
0.10662 -0.160329 1.188 36 59 22
0.108374 -0.160194 1.187 35 58 21
0.110218 -0.160194 1.187 35 58 21
0.112155 -0.160329 1.188 36 59 22
0.113904 -0.160194 1.187 36 59 22
0.115748 -0.160194 1.187 36 59 22
0.117591 -0.160194 1.187 36 59 22
0.119435 -0.160194 1.187 36 59 22
0.12138 -0.160329 1.188 35 58 21
0.123225 -0.160329 1.188 37 60 23
0.125176 -0.160464 1.189 38 61 24
0.127022 -0.160464 1.189 38 61 24
0.128977 -0.160598 1.19 38 61 24
0.130825 -0.160598 1.19 38 61 24
0.132785 -0.160733 1.191 36 59 22
0.134748 -0.160868 1.192 35 58 21
0.136599 -0.160868 1.192 35 58 21
0.13845 -0.160868 1.192 36 59 22
0.140301 -0.160868 1.192 37 60 23
0.142153 -0.160868 1.192 37 60 23
0.144004 -0.160868 1.192 36 59 22
0.145855 -0.160868 1.192 37 60 23
0.147582 -0.160733 1.191 38 61 24
0.149432 -0.160733 1.191 37 60 23
0.151155 -0.160598 1.19 36 59 22
0.153131 -0.160733 1.191 36 59 22
0.154981 -0.160733 1.191 36 59 22
0.156831 -0.160733 1.191 38 61 24
0.158813 -0.160868 1.192 38 61 24
0.16053 -0.160733 1.191 38 61 24
0.16238 -0.160733 1.191 38 61 24
0.164091 -0.160598 1.19 38 61 24
0.166079 -0.160733 1.191 39 60 23
0.167929 -0.160733 1.191 41 62 25
0.169778 -0.160733 1.191 41 62 25
0.171628 -0.160733 1.191 41 62 25
0.173478 -0.160733 1.191 40 61 24
0.175327 -0.160733 1.191 41 62 25
0.177028 -0.160598 1.19 41 62 25
0.178876 -0.160598 1.19 41 62 25
0.180724 -0.160598 1.19 40 61 24
0.182572 -0.160598 1.19 40 61 24
0.184266 -0.160464 1.189 41 62 25
0.185956 -0.160329 1.188 43 64 27
0.187643 -0.160194 1.187 43 64 27
0.189486 -0.160194 1.187 41 62 25
0.191168 -0.160059 1.186 41 62 25
0.19301 -0.160059 1.186 41 62 25
0.194688 -0.159924 1.185 41 62 25
0.196528 -0.159924 1.185 43 64 27
0.198368 -0.159924 1.185 43 64 27
0.200209 -0.159924 1.185 43 64 27
0.20222 -0.160059 1.186 41 62 25
0.204234 -0.160194 1.187 41 62 25
0.206251 -0.160329 1.188 41 62 25
0.208446 -0.160598 1.19 40 61 24
0.210471 -0.160733 1.191 41 62 25
0.212499 -0.160868 1.192 40 61 24
0.21435 -0.160868 1.192 40 61 24
0.216383 -0.161003 1.193 40 61 24
0.218418 -0.161138 1.194 40 61 24
0.220457 -0.161273 1.195 40 61 24
0.222313 -0.161273 1.195 41 62 25
0.223981 -0.161138 1.194 39 60 23
0.225836 -0.161138 1.194 39 60 23
0.22769 -0.161138 1.194 36 57 20
0.229544 -0.161138 1.194 34 54 20
0.231399 -0.161138 1.194 34 54 20
0.232862 -0.160868 1.192 33 53 19
0.234713 -0.160868 1.192 32 52 18
0.236366 -0.160733 1.191 31 50 18
0.238016 -0.160598 1.19 31 50 18
0.239864 -0.160598 1.19 31 50 18
0.241509 -0.160464 1.189 26 45 13
0.243151 -0.160329 1.188 27 46 14
0.24479 -0.160194 1.187 25 44 12
0.246633 -0.160194 1.187 24 43 11
0.248686 -0.160329 1.188 22 41 9
0.250531 -0.160329 1.188 20 39 7
0.252376 -0.160329 1.188 19 38 6
0.254435 -0.160464 1.189 19 37 8
0.256281 -0.160464 1.189 19 37 8
0.258345 -0.160598 1.19 18 36 9
0.260193 -0.160598 1.19 19 37 10
0.262041 -0.160598 1.19 19 37 10
0.263889 -0.160598 1.19 19 37 10
0.265737 -0.160598 1.19 19 37 10
0.267586 -0.160598 1.19 18 36 9
0.269434 -0.160598 1.19 17 35 8
0.271282 -0.160598 1.19 19 37 10
0.273359 -0.160733 1.191 20 38 11
0.274978 -0.160598 1.19 20 38 11
0.276826 -0.160598 1.19 22 39 14
0.278674 -0.160598 1.19 22 39 14
0.280522 -0.160598 1.19 18 37 12
0.282608 -0.160733 1.191 18 37 12
0.284457 -0.160733 1.191 20 39 14
0.286307 -0.160733 1.191 18 37 12
0.288157 -0.160733 1.191 17 36 11
0.29025 -0.160868 1.192 18 37 12
0.292101 -0.160868 1.192 18 37 12
0.293952 -0.160868 1.192 18 37 12
0.295803 -0.160868 1.192 18 37 12
0.297904 -0.161003 1.193 18 37 12
0.300008 -0.161138 1.194 18 36 14
0.301863 -0.161138 1.194 20 38 16
0.303717 -0.161138 1.194 20 38 16
0.305827 -0.161273 1.195 20 38 16
0.307683 -0.161273 1.195 18 36 14
0.309539 -0.161273 1.195 17 35 13
0.311656 -0.161408 1.196 20 38 16
0.313513 -0.161408 1.196 20 38 16
0.315634 -0.161543 1.197 21 39 17
0.317493 -0.161543 1.197 21 39 17
0.319352 -0.161543 1.197 20 38 16
0.321211 -0.161543 1.197 20 38 16
0.3228 -0.161408 1.196 18 36 14
0.324386 -0.161273 1.195 20 38 16
0.326242 -0.161273 1.195 21 39 17
0.327549 -0.161003 1.193 22 40 18
0.329125 -0.160868 1.192 22 40 18
0.330699 -0.160733 1.191 22 40 18
0.332269 -0.160598 1.19 22 40 18
0.333837 -0.160464 1.189 23 41 19
0.335401 -0.160329 1.188 23 41 19
0.336962 -0.160194 1.187 25 43 21
0.338806 -0.160194 1.187 23 41 19
0.340649 -0.160194 1.187 25 43 21
0.342492 -0.160194 1.187 23 41 19
0.344336 -0.160194 1.187 21 39 17
0.346179 -0.160194 1.187 23 41 19
0.348023 -0.160194 1.187 23 41 19
0.349571 -0.160059 1.186 24 41 21
0.351117 -0.159924 1.185 23 40 20
0.352362 -0.159654 1.183 23 39 22
0.3536 -0.159384 1.181 23 39 22
0.355133 -0.159249 1.18 24 40 25
0.356058 -0.158844 1.177 21 37 22
0.356974 -0.158439 1.174 11 26 13
0.35788 -0.158034 1.171 15 30 17
0.358778 -0.157629 1.168 20 35 22
0.359665 -0.157225 1.165 15 30 17
0.360544 -0.15682 1.162 16 30 20
0.359542 -0.155605 1.153 10 24 14
0.359766 -0.15493 1.148 12 21 20
0.360289 -0.15439 1.144 46 55 54
0.360799 -0.153851 1.14 97 105 107
0.361616 -0.153446 1.137 104 112 114
0.362423 -0.153041 1.134 114 122 124
0.363863 -0.152906 1.133 110 118 120
0.3653 -0.152771 1.132 56 60 65
0.367382 -0.152906 1.133 38 42 47
-0.16616 -0.158215 1.186 14 34 12
-0.164457 -0.158348 1.187 19 39 17
-0.16275 -0.158481 1.188 20 39 14
-0.161041 -0.158615 1.189 16 35 10
-0.159328 -0.158748 1.19 21 40 15
-0.15748 -0.158748 1.19 24 43 18
-0.155763 -0.158882 1.191 25 45 18
-0.154042 -0.159015 1.192 27 47 20
-0.152191 -0.159015 1.192 27 47 18
-0.15034 -0.159015 1.192 25 45 16
-0.148488 -0.159015 1.192 27 47 18
-0.146514 -0.158882 1.191 31 51 22
-0.144543 -0.158748 1.19 35 55 26
-0.142695 -0.158748 1.19 35 55 26
-0.140729 -0.158615 1.189 28 49 17
-0.138765 -0.158481 1.188 27 48 16
-0.136805 -0.158348 1.187 28 49 17
-0.134734 -0.158081 1.185 28 49 17
-0.132894 -0.158081 1.185 29 50 18
-0.130832 -0.157814 1.183 30 51 19
-0.128886 -0.157681 1.182 30 51 19
-0.12705 -0.157681 1.182 38 59 27
-0.125215 -0.157681 1.182 36 57 25
-0.123379 -0.157681 1.182 30 51 19
-0.121543 -0.157681 1.182 30 51 19
-0.119707 -0.157681 1.182 29 50 18
-0.117872 -0.157681 1.182 29 50 18
-0.116134 -0.157814 1.183 30 51 19
-0.114297 -0.157814 1.183 30 51 19
-0.11246 -0.157814 1.183 30 51 19
-0.110716 -0.157948 1.184 30 51 19
-0.108877 -0.157948 1.184 30 51 19
-0.107129 -0.158081 1.185 31 52 20
-0.105289 -0.158081 1.185 32 53 21
-0.103536 -0.158215 1.186 32 53 21
-0.0999359 -0.158348 1.187 29 50 18
-0.0980925 -0.158348 1.187 29 50 18
-0.096249 -0.158348 1.187 29 50 18
-0.0944056 -0.158348 1.187 29 50 18
-0.0925621 -0.158348 1.187 30 51 19
-0.0907186 -0.158348 1.187 28 49 17
-0.0888752 -0.158348 1.187 28 49 17
-0.0870317 -0.158348 1.187 27 48 16
-0.0851883 -0.158348 1.187 28 49 17
-0.0833448 -0.158348 1.187 27 48 16
-0.0815014 -0.158348 1.187 28 49 17
-0.0796579 -0.158348 1.187 28 49 17
-0.0778145 -0.158348 1.187 28 49 17
-0.075971 -0.158348 1.187 29 50 18
-0.07419 -0.158481 1.188 29 50 18
-0.072345 -0.158481 1.188 29 50 18
-0.0705594 -0.158615 1.189 28 49 17
-0.0687706 -0.158748 1.19 28 49 17
-0.0669225 -0.158748 1.19 29 50 18
-0.0651291 -0.158882 1.191 29 50 18
-0.0614813 -0.159015 1.192 30 51 19
-0.0596301 -0.159015 1.192 29 50 18
-0.0577789 -0.159015 1.192 29 50 18
-0.0559746 -0.159148 1.193 30 51 19
-0.0541218 -0.159148 1.193 30 51 19
-0.0522252 -0.159015 1.192 30 51 19
-0.050374 -0.159015 1.192 30 51 19
-0.0485228 -0.159015 1.192 30 51 19
-0.0466324 -0.158882 1.191 30 51 19
-0.0447452 -0.158748 1.19 30 51 19
-0.042861 -0.158615 1.189 30 51 19
-0.0409455 -0.158348 1.187 29 50 18
-0.039102 -0.158348 1.187 30 51 19
-0.0372272 -0.158215 1.186 29 50 18
-0.0353853 -0.158215 1.186 28 49 17
-0.0335434 -0.158215 1.186 30 51 19
-0.0316747 -0.158081 1.185 31 52 20
-0.0298344 -0.158081 1.185 31 52 20
-0.0279941 -0.158081 1.185 32 53 21
-0.0261537 -0.158081 1.185 30 51 19
-0.0243134 -0.158081 1.185 31 52 20
-0.022492 -0.158215 1.186 30 51 19
-0.0206501 -0.158215 1.186 31 52 20
-0.018824 -0.158348 1.187 31 52 20
-0.0169806 -0.158348 1.187 31 52 20
-0.0151371 -0.158348 1.187 32 53 21
-0.0132937 -0.158348 1.187 31 52 20
-0.0114599 -0.158481 1.188 39 60 28
-0.00963107 -0.158748 1.19 41 62 30
-0.00778295 -0.158748 1.19 34 55 23
-0.00593484 -0.158748 1.19 36 57 25
-0.00408673 -0.158748 1.19 34 55 23
-0.00223862 -0.158748 1.19 31 52 20
-0.000390513 -0.158748 1.19 31 52 20
0.0014576 -0.158748 1.19 31 52 20
0.00330293 -0.158615 1.189 34 55 23
0.00514949 -0.158615 1.189 32 53 21
0.00699605 -0.158615 1.189 32 53 21
0.00883517 -0.158481 1.188 34 55 23
0.0106802 -0.158481 1.188 34 55 23
0.0125252 -0.158481 1.188 32 53 21
0.0143702 -0.158481 1.188 32 53 21
0.0162015 -0.158348 1.187 31 52 20
0.018045 -0.158348 1.187 32 53 21
0.0198717 -0.158215 1.186 32 53 21
0.0216953 -0.158081 1.185 32 53 21
0.0235356 -0.158081 1.185 32 53 21
0.025376 -0.158081 1.185 34 55 23
0.0272163 -0.158081 1.185 35 56 24
0.0290567 -0.158081 1.185 35 56 24
0.030897 -0.158081 1.185 35 56 24
0.0327373 -0.158081 1.185 34 56 22
0.0345777 -0.158081 1.185 36 58 24
0.0364488 -0.158215 1.186 36 58 24
0.038323 -0.158348 1.187 31 53 19
0.0402002 -0.158481 1.188 32 54 20
0.042116 -0.158748 1.19 32 54 20
0.0439641 -0.158748 1.19 31 53 19
0.0458507 -0.158882 1.191 32 54 20
0.0477805 -0.159148 1.193 32 54 20
0.0496749 -0.159282 1.194 31 53 19
0.0515724 -0.159415 1.195 32 54 20
0.0534282 -0.159415 1.195 34 56 22
0.0552841 -0.159415 1.195 31 53 19
0.05714 -0.159415 1.195 35 57 23
0.0589959 -0.159415 1.195 34 56 22
0.0608517 -0.159415 1.195 34 56 22
0.0627076 -0.159415 1.195 35 57 23
0.0645635 -0.159415 1.195 35 57 23
0.0663638 -0.159282 1.194 34 56 22
0.0682181 -0.159282 1.194 36 58 24
0.0700137 -0.159148 1.193 34 56 22
0.0718665 -0.159148 1.193 34 56 22
0.0737193 -0.159148 1.193 35 57 23
0.0755721 -0.159148 1.193 36 58 24
0.0774248 -0.159148 1.193 34 56 22
0.0792776 -0.159148 1.193 34 56 22
0.0811304 -0.159148 1.193 34 56 22
0.0829831 -0.159148 1.193 34 56 22
0.084907 -0.159282 1.194 35 57 23
0.0866887 -0.159148 1.193 36 58 24
0.0885414 -0.159148 1.193 36 58 24
0.0903942 -0.159148 1.193 36 58 24
0.092247 -0.159148 1.193 35 57 23
0.0940998 -0.159148 1.193 35 57 23
0.0959525 -0.159148 1.193 36 58 24
0.0978053 -0.159148 1.193 35 57 23
0.0995745 -0.159015 1.192 35 57 23
0.101426 -0.159015 1.192 36 58 24
0.10319 -0.158882 1.191 36 58 24
0.104952 -0.158748 1.19 36 58 24
0.1068 -0.158748 1.19 36 58 24
0.108557 -0.158615 1.189 35 57 23
0.110403 -0.158615 1.189 36 58 24
0.11225 -0.158615 1.189 37 59 25
0.114 -0.158481 1.188 36 58 24
0.115748 -0.158348 1.187 36 58 24
0.117591 -0.158348 1.187 36 58 24
0.119435 -0.158348 1.187 35 57 23
0.12138 -0.158481 1.188 36 58 24
0.123225 -0.158481 1.188 37 59 25
0.125176 -0.158615 1.189 38 60 26
0.127022 -0.158615 1.189 38 60 26
0.128977 -0.158748 1.19 38 60 26
0.130825 -0.158748 1.19 38 60 26
0.132785 -0.158882 1.191 37 59 25
0.134635 -0.158882 1.191 35 57 23
0.136484 -0.158882 1.191 36 58 24
0.138334 -0.158882 1.191 35 57 23
0.140184 -0.158882 1.191 36 58 24
0.142033 -0.158882 1.191 37 59 25
0.143883 -0.158882 1.191 37 59 25
0.14561 -0.158748 1.19 37 59 25
0.147458 -0.158748 1.19 37 60 23
0.149306 -0.158748 1.19 37 60 23
0.151155 -0.158748 1.19 37 60 23
0.153003 -0.158748 1.19 38 61 24
0.154851 -0.158748 1.19 38 61 24
0.156699 -0.158748 1.19 39 62 25
0.158547 -0.158748 1.19 39 62 25
0.160395 -0.158748 1.19 41 64 27
0.162243 -0.158748 1.19 38 61 24
0.164091 -0.158748 1.19 37 60 23
0.165939 -0.158748 1.19 38 59 22
0.167788 -0.158748 1.19 39 60 23
0.169636 -0.158748 1.19 40 61 24
0.171484 -0.158748 1.19 41 62 25
0.173332 -0.158748 1.19 40 61 24
0.17518 -0.158748 1.19 41 62 25
0.177028 -0.158748 1.19 41 63 24
0.178876 -0.158748 1.19 40 62 23
0.180724 -0.158748 1.19 40 62 23
0.182572 -0.158748 1.19 41 63 24
0.184266 -0.158615 1.189 41 63 24
0.186112 -0.158615 1.189 43 65 26
0.187801 -0.158481 1.188 43 65 26
0.189486 -0.158348 1.187 41 63 24
0.191168 -0.158215 1.186 41 63 24
0.19301 -0.158215 1.186 41 63 24
0.194688 -0.158081 1.185 40 62 23
0.196694 -0.158215 1.186 43 65 26
0.198368 -0.158081 1.185 43 65 26
0.200378 -0.158215 1.186 43 65 26
0.20239 -0.158348 1.187 41 63 24
0.204234 -0.158348 1.187 40 62 23
0.206424 -0.158615 1.189 40 62 23
0.208446 -0.158748 1.19 40 62 23
0.210471 -0.158882 1.191 40 62 23
0.212499 -0.159015 1.192 39 61 22
0.21453 -0.159148 1.193 40 62 23
0.216564 -0.159282 1.194 40 62 23
0.218418 -0.159282 1.194 40 62 23
0.220457 -0.159415 1.195 40 62 23
0.222313 -0.159415 1.195 38 62 23
0.224169 -0.159415 1.195 38 62 23
0.226025 -0.159415 1.195 37 60 23
0.227881 -0.159415 1.195 37 60 23
0.229736 -0.159415 1.195 35 57 23
0.231399 -0.159282 1.194 34 56 22
0.233057 -0.159148 1.193 32 54 20
0.234713 -0.159015 1.192 31 53 19
0.236565 -0.159015 1.192 29 50 18
0.238216 -0.158882 1.191 28 49 17
0.239864 -0.158748 1.19 28 48 19
0.241712 -0.158748 1.19 27 47 18
0.243355 -0.158615 1.189 27 45 16
0.244996 -0.158481 1.188 26 44 15
0.246633 -0.158348 1.187 25 43 14
0.248686 -0.158481 1.188 23 41 12
0.250531 -0.158481 1.188 20 38 9
0.252376 -0.158481 1.188 19 37 8
0.254435 -0.158615 1.189 18 36 7
0.256281 -0.158615 1.189 17 35 6
0.258345 -0.158748 1.19 19 37 10
0.260193 -0.158748 1.19 19 37 10
0.262041 -0.158748 1.19 20 38 11
0.263889 -0.158748 1.19 19 37 10
0.265737 -0.158748 1.19 19 37 10
0.267586 -0.158748 1.19 17 35 8
0.269434 -0.158748 1.19 18 36 9
0.271282 -0.158748 1.19 22 40 13
0.27313 -0.158748 1.19 23 41 14
0.274978 -0.158748 1.19 23 41 14
0.276826 -0.158748 1.19 23 41 14
0.278674 -0.158748 1.19 22 40 13
0.280522 -0.158748 1.19 18 37 12
0.28237 -0.158748 1.19 17 36 11
0.284457 -0.158882 1.191 17 36 11
0.286307 -0.158882 1.191 16 35 10
0.288157 -0.158882 1.191 17 36 11
0.29025 -0.159015 1.192 18 37 12
0.292101 -0.159015 1.192 20 39 14
0.293952 -0.159015 1.192 20 39 14
0.296052 -0.159148 1.193 18 37 12
0.298154 -0.159282 1.194 18 37 12
0.300008 -0.159282 1.194 18 36 14
0.302116 -0.159415 1.195 18 36 14
0.303971 -0.159415 1.195 20 38 16
0.306083 -0.159549 1.196 20 38 16
0.307941 -0.159549 1.196 18 36 14
0.309798 -0.159549 1.196 17 35 13
0.311916 -0.159682 1.197 20 38 16
0.313775 -0.159682 1.197 21 39 17
0.315634 -0.159682 1.197 21 39 17
0.317758 -0.159815 1.198 21 39 17
0.319619 -0.159815 1.198 20 38 16
0.321211 -0.159682 1.197 18 36 14
0.3228 -0.159549 1.196 20 38 16
0.324386 -0.159415 1.195 21 39 17
0.325969 -0.159282 1.194 22 40 18
0.327274 -0.159015 1.192 22 40 18
0.328849 -0.158882 1.191 22 40 18
0.330421 -0.158748 1.19 22 40 18
0.331432 -0.158348 1.187 23 41 19
0.333275 -0.158348 1.187 23 41 19
0.334836 -0.158215 1.186 24 42 20
0.336678 -0.158215 1.186 28 46 24
0.33852 -0.158215 1.186 28 46 24
0.340075 -0.158081 1.185 28 46 24
0.342204 -0.158215 1.186 23 41 19
0.344046 -0.158215 1.186 22 40 18
0.345888 -0.158215 1.186 23 41 19
0.34773 -0.158215 1.186 25 43 21
0.349277 -0.158081 1.185 24 41 21
0.350821 -0.157948 1.184 23 40 20
0.352064 -0.157681 1.182 23 40 20
0.3536 -0.157548 1.181 24 41 21
0.354832 -0.157281 1.179 24 40 23
0.355756 -0.156881 1.176 21 37 20
0.35667 -0.15648 1.173 13 29 14
0.35788 -0.156214 1.171 16 32 17
0.35847 -0.15568 1.167 18 33 20
0.359357 -0.15528 1.164 16 31 18
0.360234 -0.15488 1.161 17 31 21
0.35923 -0.153679 1.152 10 24 14
0.359766 -0.153145 1.148 13 22 21
0.360289 -0.152612 1.144 45 54 53
0.360799 -0.152078 1.14 96 104 106
0.361616 -0.151678 1.137 105 113 115
0.362423 -0.151278 1.134 112 120 122
0.363542 -0.151011 1.132 108 116 118
0.3653 -0.151011 1.132 63 67 72
0.367382 -0.151144 1.133 39 43 48
-0.1663 -0.156502 1.187 10 27 7
-0.164457 -0.156502 1.187 15 32 12
-0.16275 -0.156634 1.188 18 36 14
-0.161041 -0.156766 1.189 17 35 13
-0.159328 -0.156898 1.19 21 39 17
-0.15748 -0.156898 1.19 21 39 17
-0.155763 -0.15703 1.191 20 39 14
-0.154042 -0.157162 1.192 22 41 16
-0.152191 -0.157162 1.192 23 43 16
-0.15034 -0.157162 1.192 24 44 17
-0.148488 -0.157162 1.192 28 48 19
-0.146514 -0.15703 1.191 29 49 20
-0.144543 -0.156898 1.19 30 50 21
-0.142695 -0.156898 1.19 32 52 23
-0.140729 -0.156766 1.189 34 54 25
-0.138765 -0.156634 1.188 34 54 25
-0.136805 -0.156502 1.187 34 55 23
-0.134848 -0.15637 1.186 29 50 18
-0.132894 -0.156239 1.185 24 45 13
-0.131053 -0.156239 1.185 28 49 17
-0.129104 -0.156107 1.184 30 51 19
-0.127158 -0.155975 1.183 32 53 21
-0.12532 -0.155975 1.183 29 50 18
-0.123483 -0.155975 1.183 29 50 18
-0.121646 -0.155975 1.183 30 51 19
-0.119809 -0.155975 1.183 29 50 18
-0.117972 -0.155975 1.183 29 50 18
-0.116134 -0.155975 1.183 30 51 19
-0.114297 -0.155975 1.183 30 51 19
-0.112555 -0.156107 1.184 30 51 19
-0.110716 -0.156107 1.184 30 51 19
-0.108969 -0.156239 1.185 30 51 19
-0.107129 -0.156239 1.185 30 51 19
-0.105289 -0.156239 1.185 31 52 20
-0.103536 -0.15637 1.186 31 52 20
-0.101694 -0.15637 1.186 31 52 20
-0.0999359 -0.156502 1.187 29 50 18
-0.0980925 -0.156502 1.187 29 50 18
-0.096249 -0.156502 1.187 29 50 18
-0.0944056 -0.156502 1.187 29 50 18
-0.0925621 -0.156502 1.187 30 51 19
-0.0907186 -0.156502 1.187 28 49 17
-0.0888752 -0.156502 1.187 28 49 17
-0.0871051 -0.156634 1.188 28 49 17
-0.0852601 -0.156634 1.188 29 50 18
-0.0834151 -0.156634 1.188 28 49 17
-0.0815701 -0.156634 1.188 27 48 16
-0.079725 -0.156634 1.188 28 49 17
-0.07788 -0.156634 1.188 30 51 19
-0.076099 -0.156766 1.189 29 50 18
-0.0742525 -0.156766 1.189 30 51 19
-0.0724668 -0.156898 1.19 28 49 17
-0.0706187 -0.156898 1.19 27 48 16
-0.0687706 -0.156898 1.19 28 49 17
-0.0669225 -0.156898 1.19 30 51 19
-0.0651291 -0.15703 1.191 30 51 19
-0.0614813 -0.157162 1.192 30 51 19
-0.0596301 -0.157162 1.192 29 50 18
-0.0577789 -0.157162 1.192 29 50 18
-0.0559277 -0.157162 1.192 30 51 19
-0.0522252 -0.157162 1.192 28 49 17
-0.050374 -0.157162 1.192 28 49 17
-0.0485228 -0.157162 1.192 28 49 17
-0.0466324 -0.15703 1.191 28 49 17
-0.0447452 -0.156898 1.19 29 50 18
-0.042861 -0.156766 1.189 29 50 18
-0.0410144 -0.156766 1.189 29 50 18
-0.039102 -0.156502 1.187 29 50 18
-0.0372272 -0.15637 1.186 28 49 17
-0.0353853 -0.15637 1.186 27 48 16
-0.0335434 -0.15637 1.186 29 50 18
-0.0317015 -0.15637 1.186 30 51 19
-0.0298596 -0.15637 1.186 29 50 18
-0.0280413 -0.156502 1.187 30 51 19
-0.0261978 -0.156502 1.187 29 50 18
-0.0243544 -0.156502 1.187 30 51 19
-0.0225109 -0.156502 1.187 29 50 18
-0.0206675 -0.156502 1.187 30 51 19
-0.018824 -0.156502 1.187 30 51 19
-0.0169949 -0.156634 1.188 30 51 19
-0.0151626 -0.156766 1.189 30 51 19
-0.0133273 -0.156898 1.19 31 52 20
-0.0114792 -0.156898 1.19 31 52 20
-0.00963916 -0.15703 1.191 31 52 20
-0.0077895 -0.15703 1.191 30 51 19
-0.00594482 -0.157162 1.192 36 57 25
-0.00409017 -0.15703 1.191 36 57 25
-0.0022405 -0.15703 1.191 34 55 23
-0.000390841 -0.15703 1.191 34 55 23
0.0014576 -0.156898 1.19 34 55 23
0.00330571 -0.156898 1.19 34 55 23
0.00515382 -0.156898 1.19 34 55 23
0.00700193 -0.156898 1.19 32 53 21
0.00885004 -0.156898 1.19 35 56 24
0.0106892 -0.156766 1.189 35 56 24
0.0125357 -0.156766 1.189 35 56 24
0.0143823 -0.156766 1.189 35 56 24
0.0162152 -0.156634 1.188 34 55 23
0.0180602 -0.156634 1.188 32 53 21
0.0198884 -0.156502 1.187 32 53 21
0.0217319 -0.156502 1.187 32 53 21
0.0235356 -0.156239 1.185 31 52 20
0.025376 -0.156239 1.185 32 53 21
0.0272163 -0.156239 1.185 32 53 21
0.0290567 -0.156239 1.185 32 53 21
0.030897 -0.156239 1.185 32 53 21
0.0327373 -0.156239 1.185 32 53 21
0.0345777 -0.156239 1.185 35 56 24
0.036418 -0.156239 1.185 36 58 24
0.0382907 -0.15637 1.186 34 56 22
0.0401664 -0.156502 1.187 35 57 23
0.0420099 -0.156502 1.187 32 54 20
0.0439272 -0.156766 1.189 32 54 20
0.0458123 -0.156898 1.19 32 54 20
0.0477405 -0.157162 1.192 34 56 22
0.0496333 -0.157293 1.193 32 54 20
0.0515292 -0.157425 1.194 31 53 19
0.0534282 -0.157557 1.195 32 54 20
0.0552841 -0.157557 1.195 31 53 19
0.05714 -0.157557 1.195 32 54 20
0.0590452 -0.157689 1.196 32 54 20
0.0608517 -0.157557 1.195 34 56 22
0.0627601 -0.157689 1.196 36 58 24
0.0645635 -0.157557 1.195 35 57 23
0.0664194 -0.157557 1.195 35 57 23
0.0682752 -0.157557 1.195 35 57 23
0.0701311 -0.157557 1.195 31 53 19
0.071987 -0.157557 1.195 27 49 15
0.0738429 -0.157557 1.195 31 53 19
0.0756988 -0.157557 1.195 36 58 24
0.0775546 -0.157557 1.195 34 56 22
0.0794105 -0.157557 1.195 35 57 23
0.0813344 -0.157689 1.196 34 57 20
0.0831223 -0.157557 1.195 34 57 20
0.0849781 -0.157557 1.195 34 57 20
0.086834 -0.157557 1.195 35 58 21
0.0886899 -0.157557 1.195 35 58 21
0.0905458 -0.157557 1.195 35 58 21
0.0924016 -0.157557 1.195 36 59 22
0.0942575 -0.157557 1.195 36 59 22
0.0961134 -0.157557 1.195 36 59 22
0.0978873 -0.157425 1.194 36 59 22
0.0996581 -0.157293 1.193 35 58 21
0.101511 -0.157293 1.193 35 58 21
0.103277 -0.157162 1.192 35 58 21
0.105128 -0.157162 1.192 36 59 22
0.10689 -0.15703 1.191 37 60 23
0.108648 -0.156898 1.19 37 60 23
0.110496 -0.156898 1.19 37 60 23
0.112344 -0.156898 1.19 37 60 23
0.114096 -0.156766 1.189 36 59 22
0.115943 -0.156766 1.189 35 58 21
0.117789 -0.156766 1.189 36 59 22
0.119636 -0.156766 1.189 36 59 22
0.121483 -0.156766 1.189 37 60 23
0.123329 -0.156766 1.189 37 60 23
0.125176 -0.156766 1.189 38 61 24
0.127022 -0.156766 1.189 38 61 24
0.128977 -0.156898 1.19 38 61 24
0.130825 -0.156898 1.19 38 61 24
0.132673 -0.156898 1.19 37 60 23
0.134522 -0.156898 1.19 36 59 22
0.136484 -0.15703 1.191 37 60 23
0.138334 -0.15703 1.191 36 59 22
0.140066 -0.156898 1.19 37 60 23
0.141914 -0.156898 1.19 37 60 23
0.143762 -0.156898 1.19 36 59 22
0.14561 -0.156898 1.19 37 60 23
0.147334 -0.156766 1.189 37 60 23
0.149181 -0.156766 1.189 37 60 23
0.151028 -0.156766 1.189 37 60 23
0.152746 -0.156634 1.188 37 60 23
0.154591 -0.156634 1.188 37 60 23
0.156436 -0.156634 1.188 41 64 27
0.158281 -0.156634 1.188 39 62 25
0.160126 -0.156634 1.188 39 62 25
0.161971 -0.156634 1.188 39 62 25
0.163816 -0.156634 1.188 36 59 22
0.165661 -0.156634 1.188 39 60 23
0.167647 -0.156766 1.189 39 60 23
0.169493 -0.156766 1.189 39 60 23
0.17134 -0.156766 1.189 40 61 24
0.173332 -0.156898 1.19 40 61 24
0.17518 -0.156898 1.19 41 62 25
0.177028 -0.156898 1.19 41 62 25
0.178726 -0.156766 1.189 40 61 24
0.180724 -0.156898 1.19 40 61 24
0.182572 -0.156898 1.19 41 62 25
0.184421 -0.156898 1.19 41 62 25
0.186112 -0.156766 1.189 41 62 25
0.187959 -0.156766 1.189 41 62 25
0.189646 -0.156634 1.188 41 62 25
0.191329 -0.156502 1.187 43 64 27
0.193173 -0.156502 1.187 41 62 25
0.194852 -0.15637 1.186 40 61 24
0.19686 -0.156502 1.187 41 62 25
0.198703 -0.156502 1.187 43 64 27
0.200547 -0.156502 1.187 43 64 27
0.20239 -0.156502 1.187 41 62 25
0.204234 -0.156502 1.187 40 61 24
0.206424 -0.156766 1.189 39 60 23
0.208446 -0.156898 1.19 40 61 24
0.210648 -0.157162 1.192 40 61 24
0.212677 -0.157293 1.193 40 61 24
0.21471 -0.157425 1.194 40 61 24
0.216564 -0.157425 1.194 40 61 24
0.218601 -0.157557 1.195 40 61 24
0.220457 -0.157557 1.195 40 61 24
0.222313 -0.157557 1.195 41 62 25
0.224169 -0.157557 1.195 40 61 24
0.226025 -0.157557 1.195 40 61 24
0.227881 -0.157557 1.195 39 60 23
0.229736 -0.157557 1.195 38 58 24
0.231399 -0.157425 1.194 37 57 23
0.233057 -0.157293 1.193 37 57 23
0.234713 -0.157162 1.192 37 57 23
0.236565 -0.157162 1.192 34 53 21
0.238216 -0.15703 1.191 30 49 17
0.239864 -0.156898 1.19 29 48 16
0.241712 -0.156898 1.19 27 46 14
0.243355 -0.156766 1.189 26 45 13
0.244996 -0.156634 1.188 25 44 12
0.246841 -0.156634 1.188 25 44 12
0.248686 -0.156634 1.188 23 42 10
0.250531 -0.156634 1.188 19 38 6
0.252588 -0.156766 1.189 18 37 5
0.254435 -0.156766 1.189 18 36 7
0.256281 -0.156766 1.189 18 36 7
0.258345 -0.156898 1.19 17 37 10
0.260193 -0.156898 1.19 18 38 11
0.262041 -0.156898 1.19 17 37 10
0.263889 -0.156898 1.19 17 37 10
0.265737 -0.156898 1.19 17 37 10
0.267586 -0.156898 1.19 16 36 9
0.269434 -0.156898 1.19 16 36 9
0.271282 -0.156898 1.19 16 36 9
0.27313 -0.156898 1.19 17 37 10
0.274978 -0.156898 1.19 18 38 11
0.276826 -0.156898 1.19 18 37 12
0.278674 -0.156898 1.19 18 37 12
0.280522 -0.156898 1.19 18 37 12
0.28237 -0.156898 1.19 17 36 11
0.284219 -0.156898 1.19 16 35 10
0.286067 -0.156898 1.19 17 36 11
0.287915 -0.156898 1.19 20 39 14
0.290006 -0.15703 1.191 18 37 12
0.292101 -0.157162 1.192 20 39 14
0.293952 -0.157162 1.192 18 37 12
0.296052 -0.157293 1.193 18 37 12
0.297904 -0.157293 1.193 18 37 12
0.300008 -0.157425 1.194 18 36 14
0.302116 -0.157557 1.195 18 36 14
0.303971 -0.157557 1.195 20 38 16
0.306083 -0.157689 1.196 20 38 16
0.308198 -0.157821 1.197 21 39 17
0.310057 -0.157821 1.197 20 38 16
0.311916 -0.157821 1.197 20 38 16
0.314037 -0.157953 1.198 20 38 16
0.315898 -0.157953 1.198 18 36 14
0.317758 -0.157953 1.198 17 35 13
0.319619 -0.157953 1.198 18 36 14
0.321211 -0.157821 1.197 18 36 14
0.32253 -0.157557 1.195 20 38 16
0.324386 -0.157557 1.195 21 39 17
0.325696 -0.157293 1.193 22 40 18
0.327274 -0.157162 1.192 22 40 18
0.328573 -0.156898 1.19 23 41 19
0.329588 -0.156502 1.187 23 41 19
0.331153 -0.15637 1.186 24 42 20
0.332714 -0.156239 1.185 25 43 21
0.334554 -0.156239 1.185 25 43 21
0.336394 -0.156239 1.185 28 46 24
0.338235 -0.156239 1.185 28 46 24
0.340075 -0.156239 1.185 27 45 23
0.341915 -0.156239 1.185 24 42 20
0.343756 -0.156239 1.185 23 41 19
0.345596 -0.156239 1.185 24 42 20
0.347436 -0.156239 1.185 25 43 21
0.348982 -0.156107 1.184 25 42 22
0.350228 -0.155843 1.182 24 41 21
0.351766 -0.155711 1.181 23 40 20
0.353301 -0.155579 1.18 24 41 21
0.354531 -0.155316 1.178 24 40 23
0.355453 -0.15492 1.175 22 38 21
0.35667 -0.154656 1.173 17 33 18
0.357575 -0.154261 1.17 20 36 21
0.35847 -0.153865 1.167 21 36 23
0.359048 -0.153338 1.163 18 33 20
0.359923 -0.152942 1.16 20 34 24
0.358918 -0.151756 1.151 10 24 14
0.359452 -0.151228 1.147 15 24 23
0.359659 -0.150569 1.142 48 57 56
0.360799 -0.150306 1.14 100 108 110
0.361298 -0.149778 1.136 107 115 117
0.362423 -0.149514 1.134 111 119 121
0.363542 -0.149251 1.132 105 113 115
0.3653 -0.149251 1.132 71 75 80
0.367706 -0.149514 1.134 38 42 47
-0.16616 -0.154526 1.186 3 20 0
-0.164457 -0.154657 1.187 11 28 8
-0.162613 -0.154657 1.187 16 31 11
-0.161041 -0.154917 1.189 16 31 11
-0.159328 -0.155048 1.19 15 30 10
-0.15748 -0.155048 1.19 13 28 8
-0.155632 -0.155048 1.19 15 30 10
-0.153784 -0.155048 1.19 18 33 13
-0.152063 -0.155178 1.191 18 37 12
-0.150214 -0.155178 1.191 24 43 18
-0.148239 -0.155048 1.19 23 43 16
-0.146391 -0.155048 1.19 21 41 14
-0.144543 -0.155048 1.19 21 41 12
-0.142575 -0.154917 1.189 21 41 12
-0.14061 -0.154787 1.188 25 47 18
-0.138648 -0.154657 1.187 18 40 11
-0.136805 -0.154657 1.187 23 45 16
-0.134848 -0.154526 1.186 23 45 16
-0.132894 -0.154396 1.185 22 44 15
-0.131053 -0.154396 1.185 27 49 20
-0.129213 -0.154396 1.185 26 48 19
-0.127265 -0.154266 1.184 26 48 19
-0.125426 -0.154266 1.184 26 48 19
-0.123692 -0.154396 1.185 26 48 19
-0.121852 -0.154396 1.185 27 49 20
-0.120011 -0.154396 1.185 27 49 20
-0.118171 -0.154396 1.185 27 49 20
-0.116331 -0.154396 1.185 28 50 21
-0.11449 -0.154396 1.185 28 51 19
-0.11265 -0.154396 1.185 28 51 19
-0.11081 -0.154396 1.185 28 51 19
-0.108969 -0.154396 1.185 28 51 19
-0.107129 -0.154396 1.185 28 51 19
-0.105289 -0.154396 1.185 28 51 19
-0.103536 -0.154526 1.186 28 51 19
-0.101694 -0.154526 1.186 27 50 18
-0.0999359 -0.154657 1.187 27 50 18
-0.0980925 -0.154657 1.187 27 50 18
-0.096249 -0.154657 1.187 29 50 18
-0.0944056 -0.154657 1.187 29 50 18
-0.0925621 -0.154657 1.187 29 50 18
-0.0907186 -0.154657 1.187 28 49 17
-0.0889501 -0.154787 1.188 28 49 17
-0.0871051 -0.154787 1.188 29 50 18
-0.0834853 -0.154917 1.189 30 51 19
-0.0816387 -0.154917 1.189 27 48 16
-0.0797922 -0.154917 1.189 29 50 18
-0.076163 -0.155048 1.19 29 50 18
-0.0743149 -0.155048 1.19 30 51 19
-0.0724668 -0.155048 1.19 28 49 17
-0.0706187 -0.155048 1.19 29 50 18
-0.0669787 -0.155178 1.191 30 51 19
-0.0633325 -0.155308 1.192 30 51 19
-0.0614813 -0.155308 1.192 30 51 19
-0.0596301 -0.155308 1.192 29 50 18
