ply
format ascii 1.0
comment Created by Open3D
element vertex 1374
property double x
property double y
property double z
property uchar red
property uchar green
property uchar blue
end_header
0.148428 -0.104471 1.183 16 37 12
0.150519 -0.104648 1.185 16 37 12
0.152488 -0.104736 1.186 16 37 12
0.15446 -0.104824 1.187 16 37 12
0.156436 -0.104913 1.188 16 37 12
0.158547 -0.105089 1.19 18 40 13
0.16053 -0.105178 1.191 18 40 13
0.16238 -0.105178 1.191 18 40 13
0.164367 -0.105266 1.192 16 38 11
0.166218 -0.105266 1.192 16 38 11
0.16807 -0.105266 1.192 16 38 11
0.169921 -0.105266 1.192 16 38 11
0.171772 -0.105266 1.192 16 38 11
0.173623 -0.105266 1.192 16 38 11
0.175327 -0.105178 1.191 16 38 11
0.177177 -0.105178 1.191 14 36 7
0.178876 -0.105089 1.19 19 41 12
0.180724 -0.105089 1.19 20 43 11
0.182572 -0.105089 1.19 22 45 13
0.184266 -0.105001 1.189 23 47 13
0.186112 -0.105001 1.189 20 44 10
0.187801 -0.104913 1.188 31 53 19
0.189486 -0.104824 1.187 39 61 27
0.191329 -0.104824 1.187 42 64 30
0.193173 -0.104824 1.187 45 67 33
0.195016 -0.104824 1.187 44 69 32
0.196694 -0.104736 1.186 44 69 32
0.198536 -0.104736 1.186 47 72 35
0.200378 -0.104736 1.186 47 72 35
0.20222 -0.104736 1.186 42 67 30
0.204062 -0.104736 1.186 40 65 28
0.205903 -0.104736 1.186 42 67 30
0.207745 -0.104736 1.186 46 71 34
0.209587 -0.104736 1.186 46 70 31
0.211429 -0.104736 1.186 44 68 29
0.213271 -0.104736 1.186 42 66 27
0.215294 -0.104824 1.187 42 66 27
0.217138 -0.104824 1.187 42 66 27
0.218981 -0.104824 1.187 42 66 27
0.220825 -0.104824 1.187 42 66 27
0.222668 -0.104824 1.187 41 65 26
0.224512 -0.104824 1.187 39 62 25
0.226355 -0.104824 1.187 38 61 24
0.228198 -0.104824 1.187 42 64 30
0.230042 -0.104824 1.187 35 57 23
0.231885 -0.104824 1.187 29 51 17
0.233729 -0.104824 1.187 29 51 17
0.235572 -0.104824 1.187 30 51 19
0.237416 -0.104824 1.187 29 50 18
0.239259 -0.104824 1.187 25 45 16
0.241103 -0.104824 1.187 24 44 15
0.242741 -0.104736 1.186 22 42 13
0.244583 -0.104736 1.186 22 42 13
0.246425 -0.104736 1.186 21 41 14
0.248476 -0.104824 1.187 16 36 9
0.25032 -0.104824 1.187 9 27 5
0.252163 -0.104824 1.187 11 29 7
0.254007 -0.104824 1.187 11 28 8
0.25585 -0.104824 1.187 11 28 8
0.257911 -0.104913 1.188 10 27 7
0.259756 -0.104913 1.188 10 27 7
0.261601 -0.104913 1.188 10 27 7
0.263668 -0.105001 1.189 10 27 7
0.265514 -0.105001 1.189 10 27 7
0.267361 -0.105001 1.189 10 27 7
0.269207 -0.105001 1.189 9 25 8
0.271054 -0.105001 1.189 9 25 8
0.2729 -0.105001 1.189 11 27 10
0.274747 -0.105001 1.189 10 26 9
0.276593 -0.105001 1.189 13 29 12
0.27844 -0.105001 1.189 11 27 10
0.280287 -0.105001 1.189 11 27 10
0.281896 -0.104913 1.188 10 26 9
0.283741 -0.104913 1.188 10 26 11
0.285586 -0.104913 1.188 10 26 11
0.287673 -0.105001 1.189 10 26 11
0.289276 -0.104913 1.188 11 27 12
0.291366 -0.105001 1.189 11 27 10
0.293459 -0.105089 1.19 10 26 9
0.295307 -0.105089 1.19 10 26 11
0.297155 -0.105089 1.19 10 26 11
0.299003 -0.105089 1.19 10 26 11
0.301104 -0.105178 1.191 11 27 12
0.303208 -0.105266 1.192 11 27 10
0.30506 -0.105266 1.192 11 27 10
0.306911 -0.105266 1.192 11 27 10
0.308503 -0.105178 1.191 11 27 10
0.310353 -0.105178 1.191 11 27 10
0.31194 -0.105089 1.19 13 29 12
0.313788 -0.105089 1.19 14 31 11
0.315371 -0.105001 1.189 13 30 10
0.316684 -0.104824 1.187 14 31 11
0.318259 -0.104736 1.186 15 32 12
0.319831 -0.104648 1.185 14 31 11
0.3214 -0.104559 1.184 16 33 13
0.322966 -0.104471 1.183 18 35 15
0.324529 -0.104383 1.182 18 35 15
0.326088 -0.104294 1.181 22 39 19
0.327645 -0.104206 1.18 28 45 25
0.329198 -0.104118 1.179 28 46 24
0.331029 -0.104118 1.179 28 46 24
0.332578 -0.10403 1.178 29 47 25
0.334407 -0.10403 1.178 27 45 23
0.336522 -0.104118 1.179 28 47 22
0.33864 -0.104206 1.18 27 46 21
0.340473 -0.104206 1.18 25 44 19
0.342595 -0.104294 1.181 28 47 22
0.344429 -0.104294 1.181 28 47 22
0.346557 -0.104383 1.182 29 48 23
0.348393 -0.104383 1.182 29 48 23
0.350228 -0.104383 1.182 27 46 21
0.351766 -0.104294 1.181 25 43 21
0.353301 -0.104206 1.18 24 42 20
0.355133 -0.104206 1.18 24 42 20
0.356966 -0.104206 1.18 23 41 19
0.358494 -0.104118 1.179 22 39 19
0.36002 -0.10403 1.178 20 37 17
0.360928 -0.103765 1.175 22 36 21
0.361826 -0.1035 1.172 22 36 21
0.362716 -0.103235 1.169 22 34 24
0.362972 -0.102793 1.164 16 28 18
0.363213 -0.102352 1.159 16 25 24
0.361234 -0.101292 1.147 88 97 96
0.361749 -0.100939 1.143 106 114 121
0.361934 -0.100497 1.138 109 117 124
0.362742 -0.100232 1.135 131 139 146
0.363863 -0.100056 1.133 130 138 145
0.366913 -0.100409 1.137 96 103 112
0.370625 -0.100939 1.143 73 80 89
-0.135618 -0.0839793 0.968 0 30 47
-0.134253 -0.084066 0.969 0 23 40
-0.132885 -0.0841528 0.97 0 23 29
-0.130006 -0.0842395 0.971 0 26 31
-0.127121 -0.0843263 0.972 8 30 35
-0.138064 -0.102545 1.182 10 29 31
-0.136229 -0.102545 1.182 8 25 26
-0.134393 -0.102545 1.182 1 18 19
-0.132557 -0.102545 1.182 2 20 18
-0.130722 -0.102545 1.182 3 21 19
-0.128886 -0.102545 1.182 0 13 7
-0.12705 -0.102545 1.182 0 9 3
-0.12532 -0.102632 1.183 0 10 2
-0.123483 -0.102632 1.183 0 12 4
-0.120011 -0.102805 1.185 0 11 1
-0.118171 -0.102805 1.185 0 12 0
-0.116429 -0.102892 1.186 0 12 0
-0.114684 -0.102979 1.187 0 14 1
-0.112935 -0.103065 1.188 1 16 3
-0.111277 -0.103239 1.19 4 21 8
-0.109521 -0.103326 1.191 7 24 11
-0.107762 -0.103412 1.192 7 28 10
-0.105911 -0.103412 1.192 11 32 14
-0.104147 -0.103499 1.193 21 44 21
-0.10238 -0.103586 1.194 32 55 32
-0.100609 -0.103673 1.195 31 55 29
-0.0987536 -0.103673 1.195 26 50 24
-0.0969788 -0.10376 1.196 28 49 24
-0.0951213 -0.10376 1.196 28 49 24
-0.0931859 -0.103673 1.195 28 50 23
-0.0913301 -0.103673 1.195 28 50 23
-0.0895491 -0.10376 1.196 28 50 23
-0.0876916 -0.10376 1.196 28 50 23
-0.0857624 -0.103673 1.195 27 49 22
-0.0839066 -0.103673 1.195 27 49 22
-0.0820507 -0.103673 1.195 27 49 22
-0.0801948 -0.103673 1.195 27 49 22
-0.0782734 -0.103586 1.194 28 50 23
-0.0763551 -0.103499 1.193 28 50 23
-0.0744398 -0.103412 1.192 29 51 22
-0.0725886 -0.103412 1.192 29 51 22
-0.0706187 -0.103239 1.19 29 51 22
-0.0687128 -0.103152 1.189 29 51 22
-0.06681 -0.103065 1.188 29 52 20
-0.064965 -0.103065 1.188 29 52 20
-0.0630669 -0.102979 1.187 29 52 20
-0.0612234 -0.102979 1.187 30 53 21
-0.0593299 -0.102892 1.186 32 55 23
-0.0575365 -0.102979 1.187 32 55 23
-0.0556462 -0.102892 1.186 30 53 21
-0.0538043 -0.102892 1.186 29 52 20
-0.0519624 -0.102892 1.186 29 52 20
-0.0501205 -0.102892 1.186 29 52 20
-0.0482786 -0.102892 1.186 29 52 20
-0.0464367 -0.102892 1.186 28 51 19
-0.0445572 -0.102805 1.185 29 52 20
-0.0426808 -0.102718 1.184 30 53 21
-0.040842 -0.102718 1.184 30 53 21
-0.0389702 -0.102632 1.183 33 56 24
-0.0371016 -0.102545 1.182 29 53 19
-0.0352659 -0.102545 1.182 29 53 19
-0.0334302 -0.102545 1.182 30 54 20
-0.0315946 -0.102545 1.182 29 53 19
-0.0297589 -0.102545 1.182 32 56 22
-0.0279232 -0.102545 1.182 34 58 24
-0.0261096 -0.102632 1.183 35 59 25
-0.0242928 -0.102718 1.184 28 52 18
-0.022473 -0.102805 1.185 28 52 18
-0.0206327 -0.102805 1.185 29 53 19
-0.0188082 -0.102892 1.186 32 56 22
-0.0169806 -0.102979 1.187 34 58 24
-0.0151371 -0.102979 1.187 34 58 24
-0.0132937 -0.102979 1.187 36 60 26
-0.0114502 -0.102979 1.187 37 59 25
-0.00961488 -0.103065 1.188 36 58 24
-0.00776987 -0.103065 1.188 47 71 37
-0.00592487 -0.103065 1.188 51 75 41
-0.0040833 -0.103152 1.189 36 58 24
-0.00223862 -0.103239 1.19 27 49 15
-0.000390513 -0.103239 1.19 34 56 22
0.0014576 -0.103239 1.19 35 57 23
0.00330849 -0.103326 1.191 35 57 23
0.00515815 -0.103326 1.191 35 57 23
0.00700781 -0.103326 1.191 34 56 22
0.00885748 -0.103326 1.191 32 54 20
0.0107161 -0.103412 1.192 34 56 22
0.0125568 -0.103326 1.191 32 54 20
0.0144065 -0.103326 1.191 34 56 22
0.0162561 -0.103326 1.191 36 58 24
0.0180906 -0.103239 1.19 37 59 25
0.0199387 -0.103239 1.19 37 59 25
0.0217685 -0.103152 1.189 36 58 24
0.0235952 -0.103065 1.188 36 58 24
0.0254188 -0.102979 1.187 37 59 25
0.0272622 -0.102979 1.187 36 58 24
0.0291057 -0.102979 1.187 37 59 25
0.0309231 -0.102892 1.186 41 63 29
0.0327926 -0.102979 1.187 42 64 30
0.0346069 -0.102892 1.186 37 59 25
0.0364488 -0.102892 1.186 37 59 25
0.038323 -0.102979 1.187 36 58 24
0.0401664 -0.102979 1.187 36 58 24
0.0420099 -0.102979 1.187 36 58 24
0.0438903 -0.103065 1.188 35 57 23
0.0457738 -0.103152 1.189 32 54 20
0.0476604 -0.103239 1.19 32 56 22
0.0495085 -0.103239 1.19 29 53 19
0.0513566 -0.103239 1.19 28 52 18
0.0532047 -0.103239 1.19 29 53 19
0.0550528 -0.103239 1.19 27 50 18
0.0569009 -0.103239 1.19 26 49 17
0.058749 -0.103239 1.19 26 49 17
0.0605971 -0.103239 1.19 25 48 16
0.0624452 -0.103239 1.19 23 45 16
0.0642393 -0.103152 1.189 22 44 15
0.0660303 -0.103065 1.188 25 47 18
0.0678753 -0.103065 1.188 23 45 16
0.0696616 -0.102979 1.187 20 42 15
0.0715051 -0.102979 1.187 21 43 16
0.0733485 -0.102979 1.187 19 41 14
0.075192 -0.102979 1.187 13 35 8
0.0770354 -0.102979 1.187 14 35 10
0.0788789 -0.102979 1.187 8 29 4
0.0807223 -0.102979 1.187 15 36 11
0.0826353 -0.103065 1.188 21 42 17
0.0844803 -0.103065 1.188 19 40 15
0.086398 -0.103152 1.189 16 37 12
0.0883188 -0.103239 1.19 15 36 11
0.0901669 -0.103239 1.19 11 32 7
0.092015 -0.103239 1.19 14 35 10
0.093942 -0.103326 1.191 14 35 10
0.0957917 -0.103326 1.191 15 36 11
0.0976413 -0.103326 1.191 16 37 12
0.0994075 -0.103239 1.19 21 42 17
0.101256 -0.103239 1.19 19 40 15
0.103104 -0.103239 1.19 13 35 8
0.104864 -0.103152 1.189 13 35 8
0.10662 -0.103065 1.188 15 37 10
0.108465 -0.103065 1.188 18 40 13
0.110218 -0.102979 1.187 19 41 14
0.111967 -0.102892 1.186 19 41 14
0.113713 -0.102805 1.185 19 41 14
0.115455 -0.102718 1.184 18 40 13
0.117294 -0.102718 1.184 18 40 13
0.119032 -0.102632 1.183 18 40 13
0.12087 -0.102632 1.183 18 40 13
0.122707 -0.102632 1.183 18 40 13
0.124439 -0.102545 1.182 18 39 14
0.126274 -0.102545 1.182 16 37 12
0.12811 -0.102545 1.182 16 37 12
0.129946 -0.102545 1.182 15 36 11
0.13167 -0.102458 1.181 15 36 11
0.133391 -0.102371 1.18 15 36 11
0.135224 -0.102371 1.18 14 35 10
0.137056 -0.102371 1.18 14 35 10
0.138771 -0.102285 1.179 14 35 10
0.140721 -0.102371 1.18 16 37 12
0.142554 -0.102371 1.18 15 36 11
0.144387 -0.102371 1.18 15 36 11
0.146343 -0.102458 1.181 16 37 12
0.148303 -0.102545 1.182 16 37 12
0.150392 -0.102718 1.184 16 37 12
0.152488 -0.102892 1.186 18 39 14
0.15446 -0.102979 1.187 18 39 14
0.156699 -0.103239 1.19 18 39 14
0.158547 -0.103239 1.19 18 39 14
0.160665 -0.103412 1.192 16 37 12
0.162516 -0.103412 1.192 16 37 12
0.164367 -0.103412 1.192 16 37 12
0.166358 -0.103499 1.193 18 39 14
0.168211 -0.103499 1.193 18 39 14
0.170063 -0.103499 1.193 18 39 14
0.171772 -0.103412 1.192 18 39 14
0.173623 -0.103412 1.192 18 39 14
0.175474 -0.103412 1.192 19 40 15
0.177177 -0.103326 1.191 18 40 13
0.179027 -0.103326 1.191 19 41 14
0.180724 -0.103239 1.19 15 37 10
0.182572 -0.103239 1.19 13 35 8
0.184266 -0.103152 1.189 12 34 5
0.185956 -0.103065 1.188 12 34 5
0.187643 -0.102979 1.187 18 41 9
0.189486 -0.102979 1.187 29 52 20
0.191329 -0.102979 1.187 34 57 25
0.193173 -0.102979 1.187 36 59 27
0.194852 -0.102892 1.186 34 58 24
0.196694 -0.102892 1.186 34 58 24
0.198536 -0.102892 1.186 37 62 25
0.200378 -0.102892 1.186 46 71 34
0.20222 -0.102892 1.186 44 69 32
0.204062 -0.102892 1.186 39 64 27
0.205903 -0.102892 1.186 41 66 29
0.20792 -0.102979 1.187 41 66 29
0.209764 -0.102979 1.187 44 68 29
0.211607 -0.102979 1.187 44 68 29
0.213451 -0.102979 1.187 43 67 28
0.215294 -0.102979 1.187 42 66 27
0.217138 -0.102979 1.187 41 65 26
0.218981 -0.102979 1.187 39 63 24
0.220825 -0.102979 1.187 41 65 26
0.222668 -0.102979 1.187 39 63 24
0.224701 -0.103065 1.188 38 61 24
0.226546 -0.103065 1.188 38 61 24
0.228391 -0.103065 1.188 35 57 23
0.230236 -0.103065 1.188 31 53 19
0.232081 -0.103065 1.188 28 49 17
0.233926 -0.103065 1.188 29 50 18
0.235572 -0.102979 1.187 28 49 17
0.237416 -0.102979 1.187 29 50 18
0.239259 -0.102979 1.187 29 49 20
0.241103 -0.102979 1.187 27 47 18
0.242946 -0.102979 1.187 22 42 15
0.24479 -0.102979 1.187 20 40 13
0.246633 -0.102979 1.187 16 34 12
0.248476 -0.102979 1.187 10 28 6
0.25032 -0.102979 1.187 11 29 7
0.252163 -0.102979 1.187 11 29 7
0.254221 -0.103065 1.188 11 28 8
0.256066 -0.103065 1.188 10 27 7
0.257911 -0.103065 1.188 10 26 9
0.259756 -0.103065 1.188 10 26 9
0.261821 -0.103152 1.189 9 25 8
0.263889 -0.103239 1.19 9 25 8
0.265737 -0.103239 1.19 9 25 8
0.267586 -0.103239 1.19 10 26 9
0.269434 -0.103239 1.19 9 25 8
0.271282 -0.103239 1.19 9 25 8
0.27313 -0.103239 1.19 10 26 9
0.274978 -0.103239 1.19 10 26 9
0.276826 -0.103239 1.19 11 27 10
0.278674 -0.103239 1.19 11 27 10
0.280522 -0.103239 1.19 11 27 12
0.28237 -0.103239 1.19 10 26 11
0.284219 -0.103239 1.19 11 27 12
0.286067 -0.103239 1.19 11 27 12
0.287915 -0.103239 1.19 11 27 12
0.289519 -0.103152 1.189 11 27 12
0.291611 -0.103239 1.19 11 27 12
0.293459 -0.103239 1.19 10 26 11
0.295555 -0.103326 1.191 10 26 11
0.297405 -0.103326 1.191 11 27 12
0.299255 -0.103326 1.191 11 27 12
0.301357 -0.103412 1.192 11 27 12
0.303208 -0.103412 1.192 10 26 11
0.30506 -0.103412 1.192 10 26 11
0.306911 -0.103412 1.192 10 26 11
0.308762 -0.103412 1.192 10 26 11
0.310353 -0.103326 1.191 11 27 10
0.312202 -0.103326 1.191 10 26 9
0.313788 -0.103239 1.19 11 27 10
0.315636 -0.103239 1.19 11 27 10
0.317218 -0.103152 1.189 14 31 11
0.318796 -0.103065 1.188 16 33 13
0.320101 -0.102892 1.186 17 34 14
0.321672 -0.102805 1.185 17 34 14
0.323239 -0.102718 1.184 18 35 15
0.324803 -0.102632 1.183 20 37 17
0.326364 -0.102545 1.182 22 40 18
0.327922 -0.102458 1.181 25 43 21
0.329477 -0.102371 1.18 27 45 23
0.33131 -0.102371 1.18 25 43 21
0.333142 -0.102371 1.18 29 47 25
0.334975 -0.102371 1.18 25 43 21
0.336808 -0.102371 1.18 28 46 24
0.33864 -0.102371 1.18 28 46 24
0.340473 -0.102371 1.18 27 45 23
0.342595 -0.102458 1.181 25 43 21
0.344721 -0.102545 1.182 27 45 23
0.346557 -0.102545 1.182 27 45 23
0.348393 -0.102545 1.182 27 45 23
0.350228 -0.102545 1.182 28 46 24
0.352064 -0.102545 1.182 25 43 21
0.3536 -0.102458 1.181 29 47 25
0.355133 -0.102371 1.18 29 47 25
0.356966 -0.102371 1.18 23 41 19
0.358494 -0.102285 1.179 21 37 20
0.36002 -0.102198 1.178 18 34 17
0.360928 -0.101938 1.175 20 35 22
0.361826 -0.101677 1.172 20 35 22
0.362405 -0.10133 1.168 18 31 23
0.36266 -0.100897 1.163 11 24 16
0.361019 -0.0999423 1.152 19 27 29
0.360919 -0.0994217 1.146 94 102 104
0.361432 -0.0990747 1.142 107 115 122
0.361298 -0.0985542 1.136 110 118 125
0.362423 -0.0983807 1.134 129 137 144
0.363542 -0.0982072 1.132 129 137 144
0.366913 -0.0986409 1.137 91 98 107
0.3703 -0.0990747 1.142 75 82 91
-0.135618 -0.0824741 0.968 91 146 163
-0.134115 -0.0824741 0.968 71 126 143
-0.132748 -0.0825593 0.969 54 106 117
-0.131379 -0.0826445 0.97 20 72 83
-0.130006 -0.0827297 0.971 0 42 51
-0.127121 -0.0828149 0.972 16 56 64
-0.125741 -0.0829001 0.973 0 30 38
-0.12532 -0.100792 1.183 16 34 32
-0.123588 -0.100877 1.184 10 28 26
-0.120011 -0.100963 1.185 0 12 9
-0.118171 -0.100963 1.185 0 8 6
-0.116527 -0.101133 1.187 0 10 8
-0.114684 -0.101133 1.187 0 9 4
-0.112935 -0.101218 1.188 0 13 8
-0.111277 -0.101389 1.19 0 16 12
-0.109521 -0.101474 1.191 0 17 13
-0.107762 -0.101559 1.192 0 22 12
-0.105911 -0.101559 1.192 5 28 18
-0.104234 -0.101729 1.194 10 33 17
-0.10238 -0.101729 1.194 15 38 22
-0.100609 -0.101815 1.195 19 43 22
-0.0987536 -0.101815 1.195 22 46 25
-0.0968977 -0.101815 1.195 26 49 26
-0.0950418 -0.101815 1.195 26 49 26
-0.0931859 -0.101815 1.195 25 49 23
-0.0914065 -0.1019 1.196 25 49 23
-0.0895491 -0.1019 1.196 25 49 23
-0.0876183 -0.101815 1.195 25 49 23
-0.0857624 -0.101815 1.195 25 49 23
-0.0839066 -0.101815 1.195 25 49 23
-0.0820507 -0.101815 1.195 26 48 21
-0.0801948 -0.101815 1.195 28 50 23
-0.0782734 -0.101729 1.194 29 51 24
-0.0763551 -0.101644 1.193 29 51 24
-0.0744398 -0.101559 1.192 29 51 22
-0.0725886 -0.101559 1.192 29 51 22
-0.0706187 -0.101389 1.19 30 52 23
-0.0687706 -0.101389 1.19 30 52 23
-0.0668663 -0.101303 1.189 29 52 20
-0.064965 -0.101218 1.188 29 52 20
-0.06312 -0.101218 1.188 30 53 21
-0.0612234 -0.101133 1.187 29 52 20
-0.05938 -0.101133 1.187 28 51 19
-0.0575365 -0.101133 1.187 29 52 20
-0.0556931 -0.101133 1.187 29 52 20
-0.0538496 -0.101133 1.187 30 53 21
-0.0520062 -0.101133 1.187 30 53 21
-0.0501627 -0.101133 1.187 30 53 21
-0.0483193 -0.101133 1.187 30 53 21
-0.0464367 -0.101048 1.186 30 53 21
-0.0445572 -0.100963 1.185 32 55 23
-0.0427168 -0.100963 1.185 32 55 23
-0.040842 -0.100877 1.184 30 53 21
-0.0390032 -0.100877 1.184 32 55 23
-0.0371016 -0.100707 1.182 29 52 20
-0.0352659 -0.100707 1.182 30 53 21
-0.0334302 -0.100707 1.182 33 56 24
-0.0316213 -0.100792 1.183 33 56 24
-0.029784 -0.100792 1.183 36 59 27
-0.0279468 -0.100792 1.183 36 59 27
-0.0261096 -0.100792 1.183 36 59 27
-0.0243134 -0.100963 1.185 34 57 25
-0.022473 -0.100963 1.185 34 57 25
-0.0206327 -0.100963 1.185 34 57 25
-0.018824 -0.101133 1.187 34 57 25
-0.0169806 -0.101133 1.187 34 57 25
-0.0151371 -0.101133 1.187 32 55 23
-0.0132937 -0.101133 1.187 34 57 25
-0.0114502 -0.101133 1.187 32 55 23
-0.00961488 -0.101218 1.188 34 57 25
-0.00777641 -0.101303 1.189 51 74 42
-0.00593484 -0.101389 1.19 48 71 39
-0.00408673 -0.101389 1.19 37 60 28
-0.00223862 -0.101389 1.19 30 53 21
-0.000390513 -0.101389 1.19 34 57 25
0.00145882 -0.101474 1.191 33 56 24
0.00330849 -0.101474 1.191 35 56 24
0.00516248 -0.101559 1.192 35 56 24
0.0070137 -0.101559 1.192 36 57 25
0.00886491 -0.101559 1.192 36 57 25
0.0107161 -0.101559 1.192 36 57 25
0.0125568 -0.101474 1.191 35 56 24
0.0144065 -0.101474 1.191 34 55 23
0.0162425 -0.101389 1.19 36 57 25
0.0180906 -0.101389 1.19 37 58 26
0.0199387 -0.101389 1.19 38 59 27
0.0217502 -0.101218 1.188 37 58 26
0.0235952 -0.101218 1.188 37 58 26
0.0254188 -0.101133 1.187 38 59 27
0.0272622 -0.101133 1.187 38 59 27
0.0291057 -0.101133 1.187 38 59 27
0.0309491 -0.101133 1.187 41 62 30
0.032765 -0.101048 1.186 41 63 29
0.0346069 -0.101048 1.186 38 60 26
0.0364488 -0.101048 1.186 39 61 27
0.0382907 -0.101048 1.186 37 59 25
0.0401664 -0.101133 1.187 38 60 26
0.0420099 -0.101133 1.187 36 58 24
0.0438903 -0.101218 1.188 36 58 24
0.0457738 -0.101303 1.189 31 53 19
0.0476604 -0.101389 1.19 32 56 22
0.0495085 -0.101389 1.19 29 53 19
0.0513566 -0.101389 1.19 28 52 18
0.0532047 -0.101389 1.19 28 52 18
0.0550528 -0.101389 1.19 28 51 19
0.0569009 -0.101389 1.19 27 50 18
0.058749 -0.101389 1.19 25 48 16
0.0605971 -0.101389 1.19 23 46 14
0.0623928 -0.101303 1.189 20 42 13
0.0642393 -0.101303 1.189 21 43 14
0.0660303 -0.101218 1.188 22 44 17
0.0678753 -0.101218 1.188 18 40 13
0.0696616 -0.101133 1.187 13 35 8
0.0715051 -0.101133 1.187 14 36 9
0.0733485 -0.101133 1.187 15 36 11
0.075192 -0.101133 1.187 13 34 9
0.0770354 -0.101133 1.187 6 26 4
0.0788789 -0.101133 1.187 5 25 3
0.0807903 -0.101218 1.188 8 28 6
0.0826353 -0.101218 1.188 16 36 14
0.0846226 -0.101389 1.19 14 34 12
0.0864707 -0.101389 1.19 12 32 10
0.0883188 -0.101389 1.19 8 28 6
0.0902427 -0.101474 1.191 8 28 6
0.0920923 -0.101474 1.191 12 32 10
0.0940209 -0.101559 1.192 14 34 12
0.0958721 -0.101559 1.192 13 33 11
0.0977233 -0.101559 1.192 15 35 13
0.099491 -0.101474 1.191 20 40 18
0.101426 -0.101559 1.192 15 35 13
0.103104 -0.101389 1.19 15 36 11
0.104952 -0.101389 1.19 15 36 11
0.10671 -0.101303 1.189 15 36 11
0.108465 -0.101218 1.188 16 37 12
0.110218 -0.101133 1.187 16 37 12
0.112061 -0.101133 1.187 16 37 12
0.113713 -0.100963 1.185 16 37 12
0.115553 -0.100963 1.185 16 37 12
0.117393 -0.100963 1.185 16 37 12
0.119133 -0.100877 1.184 16 37 12
0.12087 -0.100792 1.183 16 37 12
0.122707 -0.100792 1.183 16 37 12
0.124439 -0.100707 1.182 16 36 14
0.126274 -0.100707 1.182 16 36 14
0.12811 -0.100707 1.182 16 36 14
0.129946 -0.100707 1.182 15 35 13
0.131559 -0.100537 1.18 15 35 13
0.133391 -0.100537 1.18 15 35 13
0.135109 -0.100451 1.179 14 34 12
0.13694 -0.100451 1.179 15 35 13
0.138653 -0.100366 1.178 16 36 14
0.140602 -0.100451 1.179 16 36 14
0.142433 -0.100451 1.179 16 37 12
0.144387 -0.100537 1.18 16 37 12
0.146219 -0.100537 1.18 16 37 12
0.148303 -0.100707 1.182 18 39 14
0.150519 -0.100963 1.185 16 37 12
0.152617 -0.101133 1.187 18 39 14
0.154721 -0.101303 1.189 18 39 14
0.156699 -0.101389 1.19 18 39 14
0.158813 -0.101559 1.192 18 39 14
0.160799 -0.101644 1.193 18 39 14
0.162652 -0.101644 1.193 19 40 15
0.164643 -0.101729 1.194 18 39 14
0.166497 -0.101729 1.194 19 40 15
0.168493 -0.101815 1.195 18 39 14
0.170206 -0.101729 1.194 18 39 14
0.17206 -0.101729 1.194 18 39 14
0.173769 -0.101644 1.193 16 37 12
0.175474 -0.101559 1.192 18 39 14
0.177326 -0.101559 1.192 18 39 14
0.179027 -0.101474 1.191 18 39 14
0.180724 -0.101389 1.19 16 38 11
0.182572 -0.101389 1.19 16 38 11
0.184266 -0.101303 1.189 16 38 11
0.185956 -0.101218 1.188 11 33 6
0.187643 -0.101133 1.187 12 34 5
0.189486 -0.101133 1.187 14 36 7
0.191329 -0.101133 1.187 21 43 14
0.193173 -0.101133 1.187 23 45 16
0.194852 -0.101048 1.186 23 46 14
0.196694 -0.101048 1.186 20 43 11
0.198536 -0.101048 1.186 19 43 9
0.200378 -0.101048 1.186 32 56 22
0.20222 -0.101048 1.186 44 69 32
0.204234 -0.101133 1.187 44 69 32
0.206077 -0.101133 1.187 46 72 33
0.20792 -0.101133 1.187 42 68 29
0.209764 -0.101133 1.187 42 68 29
0.211607 -0.101133 1.187 46 72 33
0.213631 -0.101218 1.188 41 67 28
0.215476 -0.101218 1.188 39 65 26
0.217321 -0.101218 1.188 42 66 27
0.219166 -0.101218 1.188 41 65 26
0.221011 -0.101218 1.188 38 62 23
0.222856 -0.101218 1.188 38 62 23
0.224701 -0.101218 1.188 36 59 22
0.226736 -0.101303 1.189 36 59 22
0.228583 -0.101303 1.189 32 54 20
0.23043 -0.101303 1.189 32 54 20
0.232276 -0.101303 1.189 29 50 18
0.233926 -0.101218 1.188 28 49 17
0.235771 -0.101218 1.188 27 48 16
0.237616 -0.101218 1.188 27 48 16
0.239461 -0.101218 1.188 27 47 18
0.241103 -0.101133 1.187 23 43 14
0.242946 -0.101133 1.187 17 37 10
0.24479 -0.101133 1.187 18 38 11
0.246633 -0.101133 1.187 13 31 9
0.248476 -0.101133 1.187 10 28 6
0.25032 -0.101133 1.187 11 28 8
0.252376 -0.101218 1.188 10 27 7
0.254221 -0.101218 1.188 10 26 9
0.256066 -0.101218 1.188 10 26 9
0.257911 -0.101218 1.188 10 26 9
0.259974 -0.101303 1.189 10 26 9
0.261821 -0.101303 1.189 10 26 9
0.263889 -0.101389 1.19 9 25 8
0.265737 -0.101389 1.19 9 25 8
0.267586 -0.101389 1.19 10 26 9
0.269434 -0.101389 1.19 10 26 11
0.271282 -0.101389 1.19 10 26 11
0.27313 -0.101389 1.19 10 26 11
0.274978 -0.101389 1.19 10 26 11
0.276826 -0.101389 1.19 10 26 11
0.278674 -0.101389 1.19 11 27 12
0.280522 -0.101389 1.19 13 29 14
0.28237 -0.101389 1.19 13 29 14
0.284219 -0.101389 1.19 13 29 14
0.286067 -0.101389 1.19 13 29 14
0.287915 -0.101389 1.19 13 29 14
0.289763 -0.101389 1.19 13 29 14
0.291856 -0.101474 1.191 10 26 11
0.293706 -0.101474 1.191 10 26 11
0.295555 -0.101474 1.191 10 26 11
0.297655 -0.101559 1.192 11 27 12
0.299506 -0.101559 1.192 11 27 12
0.301357 -0.101559 1.192 11 27 12
0.303208 -0.101559 1.192 9 25 10
0.305315 -0.101644 1.193 10 26 11
0.306911 -0.101559 1.192 11 27 12
0.309021 -0.101644 1.193 11 27 12
0.310613 -0.101559 1.192 11 27 12
0.312464 -0.101559 1.192 10 26 11
0.314052 -0.101474 1.191 10 26 9
0.315636 -0.101389 1.19 11 27 10
0.317484 -0.101389 1.19 13 29 12
0.319064 -0.101303 1.189 14 30 13
0.320371 -0.101133 1.187 17 34 14
0.321943 -0.101048 1.186 16 33 13
0.323512 -0.100963 1.185 17 34 14
0.325078 -0.100877 1.184 18 35 15
0.32664 -0.100792 1.183 22 39 19
0.3282 -0.100707 1.182 25 42 22
0.329756 -0.100622 1.181 27 45 23
0.331591 -0.100622 1.181 27 45 23
0.333425 -0.100622 1.181 28 46 24
0.335259 -0.100622 1.181 28 46 24
0.337093 -0.100622 1.181 28 46 24
0.339214 -0.100707 1.182 28 46 24
0.34105 -0.100707 1.182 25 43 21
0.342885 -0.100707 1.182 25 43 21
0.344721 -0.100707 1.182 25 43 21
0.346557 -0.100707 1.182 25 43 21
0.348393 -0.100707 1.182 27 45 23
0.350228 -0.100707 1.182 27 45 23
0.352064 -0.100707 1.182 27 45 23
0.3536 -0.100622 1.181 29 47 25
0.355133 -0.100537 1.18 34 51 31
0.356966 -0.100537 1.18 24 41 21
0.358494 -0.100451 1.179 15 31 14
0.36002 -0.100366 1.178 20 36 19
0.361235 -0.100196 1.176 21 36 23
0.362135 -0.0999403 1.173 20 35 22
0.362405 -0.0995143 1.168 18 28 23
0.36266 -0.0990883 1.163 15 25 20
0.361019 -0.098151 1.152 21 31 33
0.360919 -0.0976398 1.146 94 104 106
0.361432 -0.097299 1.142 111 121 128
0.361298 -0.0967878 1.136 113 123 130
0.362423 -0.0966174 1.134 127 135 142
0.363542 -0.096447 1.132 128 136 143
0.366591 -0.0967878 1.136 85 92 103
0.3703 -0.097299 1.142 75 82 93
-0.135618 -0.080969 0.968 77 129 153
-0.134253 -0.0810527 0.969 73 125 149
-0.132748 -0.0810527 0.969 80 131 151
-0.131379 -0.0811363 0.97 88 139 159
-0.129872 -0.0811363 0.97 91 138 150
-0.127121 -0.0813036 0.972 70 124 135
-0.125612 -0.0813036 0.972 36 90 101
-0.124357 -0.0814709 0.974 0 49 56
-0.122971 -0.0815545 0.975 0 24 31
-0.121581 -0.0816382 0.976 0 21 28
-0.120311 -0.0818055 0.978 0 21 28
-0.118914 -0.0818891 0.979 0 36 44
-0.117514 -0.0819728 0.98 11 53 61
-0.11611 -0.0820564 0.981 18 59 69
-0.118271 -0.0992038 1.186 1 23 23
-0.116527 -0.0992874 1.187 0 16 16
-0.114877 -0.0994547 1.189 0 18 18
-0.113125 -0.0995384 1.19 0 22 22
-0.111277 -0.0995384 1.19 4 26 26
-0.109613 -0.0997057 1.192 13 35 35
-0.107762 -0.0997057 1.192 6 28 28
-0.105911 -0.0997057 1.192 4 26 26
-0.104234 -0.0998729 1.194 5 29 22
-0.102294 -0.0997893 1.193 5 29 22
-0.100441 -0.0997893 1.193 7 31 19
-0.0986709 -0.0998729 1.194 9 33 21
-0.0968166 -0.0998729 1.194 17 40 22
-0.0950418 -0.0999566 1.195 24 47 29
-0.0931859 -0.0999566 1.195 24 48 27
-0.0914065 -0.10004 1.196 23 47 26
-0.0894742 -0.0999566 1.195 25 48 25
-0.0876183 -0.0999566 1.195 27 50 27
-0.0857624 -0.0999566 1.195 26 50 24
-0.0839066 -0.0999566 1.195 25 49 23
-0.0820507 -0.0999566 1.195 24 48 22
-0.0801948 -0.0999566 1.195 24 48 22
-0.0782734 -0.0998729 1.194 28 53 25
-0.0763551 -0.0997893 1.193 27 52 24
-0.0744398 -0.0997057 1.192 28 53 25
-0.0725886 -0.0997057 1.192 27 52 24
-0.0706781 -0.099622 1.191 27 52 24
-0.0687706 -0.0995384 1.19 27 52 24
-0.0669225 -0.0995384 1.19 29 51 22
-0.0650197 -0.0994547 1.189 29 51 22
-0.06312 -0.0993711 1.188 29 51 22
-0.061275 -0.0993711 1.188 28 50 21
-0.05938 -0.0992874 1.187 28 51 19
-0.057585 -0.0993711 1.188 30 53 21
-0.0556931 -0.0992874 1.187 32 55 23
-0.053895 -0.0993711 1.188 33 56 24
-0.0520062 -0.0992874 1.187 32 55 23
-0.0501627 -0.0992874 1.187 32 55 23
-0.0483193 -0.0992874 1.187 30 53 21
-0.0464758 -0.0992874 1.187 29 52 20
-0.0445948 -0.0992038 1.186 32 55 23
-0.0427168 -0.0991201 1.185 33 56 24
-0.0408765 -0.0991201 1.185 33 57 23
-0.0390361 -0.0991201 1.185 33 57 23
-0.037133 -0.0989528 1.183 30 54 20
-0.0352958 -0.0989528 1.183 30 54 20
-0.0334585 -0.0989528 1.183 32 56 22
-0.0316213 -0.0989528 1.183 32 56 22
-0.0298092 -0.0990365 1.184 32 56 22
-0.0279941 -0.0991201 1.185 32 56 22
-0.0261537 -0.0991201 1.185 33 57 23
-0.0243134 -0.0991201 1.185 33 57 23
-0.022473 -0.0991201 1.185 34 58 24
-0.0206675 -0.0992874 1.187 34 58 24
-0.018824 -0.0992874 1.187 33 57 23
-0.0169806 -0.0992874 1.187 33 57 23
-0.0151371 -0.0992874 1.187 32 56 22
-0.0132937 -0.0992874 1.187 34 58 24
-0.0114599 -0.0993711 1.188 34 58 24
-0.00962297 -0.0994547 1.189 35 59 25
-0.00777641 -0.0994547 1.189 44 68 34
-0.00593484 -0.0995384 1.19 42 66 32
-0.00408673 -0.0995384 1.19 36 60 26
-0.00223862 -0.0995384 1.19 33 57 23
-0.000390841 -0.099622 1.191 34 58 24
0.00145882 -0.099622 1.191 33 57 23
0.00330849 -0.099622 1.191 34 57 25
0.00516248 -0.0997057 1.192 34 57 25
0.00700781 -0.099622 1.191 34 57 25
0.00885748 -0.099622 1.191 34 57 25
0.0107071 -0.099622 1.191 36 57 25
0.0125568 -0.099622 1.191 36 57 25
0.0143944 -0.0995384 1.19 36 58 24
0.0162425 -0.0995384 1.19 36 58 24
0.0180906 -0.0995384 1.19 38 60 26
0.0199219 -0.0994547 1.189 39 61 27
0.0217502 -0.0993711 1.188 38 60 26
0.0235753 -0.0992874 1.187 37 59 25
0.0254188 -0.0992874 1.187 37 59 25
0.0272393 -0.0992038 1.186 38 60 26
0.0290812 -0.0992038 1.186 38 60 26
0.0309231 -0.0992038 1.186 41 63 29
0.032765 -0.0992038 1.186 39 61 27
0.0346069 -0.0992038 1.186 38 60 26
0.0364488 -0.0992038 1.186 38 60 26
0.0382907 -0.0992038 1.186 37 59 25
0.0401664 -0.0992874 1.187 37 59 25
0.0420099 -0.0992874 1.187 37 59 25
0.0438903 -0.0993711 1.188 35 57 23
0.0457738 -0.0994547 1.189 32 54 20
0.0476604 -0.0995384 1.19 32 54 20
0.0495085 -0.0995384 1.19 31 53 19
0.0513566 -0.0995384 1.19 28 51 19
0.0532047 -0.0995384 1.19 27 50 18
0.0550528 -0.0995384 1.19 27 50 18
0.0569009 -0.0995384 1.19 26 49 17
0.058749 -0.0995384 1.19 25 47 18
0.0605971 -0.0995384 1.19 22 44 15
0.0623928 -0.0994547 1.189 21 43 16
0.0641853 -0.0993711 1.188 12 34 7
0.0660303 -0.0993711 1.188 14 35 10
0.0678753 -0.0993711 1.188 15 36 11
0.0696616 -0.0992874 1.187 15 34 9
0.0715051 -0.0992874 1.187 9 28 3
0.0733485 -0.0992874 1.187 13 31 9
0.075192 -0.0992874 1.187 14 32 10
0.0770354 -0.0992874 1.187 9 26 6
0.0789453 -0.0993711 1.188 4 21 1
0.0808583 -0.0994547 1.189 8 25 5
0.0827745 -0.0995384 1.19 15 32 12
0.0846226 -0.0995384 1.19 13 30 10
0.086616 -0.0997057 1.192 7 24 4
0.0884672 -0.0997057 1.192 14 31 11
0.0903184 -0.0997057 1.192 15 32 12
0.092247 -0.0997893 1.193 13 32 12
0.0940998 -0.0997893 1.193 14 33 13
0.0959525 -0.0997893 1.193 14 33 13
0.0977233 -0.0997057 1.192 14 33 13
0.0995745 -0.0997057 1.192 15 35 13
0.101426 -0.0997057 1.192 14 34 12
0.103277 -0.0997057 1.192 15 35 13
0.104952 -0.0995384 1.19 16 36 14
0.1068 -0.0995384 1.19 18 38 16
0.108648 -0.0995384 1.19 18 38 16
0.11031 -0.0993711 1.188 16 37 12
0.112061 -0.0992874 1.187 16 37 12
0.113809 -0.0992038 1.186 16 37 12
0.11565 -0.0992038 1.186 15 36 11
0.117393 -0.0991201 1.185 16 37 12
0.119234 -0.0991201 1.185 18 39 14
0.120972 -0.0990365 1.184 16 36 14
0.122811 -0.0990365 1.184 16 36 14
0.124544 -0.0989528 1.183 16 36 14
0.126274 -0.0988692 1.182 16 36 14
0.12811 -0.0988692 1.182 16 36 14
0.129836 -0.0987855 1.181 16 36 14
0.131559 -0.0987019 1.18 16 36 14
0.133391 -0.0987019 1.18 16 36 14
0.135109 -0.0986183 1.179 16 36 14
0.136824 -0.0985346 1.178 16 36 14
0.138653 -0.0985346 1.178 16 36 14
0.140483 -0.0985346 1.178 16 36 14
0.142312 -0.0985346 1.178 16 37 12
0.144264 -0.0986183 1.179 16 37 12
0.146219 -0.0987019 1.18 18 39 14
0.148303 -0.0988692 1.182 18 39 14
0.150392 -0.0990365 1.184 16 37 12
0.152617 -0.0992874 1.187 18 39 14
0.154721 -0.0994547 1.189 18 39 14
0.156699 -0.0995384 1.19 18 39 14
0.158813 -0.0997057 1.192 18 39 14
0.160934 -0.0998729 1.194 19 40 15
0.162925 -0.0999566 1.195 19 40 15
0.164781 -0.0999566 1.195 18 39 14
0.166637 -0.0999566 1.195 18 39 14
0.168493 -0.0999566 1.195 16 37 12
0.170348 -0.0999566 1.195 18 39 14
0.172204 -0.0999566 1.195 19 40 15
0.173915 -0.0998729 1.194 18 39 14
0.175622 -0.0997893 1.193 16 37 12
0.177326 -0.0997057 1.192 16 37 12
0.179177 -0.0997057 1.192 18 39 14
0.180876 -0.099622 1.191 16 37 12
0.182572 -0.0995384 1.19 16 37 12
0.184266 -0.0994547 1.189 16 37 12
0.185956 -0.0993711 1.188 16 37 12
0.187801 -0.0993711 1.188 16 38 11
0.189486 -0.0992874 1.187 12 34 7
0.191329 -0.0992874 1.187 13 35 8
0.193173 -0.0992874 1.187 18 40 13
0.195016 -0.0992874 1.187 19 41 12
0.19686 -0.0992874 1.187 21 43 14
0.198703 -0.0992874 1.187 18 41 9
0.200547 -0.0992874 1.187 27 50 18
0.20239 -0.0992874 1.187 40 65 28
0.204234 -0.0992874 1.187 41 66 29
0.206077 -0.0992874 1.187 40 65 28
0.208096 -0.0993711 1.188 41 66 29
0.209941 -0.0993711 1.188 45 69 30
0.211786 -0.0993711 1.188 46 70 31
0.21381 -0.0994547 1.189 42 66 27
0.215657 -0.0994547 1.189 38 62 23
0.217504 -0.0994547 1.189 41 65 26
0.219535 -0.0995384 1.19 41 65 26
0.221383 -0.0995384 1.19 39 63 24
0.223231 -0.0995384 1.19 39 63 24
0.225079 -0.0995384 1.19 37 60 23
0.226927 -0.0995384 1.19 36 59 22
0.228775 -0.0995384 1.19 34 56 22
0.230623 -0.0995384 1.19 32 54 20
0.232276 -0.0994547 1.189 31 52 20
0.234123 -0.0994547 1.189 28 49 17
0.235969 -0.0994547 1.189 27 48 16
0.237816 -0.0994547 1.189 25 46 14
0.239461 -0.0993711 1.188 24 44 15
0.241306 -0.0993711 1.188 21 41 12
0.243151 -0.0993711 1.188 20 40 13
0.244996 -0.0993711 1.188 21 41 14
0.246841 -0.0993711 1.188 16 34 12
0.248686 -0.0993711 1.188 8 26 4
0.250531 -0.0993711 1.188 10 27 7
0.252376 -0.0993711 1.188 9 26 6
0.254221 -0.0993711 1.188 9 25 8
0.256281 -0.0994547 1.189 8 24 7
0.258128 -0.0994547 1.189 9 25 10
0.260193 -0.0995384 1.19 10 26 11
0.262041 -0.0995384 1.19 10 26 11
0.263889 -0.0995384 1.19 8 24 9
0.265737 -0.0995384 1.19 9 25 10
0.267586 -0.0995384 1.19 10 26 11
0.269434 -0.0995384 1.19 10 26 11
0.271282 -0.0995384 1.19 11 27 12
0.27313 -0.0995384 1.19 11 27 12
0.274978 -0.0995384 1.19 11 27 12
0.276826 -0.0995384 1.19 11 27 12
0.278674 -0.0995384 1.19 11 27 12
0.280522 -0.0995384 1.19 13 29 14
0.28237 -0.0995384 1.19 13 29 14
0.284219 -0.0995384 1.19 13 29 14
0.286307 -0.099622 1.191 11 27 12
0.287915 -0.0995384 1.19 13 29 14
0.29025 -0.0997057 1.192 13 29 14
0.291856 -0.099622 1.191 13 29 14
0.293952 -0.0997057 1.192 13 29 14
0.295803 -0.0997057 1.192 13 29 14
0.297655 -0.0997057 1.192 13 29 14
0.299757 -0.0997893 1.193 13 29 14
0.301863 -0.0998729 1.194 11 27 12
0.303717 -0.0998729 1.194 9 25 10
0.305315 -0.0997893 1.193 11 27 12
0.307426 -0.0998729 1.194 11 27 12
0.309021 -0.0997893 1.193 11 27 12
0.310613 -0.0997057 1.192 11 27 12
0.312464 -0.0997057 1.192 11 27 12
0.314316 -0.0997057 1.192 11 27 12
0.315902 -0.099622 1.191 11 27 12
0.317484 -0.0995384 1.19 11 27 10
0.319333 -0.0995384 1.19 13 29 12
0.320911 -0.0994547 1.189 11 27 10
0.322486 -0.0993711 1.188 13 29 12
0.323785 -0.0992038 1.186 18 35 15
0.325352 -0.0991201 1.185 20 37 17
0.326916 -0.0990365 1.184 22 39 19
0.328478 -0.0989528 1.183 25 42 22
0.330036 -0.0988692 1.182 27 45 23
0.331871 -0.0988692 1.182 29 47 25
0.333707 -0.0988692 1.182 29 47 25
0.335543 -0.0988692 1.182 29 47 25
0.337378 -0.0988692 1.182 28 46 24
0.339214 -0.0988692 1.182 28 46 24
0.341338 -0.0989528 1.183 27 45 23
0.343176 -0.0989528 1.183 27 45 23
0.345013 -0.0989528 1.183 25 43 21
0.34685 -0.0989528 1.183 25 43 21
0.348687 -0.0989528 1.183 27 45 23
0.350524 -0.0989528 1.183 27 45 23
0.352064 -0.0988692 1.182 27 45 23
0.3539 -0.0988692 1.182 29 47 25
0.355434 -0.0987855 1.181 34 51 31
0.356966 -0.0987019 1.18 25 42 22
0.358798 -0.0987019 1.18 16 32 15
0.360325 -0.0986183 1.179 22 38 21
0.361235 -0.0983673 1.176 20 35 22
0.362135 -0.0981164 1.173 18 33 20
0.363026 -0.0978654 1.17 14 25 23
0.362972 -0.0973636 1.164 14 25 23
0.363213 -0.0969453 1.159 23 33 35
0.361234 -0.0959416 1.147 93 103 105
0.361432 -0.0955234 1.142 108 118 125
0.361934 -0.0951888 1.138 113 123 130
0.362742 -0.0949378 1.135 125 135 142
0.363542 -0.0946869 1.132 126 136 143
0.366591 -0.0950215 1.136 84 91 102
0.369652 -0.0953561 1.14 74 81 92
-0.135478 -0.0793818 0.967 0 48 70
-0.134115 -0.0794639 0.968 4 59 81
-0.132748 -0.079546 0.969 31 83 101
-0.131243 -0.079546 0.969 74 126 144
-0.129872 -0.0796281 0.97 102 150 164
-0.128498 -0.0797102 0.971 103 151 165
-0.125612 -0.0797923 0.972 93 146 159
-0.12423 -0.0798743 0.973 60 123 136
-0.122845 -0.0799564 0.974 20 83 96
-0.121581 -0.0801206 0.976 0 56 70
-0.120188 -0.0802027 0.977 0 56 70
-0.117394 -0.0803669 0.979 0 68 83
-0.11611 -0.0805311 0.981 19 82 100
-0.114703 -0.0806132 0.982 5 68 86
-0.113409 -0.0807773 0.984 0 53 75
-0.11188 -0.0807773 0.984 0 34 56
-0.110464 -0.0808594 0.985 0 17 38
-0.107852 -0.0979343 1.193 54 83 90
-0.105999 -0.0979343 1.193 32 61 68
-0.104147 -0.0979343 1.193 12 42 45
-0.10238 -0.0980164 1.194 7 37 40
-0.100525 -0.0980164 1.194 10 34 34
-0.0987536 -0.0980985 1.195 11 35 35
-0.0968977 -0.0980985 1.195 14 41 26
-0.0950418 -0.0980985 1.195 17 44 29
-0.0931859 -0.0980985 1.195 26 54 37
-0.0913301 -0.0980985 1.195 27 55 38
-0.0894742 -0.0980985 1.195 23 49 30
-0.0876183 -0.0980985 1.195 19 45 26
-0.0857624 -0.0980985 1.195 17 43 24
-0.0839066 -0.0980985 1.195 19 45 26
-0.0820507 -0.0980985 1.195 20 46 27
-0.0801948 -0.0980985 1.195 24 50 31
-0.0782734 -0.0980164 1.194 29 53 32
-0.0763551 -0.0979343 1.193 30 54 33
-0.0745023 -0.0979343 1.193 31 55 29
-0.0725886 -0.0978522 1.192 28 52 26
-0.0707374 -0.0978522 1.192 27 51 25
-0.0688862 -0.0978522 1.192 27 51 25
-0.0669225 -0.0976881 1.19 27 52 24
-0.0650744 -0.0976881 1.19 27 52 24
-0.0631731 -0.097606 1.189 27 52 24
-0.0613782 -0.0976881 1.19 26 51 23
-0.05953 -0.0976881 1.19 26 51 21
-0.0576335 -0.097606 1.189 28 53 23
-0.0557869 -0.097606 1.189 30 55 25
-0.0539404 -0.097606 1.189 30 55 25
-0.0520938 -0.097606 1.189 28 54 21
-0.050205 -0.0975239 1.188 28 54 21
-0.04836 -0.0975239 1.188 27 53 20
-0.0464758 -0.0974418 1.187 28 54 21
-0.0446324 -0.0974418 1.187 30 56 23
-0.0427529 -0.0973597 1.186 31 57 24
-0.0408765 -0.0972776 1.185 31 57 24
-0.0390691 -0.0973597 1.186 31 57 24
-0.0371958 -0.0972776 1.185 31 57 24
-0.0353256 -0.0971955 1.184 30 56 23
-0.0334868 -0.0971955 1.184 30 56 23
-0.0316747 -0.0972776 1.185 30 56 23
-0.0298344 -0.0972776 1.185 31 57 24
-0.0279941 -0.0972776 1.185 31 57 24
-0.0261537 -0.0972776 1.185 31 57 24
-0.0243134 -0.0972776 1.185 31 57 24
-0.022473 -0.0972776 1.185 31 57 24
-0.0206675 -0.0974418 1.187 31 57 24
-0.018824 -0.0974418 1.187 30 56 23
-0.0169806 -0.0974418 1.187 30 56 23
-0.0151371 -0.0974418 1.187 30 56 23
-0.0132937 -0.0974418 1.187 32 58 25
-0.0114599 -0.0975239 1.188 32 58 25
-0.00962297 -0.097606 1.189 34 60 27
-0.00777641 -0.097606 1.189 38 64 31
-0.00593484 -0.0976881 1.19 35 61 28
-0.00408673 -0.0976881 1.19 30 56 23
-0.00223862 -0.0976881 1.19 31 57 24
-0.000390513 -0.0976881 1.19 31 57 24
0.00145882 -0.0977701 1.191 32 58 25
0.00330849 -0.0977701 1.191 34 57 25
0.00515815 -0.0977701 1.191 34 57 25
0.00700781 -0.0977701 1.191 35 58 26
0.00885748 -0.0977701 1.191 35 58 26
0.0106982 -0.0976881 1.19 34 57 25
0.0125463 -0.0976881 1.19 35 58 26
0.0143944 -0.0976881 1.19 36 59 27
0.0162288 -0.097606 1.189 35 58 26
0.0180754 -0.097606 1.189 37 60 28
0.0199052 -0.0975239 1.188 37 60 28
0.0217319 -0.0974418 1.187 36 59 27
0.0235753 -0.0974418 1.187 36 59 27
0.0253974 -0.0973597 1.186 35 58 26
0.0272163 -0.0972776 1.185 35 58 26
0.0290567 -0.0972776 1.185 36 59 27
0.030897 -0.0972776 1.185 37 60 28
0.032765 -0.0973597 1.186 37 60 28
0.0345777 -0.0972776 1.185 36 59 27
0.0364488 -0.0973597 1.186 36 60 26
0.0382907 -0.0973597 1.186 35 59 25
0.0401664 -0.0974418 1.187 36 58 24
0.0420099 -0.0974418 1.187 35 57 23
0.0438903 -0.0975239 1.188 35 57 23
0.0457738 -0.097606 1.189 32 54 20
0.0476604 -0.0976881 1.19 32 54 20
0.0495085 -0.0976881 1.19 31 53 19
0.0513566 -0.0976881 1.19 28 51 19
0.0532047 -0.0976881 1.19 27 50 18
0.0550528 -0.0976881 1.19 26 48 19
0.0569009 -0.0976881 1.19 26 48 19
0.058749 -0.0976881 1.19 22 44 15
0.0605971 -0.0976881 1.19 22 44 15
0.0623928 -0.097606 1.189 22 44 17
0.0641853 -0.0975239 1.188 14 36 9
0.0660303 -0.0975239 1.188 8 29 4
0.0678753 -0.0975239 1.188 12 33 8
0.0696616 -0.0974418 1.187 15 33 11
0.0715051 -0.0974418 1.187 10 28 6
0.0733485 -0.0974418 1.187 13 30 10
0.075192 -0.0974418 1.187 11 28 8
0.0771003 -0.0975239 1.188 10 26 9
0.0790118 -0.097606 1.189 10 26 9
0.0809264 -0.0976881 1.19 10 26 9
0.0827745 -0.0976881 1.19 13 29 12
0.0847648 -0.0978522 1.192 11 28 8
0.086616 -0.0978522 1.192 11 28 8
0.0885414 -0.0979343 1.193 14 31 11
0.09047 -0.0980164 1.194 14 31 11
0.0923243 -0.0980164 1.194 13 32 12
0.0941786 -0.0980164 1.194 14 33 13
0.096033 -0.0980164 1.194 14 33 13
0.0978873 -0.0980164 1.194 14 33 13
0.0996581 -0.0979343 1.193 14 33 13
0.101511 -0.0979343 1.193 15 34 14
0.103277 -0.0978522 1.192 15 34 14
0.10504 -0.0977701 1.191 16 35 15
0.10689 -0.0977701 1.191 16 36 14
0.108648 -0.0976881 1.19 16 36 14
0.110403 -0.097606 1.189 16 36 14
0.112155 -0.0975239 1.188 16 36 14
0.113904 -0.0974418 1.187 18 38 16
0.115748 -0.0974418 1.187 16 36 14
0.117492 -0.0973597 1.186 16 36 14
0.119234 -0.0972776 1.185 19 39 17
0.121074 -0.0972776 1.185 18 38 16
0.122914 -0.0972776 1.185 18 38 16
0.124649 -0.0971955 1.184 18 38 16
0.126381 -0.0971134 1.183 18 38 16
0.12811 -0.0970313 1.182 18 38 16
0.129836 -0.0969492 1.181 18 38 16
0.131559 -0.0968671 1.18 16 36 14
0.133278 -0.0967851 1.179 16 36 14
0.135109 -0.0967851 1.179 16 36 14
0.136824 -0.096703 1.178 16 36 14
0.138653 -0.096703 1.178 16 36 14
0.140483 -0.096703 1.178 18 38 16
0.142312 -0.096703 1.178 18 38 16
0.144387 -0.0968671 1.18 18 38 16
0.146343 -0.0969492 1.181 18 39 14
0.148303 -0.0970313 1.182 18 39 14
0.150519 -0.0972776 1.185 16 37 12
0.152617 -0.0974418 1.187 18 39 14
0.154851 -0.0976881 1.19 18 39 14
0.156962 -0.0978522 1.192 18 39 14
0.158947 -0.0979343 1.193 18 39 14
0.161069 -0.0980985 1.195 19 40 15
0.162925 -0.0980985 1.195 19 40 15
0.164919 -0.0981806 1.196 18 39 14
0.166637 -0.0980985 1.195 18 39 14
0.168634 -0.0981806 1.196 16 37 12
0.170348 -0.0980985 1.195 15 36 11
0.172204 -0.0980985 1.195 16 37 12
0.173915 -0.0980164 1.194 16 37 12
0.175769 -0.0980164 1.194 16 37 12
0.177326 -0.0978522 1.192 15 36 11
0.179177 -0.0978522 1.192 16 37 12
0.180876 -0.0977701 1.191 18 39 14
0.182572 -0.0976881 1.19 16 37 12
0.184421 -0.0976881 1.19 16 37 12
0.186112 -0.097606 1.189 16 37 12
0.187801 -0.0975239 1.188 16 37 12
0.189646 -0.0975239 1.188 18 39 14
0.191329 -0.0974418 1.187 19 41 14
0.193173 -0.0974418 1.187 16 38 11
0.195016 -0.0974418 1.187 12 34 7
0.19686 -0.0974418 1.187 11 33 6
0.198703 -0.0974418 1.187 11 33 4
0.200547 -0.0974418 1.187 15 37 8
0.20239 -0.0974418 1.187 27 51 17
0.204234 -0.0974418 1.187 27 51 17
0.206251 -0.0975239 1.188 27 52 15
0.208096 -0.0975239 1.188 39 64 27
0.210117 -0.097606 1.189 29 55 16
0.211964 -0.097606 1.189 36 62 23
0.21399 -0.0976881 1.19 39 65 26
0.215838 -0.0976881 1.19 35 61 22
0.217687 -0.0976881 1.19 35 61 22
0.219535 -0.0976881 1.19 39 65 26
0.221383 -0.0976881 1.19 37 63 24
0.223231 -0.0976881 1.19 37 63 24
0.225079 -0.0976881 1.19 37 60 23
0.226927 -0.0976881 1.19 36 59 22
0.228775 -0.0976881 1.19 32 54 20
0.230623 -0.0976881 1.19 32 54 20
0.232471 -0.0976881 1.19 31 53 19
0.23432 -0.0976881 1.19 29 51 17
0.236168 -0.0976881 1.19 25 46 14
0.237816 -0.097606 1.189 25 46 14
0.239662 -0.097606 1.189 23 43 14
0.241509 -0.097606 1.189 22 42 13
0.243355 -0.097606 1.189 21 41 14
0.244996 -0.0975239 1.188 22 42 15
0.246841 -0.0975239 1.188 22 40 18
0.248686 -0.0975239 1.188 15 33 11
0.250531 -0.0975239 1.188 9 26 6
0.252588 -0.097606 1.189 9 26 6
0.254435 -0.097606 1.189 10 24 7
0.256497 -0.0976881 1.19 10 24 7
0.258345 -0.0976881 1.19 9 25 10
0.260193 -0.0976881 1.19 9 25 10
0.262041 -0.0976881 1.19 10 26 11
0.263889 -0.0976881 1.19 9 25 10
0.265961 -0.0977701 1.191 9 25 10
0.26781 -0.0977701 1.191 10 26 11
0.26966 -0.0977701 1.191 10 25 12
0.271738 -0.0978522 1.192 10 25 12
0.273589 -0.0978522 1.192 10 25 12
0.275209 -0.0977701 1.191 10 25 12
0.277059 -0.0977701 1.191 10 25 12
0.278908 -0.0977701 1.191 11 26 13
0.280994 -0.0978522 1.192 11 26 13
0.282845 -0.0978522 1.192 11 26 13
0.284696 -0.0978522 1.192 11 26 13
0.286547 -0.0978522 1.192 10 25 12
0.288399 -0.0978522 1.192 10 25 12
0.29025 -0.0978522 1.192 9 24 11
0.292101 -0.0978522 1.192 8 23 10
0.294199 -0.0979343 1.193 9 24 11
0.296052 -0.0979343 1.193 9 25 10
0.298154 -0.0980164 1.194 11 27 12
0.300008 -0.0980164 1.194 11 27 12
0.302116 -0.0980985 1.195 13 29 14
0.303971 -0.0980985 1.195 9 25 10
0.305827 -0.0980985 1.195 13 29 14
0.307683 -0.0980985 1.195 13 29 14
0.30928 -0.0980164 1.194 13 29 14
0.311134 -0.0980164 1.194 14 30 15
0.312727 -0.0979343 1.193 13 29 14
0.314579 -0.0979343 1.193 13 29 14
0.316167 -0.0978522 1.192 11 27 12
0.318018 -0.0978522 1.192 11 27 10
0.319601 -0.0977701 1.191 11 27 10
0.321181 -0.0976881 1.19 9 25 8
0.322757 -0.097606 1.189 15 31 14
0.324058 -0.0974418 1.187 24 41 21
0.325627 -0.0973597 1.186 21 38 18
0.327193 -0.0972776 1.185 22 39 19
0.328755 -0.0971955 1.184 24 41 21
0.330594 -0.0971955 1.184 23 40 20
0.332152 -0.0971134 1.183 27 44 24
0.333989 -0.0971134 1.183 29 47 25
0.335827 -0.0971134 1.183 29 47 25
0.337664 -0.0971134 1.183 28 46 24
0.339788 -0.0971955 1.184 28 46 24
0.341627 -0.0971955 1.184 28 46 24
0.343466 -0.0971955 1.184 29 47 25
0.345304 -0.0971955 1.184 25 43 21
0.347143 -0.0971955 1.184 25 43 21
0.348982 -0.0971955 1.184 28 46 24
0.350524 -0.0971134 1.183 27 45 23
0.352064 -0.0970313 1.182 27 45 23
0.3539 -0.0970313 1.182 28 46 24
0.355434 -0.0969492 1.181 34 51 31
0.356966 -0.0968671 1.18 27 44 24
0.358798 -0.0968671 1.18 15 31 14
0.360325 -0.0967851 1.179 20 36 19
0.361542 -0.0966209 1.177 18 32 22
0.362135 -0.0962925 1.173 18 32 22
0.363336 -0.0961283 1.171 13 24 22
0.363284 -0.0956358 1.165 15 26 24
0.363213 -0.0951432 1.159 23 33 35
0.361234 -0.0941581 1.147 89 99 101
0.361432 -0.0937477 1.142 108 118 125
0.361616 -0.0933372 1.137 117 127 134
0.362423 -0.093091 1.134 126 136 143
0.363542 -0.0929268 1.132 129 139 146
0.366268 -0.0931731 1.135 89 96 107
0.369652 -0.0935835 1.14 71 78 89
-0.135478 -0.0778782 0.967 13 59 80
-0.134115 -0.0779588 0.968 0 21 42
-0.132611 -0.0779588 0.968 0 23 42
-0.131243 -0.0780393 0.969 0 28 47
-0.129872 -0.0781198 0.97 28 74 90
-0.128366 -0.0781198 0.97 78 124 140
-0.125612 -0.0782809 0.972 108 171 184
-0.12423 -0.0783615 0.973 93 172 185
-0.122845 -0.078442 0.974 92 171 184
-0.121581 -0.0786031 0.976 86 168 178
-0.120188 -0.0786836 0.977 84 166 176
-0.118671 -0.0786836 0.977 75 157 167
-0.115992 -0.0789252 0.98 44 119 135
-0.114586 -0.0790057 0.981 20 95 111
-0.111767 -0.0791668 0.983 36 108 127
-0.110352 -0.0792473 0.984 0 59 81
-0.108935 -0.0793279 0.985 0 33 55
-0.107514 -0.0794084 0.986 0 48 69
-0.105983 -0.0794084 0.986 13 75 96
-0.104557 -0.079489 0.987 35 86 101
-0.103024 -0.079489 0.987 37 88 103
-0.101594 -0.0795695 0.988 6 47 57
-0.0857624 -0.0962404 1.195 22 52 41
-0.0839066 -0.0962404 1.195 23 53 42
-0.0820507 -0.0962404 1.195 16 46 35
-0.0801948 -0.0962404 1.195 13 43 32
-0.0782734 -0.0961599 1.194 19 44 29
-0.0764191 -0.0961599 1.194 19 44 29
-0.0745647 -0.0961599 1.194 19 45 26
-0.0726495 -0.0960794 1.193 21 47 28
-0.0707374 -0.0959988 1.192 21 45 24
-0.0688862 -0.0959988 1.192 22 46 25
-0.067035 -0.0959988 1.192 16 43 21
-0.0651291 -0.0959183 1.191 14 41 19
-0.0632263 -0.0958377 1.19 14 44 20
-0.0614297 -0.0959183 1.191 14 44 20
-0.0595801 -0.0959183 1.191 15 45 21
-0.0576819 -0.0958377 1.19 17 47 23
-0.0558338 -0.0958377 1.19 21 47 21
-0.0539857 -0.0958377 1.19 28 54 28
-0.0521376 -0.0958377 1.19 26 53 25
-0.0502895 -0.0958377 1.19 25 52 24
-0.0484007 -0.0957572 1.189 28 53 23
-0.046515 -0.0956767 1.188 32 57 27
-0.0446324 -0.0955961 1.187 32 58 25
-0.0427889 -0.0955961 1.187 32 58 25
-0.040911 -0.0955156 1.186 31 58 23
-0.0390691 -0.0955156 1.186 31 58 23
-0.0371958 -0.0954351 1.185 31 58 23
-0.0353554 -0.0954351 1.185 31 58 23
-0.0335151 -0.0954351 1.185 31 58 23
-0.0316747 -0.0954351 1.185 30 57 22
-0.0298596 -0.0955156 1.186 30 57 22
-0.0280413 -0.0955961 1.187 31 58 23
-0.0261758 -0.0955156 1.186 32 59 24
-0.0243339 -0.0955156 1.186 31 58 23
-0.022492 -0.0955156 1.186 32 59 24
-0.0206675 -0.0955961 1.187 32 59 24
-0.0188399 -0.0956767 1.188 31 58 23
-0.0169949 -0.0956767 1.188 31 58 23
-0.0151499 -0.0956767 1.188 31 58 23
-0.0133049 -0.0956767 1.188 32 59 24
-0.0114599 -0.0956767 1.188 32 59 24
-0.00961488 -0.0956767 1.188 35 62 27
-0.00778295 -0.0958377 1.19 34 61 26
-0.00593484 -0.0958377 1.19 32 59 24
-0.00408673 -0.0958377 1.19 32 59 24
-0.00223862 -0.0958377 1.19 31 58 23
-0.000390513 -0.0958377 1.19 32 59 24
0.0014576 -0.0958377 1.19 33 60 25
0.00330571 -0.0958377 1.19 32 59 24
0.00515382 -0.0958377 1.19 32 59 24
0.00700193 -0.0958377 1.19 34 58 24
0.00885004 -0.0958377 1.19 34 58 24
0.0106982 -0.0958377 1.19 35 59 25
0.0125357 -0.0957572 1.189 35 59 25
0.0143823 -0.0957572 1.189 36 60 26
0.0162152 -0.0956767 1.188 35 59 25
0.018045 -0.0955961 1.187 36 60 26
0.0198884 -0.0955961 1.187 36 60 26
0.0217319 -0.0955961 1.187 36 60 26
0.0235555 -0.0955156 1.186 36 60 26
0.025376 -0.0954351 1.185 36 60 26
0.0272163 -0.0954351 1.185 36 60 26
0.0290567 -0.0954351 1.185 35 59 25
0.030897 -0.0954351 1.185 35 59 25
0.0327373 -0.0954351 1.185 36 60 26
0.0345777 -0.0954351 1.185 37 61 27
0.036418 -0.0954351 1.185 37 61 27
0.0382907 -0.0955156 1.186 36 60 26
0.0401326 -0.0955156 1.186 37 59 25
0.0420099 -0.0955961 1.187 35 57 23
0.0438903 -0.0956767 1.188 34 56 22
0.0457738 -0.0957572 1.189 32 54 20
0.0476604 -0.0958377 1.19 32 54 20
0.0495085 -0.0958377 1.19 30 52 18
0.0513566 -0.0958377 1.19 30 51 19
0.0532047 -0.0958377 1.19 29 50 18
0.0550528 -0.0958377 1.19 26 48 19
