ply
format ascii 1.0
comment Created by Open3D
element vertex 1360
property double x
property double y
property double z
property uchar red
property uchar green
property uchar blue
end_header
0.197823 -0.265268 1.029 17 85 97
0.199421 -0.265268 1.029 81 149 161
0.201019 -0.265268 1.029 81 146 159
0.202617 -0.265268 1.029 75 140 153
0.204216 -0.265268 1.029 0 43 57
0.205814 -0.265268 1.029 0 27 41
0.207412 -0.265268 1.029 0 40 57
0.20901 -0.265268 1.029 0 50 67
0.210813 -0.265526 1.03 0 25 41
0.212412 -0.265526 1.03 0 12 28
0.214012 -0.265526 1.03 0 17 30
0.215611 -0.265526 1.03 9 72 85
0.217211 -0.265526 1.03 0 58 77
0.218811 -0.265526 1.03 0 34 53
0.22041 -0.265526 1.03 0 43 59
0.22201 -0.265526 1.03 15 79 95
0.22361 -0.265526 1.03 73 131 145
0.22499 -0.265268 1.029 100 158 172
0.226589 -0.265268 1.029 70 133 144
0.228187 -0.265268 1.029 0 44 55
0.229561 -0.26501 1.028 0 33 46
0.231158 -0.26501 1.028 0 21 34
0.232754 -0.26501 1.028 0 25 41
0.234351 -0.26501 1.028 0 29 45
0.237775 -0.265268 1.029 0 64 82
0.239373 -0.265268 1.029 75 156 174
0.240971 -0.265268 1.029 77 158 176
0.242805 -0.265526 1.03 86 172 184
0.244405 -0.265526 1.03 56 142 154
0.246004 -0.265526 1.03 71 162 173
0.247604 -0.265526 1.03 81 172 183
0.249204 -0.265526 1.03 84 172 190
0.250803 -0.265526 1.03 91 179 197
0.252403 -0.265526 1.03 84 180 202
0.254002 -0.265526 1.03 88 184 206
0.255602 -0.265526 1.03 89 186 210
0.257202 -0.265526 1.03 88 185 209
0.258801 -0.265526 1.03 83 185 208
0.260401 -0.265526 1.03 83 185 208
0.262001 -0.265526 1.03 83 185 208
0.263856 -0.265784 1.031 85 187 210
0.265715 -0.266042 1.032 83 179 201
0.267835 -0.266557 1.034 66 162 184
0.269441 -0.266557 1.034 0 58 78
0.271309 -0.266815 1.035 0 41 61
0.27318 -0.267073 1.036 0 33 46
0.275055 -0.267331 1.037 0 10 23
0.330977 -0.307288 1.192 8 22 17
0.332269 -0.306773 1.19 8 23 15
0.334117 -0.306773 1.19 8 23 15
0.335966 -0.306773 1.19 8 23 15
0.337814 -0.306773 1.19 8 23 15
0.339662 -0.306773 1.19 10 23 15
0.341223 -0.306515 1.189 10 23 15
0.342781 -0.306257 1.188 10 23 15
0.344336 -0.305999 1.187 9 22 14
0.346179 -0.305999 1.187 9 22 14
0.34773 -0.305742 1.186 9 22 14
0.349277 -0.305484 1.185 9 22 14
0.350821 -0.305226 1.184 9 22 14
0.352362 -0.304968 1.183 9 22 14
0.3539 -0.30471 1.182 9 22 14
0.355434 -0.304453 1.181 9 22 14
0.356966 -0.304195 1.18 9 22 14
0.358798 -0.304195 1.18 9 22 14
0.360325 -0.303937 1.179 10 23 15
0.361849 -0.303679 1.178 26 37 29
0.363679 -0.303679 1.178 24 35 27
0.365198 -0.303421 1.177 11 21 16
0.366714 -0.303164 1.176 12 22 17
0.368227 -0.302906 1.175 9 20 19
0.369737 -0.302648 1.174 3 14 13
0.371244 -0.30239 1.173 1 11 13
0.370839 -0.300586 1.166 38 48 50
0.370732 -0.299039 1.16 77 89 91
0.368527 -0.294399 1.142 68 80 82
0.368355 -0.292852 1.136 76 88 90
-0.15243 -0.278786 1.088 57 67 103
-0.15074 -0.278786 1.088 55 65 101
-0.148914 -0.27853 1.087 53 63 99
-0.14709 -0.278274 1.086 53 63 99
-0.14527 -0.278018 1.085 52 61 99
-0.143585 -0.278018 1.085 50 59 97
-0.1419 -0.278018 1.085 47 58 96
-0.140215 -0.278018 1.085 47 58 96
-0.138657 -0.278274 1.086 46 57 95
-0.136971 -0.278274 1.086 45 56 94
-0.135284 -0.278274 1.086 43 54 92
-0.133597 -0.278274 1.086 43 54 92
-0.132032 -0.27853 1.087 41 52 90
-0.130464 -0.278786 1.088 40 51 89
-0.128774 -0.278786 1.088 39 51 87
-0.127201 -0.279042 1.089 39 51 87
-0.12551 -0.279042 1.089 39 51 85
-0.123819 -0.279042 1.089 38 50 84
-0.122128 -0.279042 1.089 37 49 83
-0.120436 -0.279042 1.089 36 48 82
-0.118854 -0.279299 1.09 34 46 80
-0.117054 -0.279042 1.089 34 46 80
-0.115363 -0.279042 1.089 33 45 79
-0.113671 -0.279042 1.089 32 44 78
-0.111877 -0.278786 1.088 31 43 77
-0.110188 -0.278786 1.088 29 41 75
-0.108498 -0.278786 1.088 29 42 73
-0.10671 -0.27853 1.087 27 40 71
-0.104925 -0.278274 1.086 29 40 71
-0.103239 -0.278274 1.086 29 40 71
-0.101459 -0.278018 1.085 28 35 65
-0.0997735 -0.278018 1.085 23 30 60
-0.0979981 -0.277761 1.084 40 48 70
-0.0963146 -0.277761 1.084 122 130 152
-0.0945438 -0.277505 1.083 104 112 134
-0.0929476 -0.277761 1.084 85 93 115
-0.0912641 -0.277761 1.084 56 64 86
-0.0896633 -0.278018 1.085 25 33 55
-0.0879782 -0.278018 1.085 28 35 60
-0.0862932 -0.278018 1.085 33 40 65
-0.0846082 -0.278018 1.085 33 42 67
-0.0829995 -0.278274 1.086 38 47 72
-0.0812381 -0.278018 1.085 36 47 73
-0.079553 -0.278018 1.085 37 48 74
-0.077868 -0.278018 1.085 36 47 73
-0.0761829 -0.278018 1.085 35 46 72
-0.0744979 -0.278018 1.085 34 45 71
-0.0728129 -0.278018 1.085 33 44 70
-0.0711278 -0.278018 1.085 33 44 70
-0.0694428 -0.278018 1.085 33 44 70
-0.0677577 -0.278018 1.085 33 43 72
-0.0660727 -0.278018 1.085 31 41 70
-0.0643877 -0.278018 1.085 31 41 70
-0.0627026 -0.278018 1.085 31 41 70
-0.0609613 -0.277761 1.084 31 41 70
-0.0593325 -0.278018 1.085 31 41 70
-0.0575944 -0.277761 1.084 31 41 70
-0.0559109 -0.277761 1.084 31 41 70
-0.0542774 -0.278018 1.085 31 41 70
-0.0525924 -0.278018 1.085 31 41 70
-0.0509073 -0.278018 1.085 31 41 70
-0.0492223 -0.278018 1.085 31 41 70
-0.0475372 -0.278018 1.085 30 40 69
-0.0458522 -0.278018 1.085 30 40 69
-0.0441671 -0.278018 1.085 30 41 67
-0.0425213 -0.278274 1.086 30 41 67
-0.0408347 -0.278274 1.086 29 40 66
-0.0391841 -0.27853 1.087 29 40 66
-0.0375305 -0.278786 1.088 29 40 66
-0.0358737 -0.279042 1.089 28 39 65
-0.0342138 -0.279299 1.09 27 39 63
-0.0309131 -0.280067 1.093 27 40 61
-0.0292958 -0.280836 1.096 27 40 61
-0.0276944 -0.281861 1.1 23 34 52
-0.0260333 -0.282374 1.102 17 28 46
-0.0243881 -0.283142 1.105 9 17 24
-0.0227335 -0.283911 1.108 0 5 12
-0.0210507 -0.284423 1.11 3 9 9
-0.019379 -0.285192 1.113 3 9 9
-0.0176664 -0.285448 1.114 1 7 6
-0.0159506 -0.285705 1.115 1 7 6
-0.014219 -0.285705 1.115 3 9 8
-0.0124761 -0.285448 1.114 3 9 8
-0.0106882 -0.283911 1.108 0 5 12
-0.00527653 -0.271099 1.058 50 71 94
-0.00360938 -0.269305 1.051 50 90 116
-0.00197526 -0.269049 1.05 46 86 112
-0.000343914 -0.268537 1.048 43 94 123
0.00128244 -0.26828 1.047 55 106 135
0.00290013 -0.267512 1.044 57 110 139
0.00451284 -0.266999 1.042 48 101 130
0.00612522 -0.266743 1.041 40 92 123
0.00773449 -0.266487 1.04 46 98 129
0.00933166 -0.265974 1.038 52 103 132
0.0109437 -0.265974 1.038 54 105 134
0.0125437 -0.265718 1.037 58 106 136
0.0141405 -0.265462 1.036 18 66 96
0.0157343 -0.265206 1.035 0 38 68
0.0173416 -0.265206 1.035 32 78 108
0.0189307 -0.264949 1.034 55 112 142
0.0205366 -0.264949 1.034 49 106 136
0.022121 -0.264693 1.033 41 103 132
0.0237023 -0.264437 1.032 31 93 122
0.025305 -0.264437 1.032 15 82 107
0.0268817 -0.264181 1.031 36 103 128
0.0284829 -0.264181 1.031 48 120 139
0.030084 -0.264181 1.031 45 117 136
0.0316852 -0.264181 1.031 46 118 137
0.0332864 -0.264181 1.031 32 104 123
0.0348876 -0.264181 1.031 20 90 107
0.0364888 -0.264181 1.031 30 100 117
0.0380899 -0.264181 1.031 40 110 127
0.0396911 -0.264181 1.031 40 110 127
0.0412923 -0.264181 1.031 44 113 128
0.0428935 -0.264181 1.031 49 118 133
0.0444947 -0.264181 1.031 54 121 136
0.0460958 -0.264181 1.031 55 122 137
0.047697 -0.264181 1.031 59 126 141
0.0492982 -0.264181 1.031 60 127 142
0.05085 -0.263924 1.03 62 129 144
0.0524496 -0.263924 1.03 61 128 143
0.0540492 -0.263924 1.03 56 125 145
0.0556489 -0.263924 1.03 56 125 145
0.0571929 -0.263668 1.029 57 126 146
0.058791 -0.263668 1.029 59 128 148
0.0603891 -0.263668 1.029 63 130 155
0.0619871 -0.263668 1.029 50 117 142
0.0635852 -0.263668 1.029 19 92 113
0.0651199 -0.263412 1.028 8 81 102
0.0667164 -0.263412 1.028 13 86 107
0.068313 -0.263412 1.028 51 124 145
0.0699095 -0.263412 1.028 44 117 138
0.071506 -0.263412 1.028 4 77 98
0.0731025 -0.263412 1.028 0 58 77
0.074699 -0.263412 1.028 0 60 79
0.0763698 -0.263668 1.029 0 63 77
0.0778921 -0.263412 1.028 0 72 86
0.0795659 -0.263668 1.029 14 81 96
0.081164 -0.263668 1.029 0 52 67
0.0826816 -0.263412 1.028 0 66 82
0.0842782 -0.263412 1.028 3 78 94
0.0858747 -0.263412 1.028 35 112 135
0.0874712 -0.263412 1.028 55 132 155
0.0890677 -0.263412 1.028 50 134 158
0.0906642 -0.263412 1.028 47 131 155
0.0922608 -0.263412 1.028 0 68 96
0.0938573 -0.263412 1.028 0 61 89
0.0954538 -0.263412 1.028 0 60 88
0.0970503 -0.263412 1.028 13 102 130
0.0986468 -0.263412 1.028 0 73 98
0.100243 -0.263412 1.028 4 81 106
0.10184 -0.263412 1.028 63 139 166
0.103436 -0.263412 1.028 57 133 160
0.105033 -0.263412 1.028 0 58 84
0.106629 -0.263412 1.028 0 56 82
0.108331 -0.263668 1.029 24 88 117
0.109929 -0.263668 1.029 44 108 137
0.111527 -0.263668 1.029 66 110 131
0.113125 -0.263668 1.029 122 166 187
0.114835 -0.263924 1.03 164 183 190
0.116435 -0.263924 1.03 152 171 178
0.118034 -0.263924 1.03 164 167 170
0.119634 -0.263924 1.03 166 169 172
0.121116 -0.263668 1.029 175 175 176
0.122714 -0.263668 1.029 176 176 177
0.124312 -0.263668 1.029 178 176 177
0.12591 -0.263668 1.029 178 176 177
0.127384 -0.263412 1.028 180 178 179
0.128981 -0.263412 1.028 183 181 182
0.130577 -0.263412 1.028 187 183 184
0.132174 -0.263412 1.028 187 183 184
0.13377 -0.263412 1.028 190 186 187
0.135367 -0.263412 1.028 191 187 188
0.136963 -0.263412 1.028 191 187 188
0.13856 -0.263412 1.028 191 187 188
0.140156 -0.263412 1.028 191 187 188
0.141615 -0.263156 1.027 191 187 188
0.14321 -0.263156 1.027 192 188 189
0.144805 -0.263156 1.027 190 186 187
0.1464 -0.263156 1.027 189 185 186
0.147995 -0.263156 1.027 187 183 184
0.14959 -0.263156 1.027 193 189 189
0.151332 -0.263412 1.028 199 195 195
0.152928 -0.263412 1.028 186 182 182
0.154525 -0.263412 1.028 186 182 182
0.156122 -0.263412 1.028 183 179 179
0.157718 -0.263412 1.028 184 180 180
0.159315 -0.263412 1.028 201 197 197
0.160911 -0.263412 1.028 199 195 195
0.162508 -0.263412 1.028 186 182 182
0.164104 -0.263412 1.028 191 187 187
0.165701 -0.263412 1.028 193 189 189
0.167297 -0.263412 1.028 191 187 187
0.168729 -0.263156 1.027 190 186 186
0.170324 -0.263156 1.027 190 186 186
0.171919 -0.263156 1.027 191 187 187
0.173514 -0.263156 1.027 191 187 187
0.175109 -0.263156 1.027 191 187 187
0.176704 -0.263156 1.027 191 187 187
0.178299 -0.263156 1.027 188 186 186
0.179894 -0.263156 1.027 189 187 187
0.181489 -0.263156 1.027 183 187 186
0.183084 -0.263156 1.027 200 204 203
0.184679 -0.263156 1.027 177 193 196
0.186274 -0.263156 1.027 99 115 118
0.188052 -0.263412 1.028 20 48 58
0.189648 -0.263412 1.028 4 32 42
0.191245 -0.263412 1.028 0 19 34
0.192841 -0.263412 1.028 0 15 30
0.194627 -0.263668 1.029 0 16 28
0.196225 -0.263668 1.029 0 50 62
0.197823 -0.263668 1.029 81 141 153
0.199421 -0.263668 1.029 93 153 165
0.201019 -0.263668 1.029 93 158 171
0.202617 -0.263668 1.029 58 123 136
0.204216 -0.263668 1.029 0 27 41
0.205814 -0.263668 1.029 0 20 34
0.207412 -0.263668 1.029 0 15 35
0.20901 -0.263668 1.029 0 11 31
0.210608 -0.263668 1.029 0 11 31
0.212412 -0.263924 1.03 0 11 31
0.214012 -0.263924 1.03 27 82 99
0.215611 -0.263924 1.03 78 133 150
0.217211 -0.263924 1.03 81 139 158
0.218811 -0.263924 1.03 55 113 132
0.22041 -0.263924 1.03 0 41 58
0.22201 -0.263924 1.03 0 46 63
0.22361 -0.263924 1.03 63 113 131
0.22499 -0.263668 1.029 66 116 134
0.226589 -0.263668 1.029 35 90 107
0.228187 -0.263668 1.029 0 13 30
0.229785 -0.263668 1.029 0 17 34
0.231158 -0.263412 1.028 0 21 38
0.232754 -0.263412 1.028 0 20 42
0.236177 -0.263668 1.029 0 23 46
0.237775 -0.263668 1.029 46 107 130
0.239373 -0.263668 1.029 90 158 175
0.240971 -0.263668 1.029 96 164 181
0.242805 -0.263924 1.03 80 153 169
0.244405 -0.263924 1.03 0 66 82
0.246004 -0.263924 1.03 0 52 68
0.247844 -0.264181 1.031 0 66 82
0.249445 -0.264181 1.031 6 92 109
0.251047 -0.264181 1.031 19 105 122
0.252648 -0.264181 1.031 15 106 129
0.254002 -0.263924 1.03 50 141 164
0.255602 -0.263924 1.03 77 177 200
0.257202 -0.263924 1.03 86 186 209
0.258801 -0.263924 1.03 90 190 213
0.260401 -0.263924 1.03 91 191 214
0.262255 -0.264181 1.031 92 192 215
0.264112 -0.264437 1.032 86 186 209
0.265715 -0.264437 1.032 77 171 193
0.267835 -0.264949 1.034 60 154 176
0.269441 -0.264949 1.034 0 73 94
0.271309 -0.265206 1.035 13 86 107
0.27318 -0.265462 1.036 0 28 42
0.275055 -0.265718 1.037 0 12 26
0.331254 -0.305691 1.193 8 22 17
0.332828 -0.305435 1.192 8 23 15
0.334679 -0.305435 1.192 8 23 15
0.33653 -0.305435 1.192 8 23 15
0.338381 -0.305435 1.192 8 23 15
0.339947 -0.305179 1.191 8 23 15
0.34151 -0.304922 1.19 8 23 15
0.343358 -0.304922 1.19 9 22 14
0.344626 -0.30441 1.188 9 22 14
0.346179 -0.304154 1.187 9 22 14
0.348023 -0.304154 1.187 9 22 14
0.349277 -0.303641 1.185 9 22 14
0.351117 -0.303641 1.185 9 22 14
0.35266 -0.303385 1.184 9 22 14
0.3539 -0.302873 1.182 9 22 14
0.355735 -0.302873 1.182 9 22 14
0.356966 -0.30236 1.18 9 22 14
0.358798 -0.30236 1.18 9 22 14
0.360325 -0.302104 1.179 7 20 12
0.361849 -0.301848 1.178 26 37 29
0.363679 -0.301848 1.178 25 36 28
0.365508 -0.301848 1.178 9 21 16
0.367026 -0.301591 1.177 9 21 16
0.36854 -0.301335 1.176 9 20 18
0.369737 -0.300823 1.174 3 14 12
0.371877 -0.301079 1.175 0 9 11
0.371475 -0.299285 1.168 39 51 53
0.370732 -0.297235 1.16 78 90 92
0.368527 -0.292623 1.142 68 80 82
0.368355 -0.291086 1.136 75 87 89
-0.15243 -0.277095 1.088 58 68 104
-0.150602 -0.27684 1.087 57 67 103
-0.148777 -0.276585 1.086 54 64 100
-0.146955 -0.27633 1.085 53 63 99
-0.14527 -0.27633 1.085 50 61 99
-0.143585 -0.27633 1.085 48 59 97
-0.1419 -0.27633 1.085 47 58 96
-0.140215 -0.27633 1.085 47 58 96
-0.138529 -0.27633 1.085 46 57 95
-0.136844 -0.27633 1.085 45 56 94
-0.135284 -0.276585 1.086 45 56 94
-0.133597 -0.276585 1.086 44 55 93
-0.131911 -0.276585 1.086 43 54 92
-0.130344 -0.27684 1.087 41 52 90
-0.128774 -0.277095 1.088 40 52 88
-0.127085 -0.277095 1.088 39 51 87
-0.12551 -0.277349 1.089 39 51 87
-0.123819 -0.277349 1.089 39 51 87
-0.122128 -0.277349 1.089 38 50 84
-0.120436 -0.277349 1.089 36 48 82
-0.118745 -0.277349 1.089 36 48 82
-0.117054 -0.277349 1.089 34 46 80
-0.115257 -0.277095 1.088 33 45 79
-0.113567 -0.277095 1.088 32 44 78
-0.111774 -0.27684 1.087 31 43 77
-0.109985 -0.276585 1.086 30 42 76
-0.108298 -0.276585 1.086 30 42 76
-0.106514 -0.27633 1.085 29 41 75
-0.104829 -0.27633 1.085 31 42 73
-0.103049 -0.276076 1.084 31 42 73
-0.101272 -0.275821 1.083 27 37 66
-0.0995896 -0.275821 1.083 24 34 63
-0.0979077 -0.275821 1.083 34 41 66
-0.0962257 -0.275821 1.083 115 122 147
-0.0944565 -0.275566 1.082 105 112 137
-0.0928619 -0.275821 1.083 91 98 123
-0.0911799 -0.275821 1.083 45 52 77
-0.089498 -0.275821 1.083 30 37 62
-0.0878161 -0.275821 1.083 30 36 63
-0.0861341 -0.275821 1.083 34 40 67
-0.0844522 -0.275821 1.083 35 43 70
-0.0827703 -0.275821 1.083 36 44 71
-0.0810883 -0.275821 1.083 36 46 75
-0.0794064 -0.275821 1.083 36 46 75
-0.0777245 -0.275821 1.083 35 45 74
-0.0760425 -0.275821 1.083 34 44 73
-0.0743606 -0.275821 1.083 34 44 73
-0.0726786 -0.275821 1.083 34 44 73
-0.0709967 -0.275821 1.083 33 43 72
-0.0693148 -0.275821 1.083 33 43 72
-0.0676328 -0.275821 1.083 33 43 72
-0.0659509 -0.275821 1.083 33 43 72
-0.064269 -0.275821 1.083 33 43 72
-0.0626448 -0.276076 1.084 33 43 72
-0.0609051 -0.275821 1.083 33 43 72
-0.0592778 -0.276076 1.084 33 43 72
-0.0575412 -0.275821 1.083 33 43 72
-0.0558593 -0.275821 1.083 31 41 70
-0.0541773 -0.275821 1.083 31 41 70
-0.0525439 -0.276076 1.084 31 41 70
-0.0508604 -0.276076 1.084 31 41 70
-0.0491769 -0.276076 1.084 31 41 70
-0.0475372 -0.27633 1.085 30 40 69
-0.0458522 -0.27633 1.085 30 40 69
-0.0441671 -0.27633 1.085 27 39 68
-0.0424821 -0.27633 1.085 27 39 68
-0.0408347 -0.276585 1.086 27 40 66
-0.0391481 -0.276585 1.086 27 40 66
-0.037496 -0.27684 1.087 27 40 66
-0.0358408 -0.277095 1.088 26 39 65
-0.0341825 -0.277349 1.089 25 38 64
-0.0325807 -0.278113 1.092 24 37 63
-0.0292691 -0.278877 1.095 22 36 60
-0.027644 -0.279641 1.098 24 35 53
-0.0260097 -0.280405 1.101 22 33 51
-0.0243439 -0.280915 1.103 9 18 27
-0.0226925 -0.281679 1.106 1 10 19
-0.0210127 -0.282188 1.108 1 9 11
-0.0193268 -0.282698 1.11 1 9 11
-0.0176188 -0.282952 1.111 3 9 8
-0.0159077 -0.283207 1.112 3 9 8
-0.014168 -0.282952 1.111 3 9 8
-0.0124313 -0.282698 1.11 3 9 8
-0.0106592 -0.281424 1.105 0 4 11
-0.00887839 -0.279387 1.097 0 1 8
-0.00527653 -0.269454 1.058 42 63 86
-0.00361281 -0.267926 1.052 12 53 82
-0.00197714 -0.267671 1.051 12 53 82
-0.000344242 -0.267162 1.049 46 98 129
0.00128122 -0.266398 1.046 57 109 140
0.00290013 -0.265888 1.044 53 107 138
0.00451284 -0.265379 1.042 48 102 133
0.00612522 -0.265124 1.041 37 94 124
0.00773449 -0.26487 1.04 43 100 130
0.00934065 -0.264615 1.039 52 105 134
0.0109437 -0.26436 1.038 0 53 82
0.0125437 -0.264106 1.037 0 30 60
0.0141405 -0.263851 1.036 0 23 53
0.0157495 -0.263851 1.036 0 28 53
0.0173416 -0.263596 1.035 0 18 43
0.0189307 -0.263342 1.034 0 32 61
0.0205366 -0.263342 1.034 9 62 91
0.022121 -0.263087 1.033 40 105 132
0.0237023 -0.262832 1.032 29 94 121
0.025305 -0.262832 1.032 17 84 109
0.0268817 -0.262578 1.031 48 115 140
0.0284829 -0.262578 1.031 49 120 141
0.030084 -0.262578 1.031 48 119 140
0.0316852 -0.262578 1.031 47 119 138
0.0332864 -0.262578 1.031 46 118 137
0.0348876 -0.262578 1.031 17 87 104
0.0364888 -0.262578 1.031 14 84 101
0.0380899 -0.262578 1.031 17 87 104
0.0396911 -0.262578 1.031 12 82 99
0.0413323 -0.262832 1.032 25 93 110
0.0428935 -0.262578 1.031 38 106 123
0.0444947 -0.262578 1.031 32 101 116
0.0460958 -0.262578 1.031 28 97 112
0.047697 -0.262578 1.031 53 121 138
0.0492982 -0.262578 1.031 52 120 137
0.05085 -0.262323 1.03 51 121 138
0.0524496 -0.262323 1.03 51 121 138
0.0540492 -0.262323 1.03 49 119 143
0.0556489 -0.262323 1.03 47 117 141
0.0571929 -0.262068 1.029 52 122 146
0.058791 -0.262068 1.029 54 124 148
0.0603891 -0.262068 1.029 56 123 150
0.0619871 -0.262068 1.029 49 116 143
0.0635852 -0.262068 1.029 46 116 140
0.0651199 -0.261814 1.028 45 115 139
0.0667164 -0.261814 1.028 43 115 139
0.068313 -0.261814 1.028 46 118 142
0.0699095 -0.261814 1.028 44 117 138
0.071506 -0.261814 1.028 36 109 130
0.0731025 -0.261814 1.028 34 108 127
0.074699 -0.261814 1.028 37 111 130
0.0762956 -0.261814 1.028 52 125 141
0.0778921 -0.261814 1.028 56 129 145
0.0794886 -0.261814 1.028 57 125 142
0.0810851 -0.261814 1.028 1 69 86
0.0826816 -0.261814 1.028 0 69 88
0.0842782 -0.261814 1.028 2 74 93
0.0858747 -0.261814 1.028 29 106 129
0.0874712 -0.261814 1.028 40 117 140
0.0890677 -0.261814 1.028 70 156 181
0.0906642 -0.261814 1.028 84 170 195
0.0922608 -0.261814 1.028 5 98 127
0.0938573 -0.261814 1.028 0 49 78
0.0954538 -0.261814 1.028 11 105 132
0.0970503 -0.261814 1.028 76 170 197
0.0986468 -0.261814 1.028 13 102 130
0.100243 -0.261814 1.028 0 88 116
0.10184 -0.261814 1.028 51 139 169
0.103436 -0.261814 1.028 57 145 175
0.105033 -0.261814 1.028 0 64 95
0.106629 -0.261814 1.028 15 94 125
0.108226 -0.261814 1.028 57 122 154
0.109929 -0.262068 1.029 52 117 149
0.111527 -0.262068 1.029 81 127 148
0.113235 -0.262323 1.03 127 173 194
0.114835 -0.262323 1.03 168 189 198
0.116435 -0.262323 1.03 147 168 177
0.118034 -0.262323 1.03 164 167 170
0.119634 -0.262323 1.03 166 169 172
0.121233 -0.262323 1.03 168 168 169
0.122833 -0.262323 1.03 168 168 169
0.124312 -0.262068 1.029 170 168 169
0.12591 -0.262068 1.029 171 169 170
0.127508 -0.262068 1.029 175 171 172
0.128981 -0.261814 1.028 178 174 175
0.130577 -0.261814 1.028 186 182 183
0.132174 -0.261814 1.028 187 183 184
0.13377 -0.261814 1.028 189 185 186
0.135367 -0.261814 1.028 190 186 187
0.136963 -0.261814 1.028 191 187 188
0.13856 -0.261814 1.028 191 187 188
0.140156 -0.261814 1.028 192 188 189
0.141753 -0.261814 1.028 192 188 189
0.14321 -0.261559 1.027 191 187 188
0.144805 -0.261559 1.027 191 187 188
0.1464 -0.261559 1.027 191 187 188
0.147995 -0.261559 1.027 178 174 175
0.149735 -0.261814 1.028 190 186 186
0.151332 -0.261814 1.028 204 200 200
0.152928 -0.261814 1.028 190 188 188
0.154525 -0.261814 1.028 187 185 185
0.156122 -0.261814 1.028 189 187 188
0.157718 -0.261814 1.028 189 187 188
0.159315 -0.261814 1.028 198 196 197
0.160911 -0.261814 1.028 196 194 195
0.162508 -0.261814 1.028 190 186 187
0.164104 -0.261814 1.028 192 188 189
0.165701 -0.261814 1.028 193 189 190
0.167297 -0.261814 1.028 192 188 189
0.168894 -0.261814 1.028 191 187 188
0.170324 -0.261559 1.027 191 187 188
0.171919 -0.261559 1.027 192 188 189
0.173514 -0.261559 1.027 192 188 189
0.175109 -0.261559 1.027 192 188 189
0.176704 -0.261559 1.027 192 188 189
0.178299 -0.261559 1.027 189 187 188
0.179894 -0.261559 1.027 189 187 188
0.181489 -0.261559 1.027 184 190 190
0.183084 -0.261559 1.027 194 200 200
0.184679 -0.261559 1.027 169 187 192
0.186455 -0.261814 1.028 95 113 118
0.188052 -0.261814 1.028 74 111 120
0.189648 -0.261814 1.028 97 134 143
0.191245 -0.261814 1.028 71 127 141
0.192841 -0.261814 1.028 52 108 122
0.194627 -0.262068 1.029 33 102 117
0.196225 -0.262068 1.029 39 108 123
0.197823 -0.262068 1.029 90 162 174
0.199421 -0.262068 1.029 85 157 169
0.201019 -0.262068 1.029 86 156 168
0.202617 -0.262068 1.029 0 59 71
0.204216 -0.262068 1.029 0 34 47
0.205814 -0.262068 1.029 0 16 29
0.207412 -0.262068 1.029 0 12 29
0.20901 -0.262068 1.029 0 11 28
0.210608 -0.262068 1.029 0 6 23
0.212206 -0.262068 1.029 0 36 53
0.214012 -0.262323 1.03 74 138 154
0.215611 -0.262323 1.03 97 161 177
0.217211 -0.262323 1.03 84 146 162
0.218811 -0.262323 1.03 63 125 141
0.22041 -0.262323 1.03 0 27 44
0.22201 -0.262323 1.03 0 18 35
0.223392 -0.262068 1.029 0 15 36
0.22499 -0.262068 1.029 0 16 37
0.226589 -0.262068 1.029 0 11 28
0.228187 -0.262068 1.029 0 14 31
0.229785 -0.262068 1.029 0 46 64
0.231383 -0.262068 1.029 55 116 134
0.232981 -0.262068 1.029 40 106 123
0.234579 -0.262068 1.029 6 72 89
0.236177 -0.262068 1.029 4 69 89
0.237775 -0.262068 1.029 65 130 150
0.239373 -0.262068 1.029 80 141 159
0.241205 -0.262323 1.03 102 163 181
0.242805 -0.262323 1.03 44 109 122
0.244405 -0.262323 1.03 0 17 30
0.246243 -0.262578 1.031 0 18 29
0.247844 -0.262578 1.031 0 21 32
0.249445 -0.262578 1.031 0 26 34
0.251047 -0.262578 1.031 0 40 48
0.252648 -0.262578 1.031 7 97 110
0.254249 -0.262578 1.031 61 151 164
0.25585 -0.262578 1.031 90 178 203
0.257451 -0.262578 1.031 98 186 211
0.259053 -0.262578 1.031 77 171 193
0.260654 -0.262578 1.031 58 152 174
0.262255 -0.262578 1.031 85 172 195
0.264112 -0.262832 1.032 97 184 207
0.265972 -0.263087 1.033 79 168 189
0.267835 -0.263342 1.034 79 168 189
0.269702 -0.263596 1.035 45 114 134
0.271571 -0.263851 1.036 54 123 143
0.27318 -0.263851 1.036 0 26 40
0.275055 -0.264106 1.037 0 12 26
0.329678 -0.304091 1.194 7 21 16
0.331254 -0.303836 1.193 7 21 16
0.333386 -0.304091 1.194 7 22 14
0.33496 -0.303836 1.193 8 23 15
0.337095 -0.304091 1.194 8 23 15
0.338665 -0.303836 1.193 8 23 15
0.340233 -0.303581 1.192 10 23 15
0.341797 -0.303327 1.191 10 23 15
0.343358 -0.303072 1.19 10 23 15
0.344916 -0.302817 1.189 9 22 14
0.346471 -0.302563 1.188 9 22 14
0.348023 -0.302308 1.187 9 22 14
0.349571 -0.302053 1.186 9 22 14
0.351117 -0.301799 1.185 9 22 14
0.35266 -0.301544 1.184 8 21 13
0.354199 -0.301289 1.183 8 21 13
0.355735 -0.301035 1.182 8 21 13
0.357268 -0.30078 1.181 8 21 13
0.358798 -0.300525 1.18 10 23 15
0.360325 -0.300271 1.179 7 20 12
0.362156 -0.300271 1.179 24 37 29
0.363679 -0.300016 1.178 24 37 29
0.365508 -0.300016 1.178 8 20 15
0.367338 -0.300016 1.178 9 21 16
0.368227 -0.299252 1.175 8 19 17
0.370367 -0.299507 1.176 3 14 12
0.371877 -0.299252 1.175 0 10 12
0.371157 -0.297214 1.167 47 59 61
0.370732 -0.295432 1.16 76 91 92
0.368204 -0.290593 1.141 66 81 82
0.368031 -0.289065 1.135 73 88 89
-0.15243 -0.275403 1.088 58 67 105
-0.150463 -0.274897 1.086 53 62 100
-0.148777 -0.274897 1.086 47 58 96
-0.146955 -0.274643 1.085 50 61 99
-0.14527 -0.274643 1.085 48 59 97
-0.143585 -0.274643 1.085 48 59 97
-0.141769 -0.27439 1.084 47 58 96
-0.140215 -0.274643 1.085 47 58 96
-0.138529 -0.274643 1.085 44 58 95
-0.136844 -0.274643 1.085 43 57 94
-0.135284 -0.274897 1.086 42 56 93
-0.133597 -0.274897 1.086 42 56 93
-0.131911 -0.274897 1.086 41 55 92
-0.130344 -0.27515 1.087 39 53 90
-0.128774 -0.275403 1.088 39 53 90
-0.127085 -0.275403 1.088 38 52 89
-0.125395 -0.275403 1.088 38 53 88
-0.123705 -0.275403 1.088 37 52 87
-0.122128 -0.275656 1.089 37 52 87
-0.120326 -0.275403 1.088 36 51 86
-0.118636 -0.275403 1.088 35 50 85
-0.116946 -0.275403 1.088 34 49 84
-0.115151 -0.27515 1.087 32 47 80
-0.113358 -0.274897 1.086 31 46 79
-0.111672 -0.274897 1.086 30 45 78
-0.109884 -0.274643 1.085 30 45 78
-0.108099 -0.27439 1.084 31 43 77
-0.106317 -0.274137 1.083 31 43 77
-0.104635 -0.274137 1.083 30 43 74
-0.102953 -0.274137 1.083 30 43 74
-0.101272 -0.274137 1.083 32 43 74
-0.0994977 -0.273884 1.082 26 37 68
-0.0978173 -0.273884 1.082 29 37 64
-0.0961369 -0.273884 1.082 67 75 102
-0.0944565 -0.273884 1.082 94 103 128
-0.0927761 -0.273884 1.082 56 65 90
-0.0910957 -0.273884 1.082 38 45 70
-0.0894154 -0.273884 1.082 35 42 67
-0.087735 -0.273884 1.082 34 40 67
-0.0860546 -0.273884 1.082 30 36 63
-0.0843742 -0.273884 1.082 33 41 68
-0.0826938 -0.273884 1.082 36 44 71
-0.0810134 -0.273884 1.082 35 45 74
-0.0793331 -0.273884 1.082 35 45 74
-0.0776527 -0.273884 1.082 35 45 74
-0.0759021 -0.273631 1.081 34 44 73
-0.0742919 -0.273884 1.082 34 44 73
-0.0726115 -0.273884 1.082 34 44 73
-0.0709312 -0.273884 1.082 34 44 73
-0.0692508 -0.273884 1.082 34 44 73
-0.0675704 -0.273884 1.082 33 43 72
-0.06589 -0.273884 1.082 33 43 72
-0.064269 -0.274137 1.083 33 43 72
-0.062587 -0.274137 1.083 33 43 72
-0.0608489 -0.273884 1.082 33 43 72
-0.0592232 -0.274137 1.083 33 43 72
-0.0575412 -0.274137 1.083 33 43 72
-0.0558593 -0.274137 1.083 31 41 70
-0.0541773 -0.274137 1.083 31 41 70
-0.0524954 -0.274137 1.083 31 41 70
-0.0508135 -0.274137 1.083 30 40 69
-0.0491769 -0.27439 1.084 30 40 69
-0.0474934 -0.27439 1.084 30 40 69
-0.0458099 -0.27439 1.084 29 39 68
-0.0441671 -0.274643 1.085 27 39 68
-0.0424821 -0.274643 1.085 26 38 67
-0.0407971 -0.274643 1.085 27 39 68
-0.0391481 -0.274897 1.086 27 39 68
-0.037496 -0.27515 1.087 26 38 67
-0.0358408 -0.275403 1.088 25 37 66
-0.0341825 -0.275656 1.089 24 37 63
-0.0325509 -0.276162 1.091 24 37 63
-0.0292423 -0.276922 1.094 22 36 60
-0.0276188 -0.277681 1.097 24 34 54
-0.0259624 -0.278187 1.099 21 31 51
-0.0242998 -0.278693 1.101 8 17 28
-0.0226309 -0.2792 1.103 2 11 22
-0.0209559 -0.279706 1.105 3 11 13
-0.0192746 -0.280212 1.107 2 10 12
-0.0175712 -0.280465 1.108 3 9 9
-0.0158505 -0.280465 1.108 1 7 7
-0.0141297 -0.280465 1.108 3 9 9
-0.0123753 -0.279706 1.105 4 10 10
-0.010611 -0.27844 1.1 0 4 12
-0.00527653 -0.267809 1.058 21 47 69
-0.00361624 -0.266543 1.053 1 44 73
-0.00197714 -0.266037 1.051 19 62 91
-0.000344242 -0.265531 1.049 49 101 132
0.00128244 -0.265025 1.047 54 106 137
0.00290013 -0.264265 1.044 51 104 138
0.00451717 -0.264012 1.043 37 90 124
0.00612522 -0.263506 1.041 31 85 116
0.00773449 -0.263253 1.04 46 100 131
0.00934065 -0.263 1.039 43 94 123
0.0109437 -0.262746 1.038 0 42 71
0.0125437 -0.262493 1.037 0 13 43
0.0141405 -0.26224 1.036 0 15 45
0.0157495 -0.26224 1.036 0 15 44
0.0173416 -0.261987 1.035 0 12 41
0.018949 -0.261987 1.035 0 11 40
0.0205366 -0.261734 1.034 1 52 81
0.022121 -0.261481 1.033 42 104 133
0.0237023 -0.261228 1.032 37 99 128
0.025305 -0.261228 1.032 19 86 111
0.0268817 -0.260975 1.031 48 115 140
0.0284829 -0.260975 1.031 47 121 140
0.030084 -0.260975 1.031 40 114 133
0.0316852 -0.260975 1.031 47 119 138
0.0332864 -0.260975 1.031 43 115 134
0.0348876 -0.260975 1.031 17 87 104
0.0364888 -0.260975 1.031 14 84 101
0.0380899 -0.260975 1.031 15 85 102
0.0396911 -0.260975 1.031 14 84 101
0.0413323 -0.261228 1.032 14 79 99
0.0428935 -0.260975 1.031 5 70 90
0.0444947 -0.260975 1.031 0 65 82
0.0460958 -0.260975 1.031 8 74 91
0.047697 -0.260975 1.031 49 115 132
0.0492982 -0.260975 1.031 11 77 94
0.0508994 -0.260975 1.031 0 64 81
0.0524496 -0.260721 1.03 6 76 93
0.0540492 -0.260721 1.03 12 84 110
0.0556489 -0.260721 1.03 10 82 108
0.0572485 -0.260721 1.03 8 80 106
0.058791 -0.260468 1.029 4 76 102
0.0603891 -0.260468 1.029 3 75 101
0.0619871 -0.260468 1.029 12 84 110
0.0635852 -0.260468 1.029 29 101 125
0.0651833 -0.260468 1.029 34 106 130
0.0667164 -0.260215 1.028 36 108 134
0.068313 -0.260215 1.028 41 113 139
0.0699095 -0.260215 1.028 51 124 145
0.071506 -0.260215 1.028 58 131 152
0.0731025 -0.260215 1.028 59 135 155
0.074699 -0.260215 1.028 58 134 154
0.0762956 -0.260215 1.028 58 134 154
0.0778921 -0.260215 1.028 60 136 156
0.0794886 -0.260215 1.028 62 136 155
0.0810851 -0.260215 1.028 62 136 155
0.0826816 -0.260215 1.028 56 134 154
0.0842782 -0.260215 1.028 54 132 152
0.0858747 -0.260215 1.028 29 116 137
0.0874712 -0.260215 1.028 43 130 151
0.0890677 -0.260215 1.028 80 170 195
0.0906642 -0.260215 1.028 89 179 204
0.0922608 -0.260215 1.028 48 141 165
0.0938573 -0.260215 1.028 18 111 135
0.0954538 -0.260215 1.028 76 172 199
0.0970503 -0.260215 1.028 86 182 209
0.0986468 -0.260215 1.028 39 129 154
0.100243 -0.260215 1.028 22 112 137
0.10184 -0.260215 1.028 39 131 158
0.103436 -0.260215 1.028 16 108 135
0.105033 -0.260215 1.028 4 82 109
0.106629 -0.260215 1.028 82 160 187
0.108226 -0.260215 1.028 116 185 213
0.109929 -0.260468 1.029 97 166 194
0.111527 -0.260468 1.029 107 151 172
0.113235 -0.260721 1.03 151 195 216
0.114835 -0.260721 1.03 176 195 204
0.116435 -0.260721 1.03 168 187 196
0.118034 -0.260721 1.03 182 185 188
0.119634 -0.260721 1.03 179 182 185
0.121233 -0.260721 1.03 175 175 176
0.122833 -0.260721 1.03 171 171 172
0.124433 -0.260721 1.03 169 169 170
0.12591 -0.260468 1.029 171 171 172
0.127508 -0.260468 1.029 174 172 173
0.129106 -0.260468 1.029 176 174 175
0.130704 -0.260468 1.029 178 176 177
0.132174 -0.260215 1.028 184 182 183
0.13377 -0.260215 1.028 185 183 184
0.135367 -0.260215 1.028 187 185 186
0.136963 -0.260215 1.028 188 186 187
0.13856 -0.260215 1.028 189 187 188
0.140156 -0.260215 1.028 189 187 188
0.141753 -0.260215 1.028 189 187 188
0.143349 -0.260215 1.028 191 187 188
0.144946 -0.260215 1.028 196 192 193
0.146542 -0.260215 1.028 196 192 193
0.148139 -0.260215 1.028 173 169 170
0.149735 -0.260215 1.028 180 176 176
0.151332 -0.260215 1.028 204 200 200
0.152928 -0.260215 1.028 199 197 197
0.154525 -0.260215 1.028 191 189 189
0.156273 -0.260468 1.029 189 187 188
0.157871 -0.260468 1.029 190 188 189
0.15947 -0.260468 1.029 191 189 190
0.161068 -0.260468 1.029 190 188 189
0.162666 -0.260468 1.029 190 186 187
0.164104 -0.260215 1.028 192 188 189
0.165701 -0.260215 1.028 193 189 190
0.167297 -0.260215 1.028 192 188 189
0.168894 -0.260215 1.028 193 189 190
0.17049 -0.260215 1.028 193 189 190
0.172087 -0.260215 1.028 193 189 190
0.173683 -0.260215 1.028 193 189 190
0.17528 -0.260215 1.028 196 192 193
0.176704 -0.259962 1.027 193 189 190
0.178299 -0.259962 1.027 191 189 190
0.179894 -0.259962 1.027 191 189 190
0.181489 -0.259962 1.027 190 196 196
0.183084 -0.259962 1.027 192 198 198
0.184679 -0.259962 1.027 157 178 185
0.186455 -0.260215 1.028 97 118 125
0.188052 -0.260215 1.028 99 141 154
0.189648 -0.260215 1.028 106 148 161
0.191245 -0.260215 1.028 91 154 167
0.192841 -0.260215 1.028 94 157 170
0.194627 -0.260468 1.029 86 161 177
0.196225 -0.260468 1.029 86 161 177
0.197823 -0.260468 1.029 86 160 174
0.199421 -0.260468 1.029 83 157 171
0.201019 -0.260468 1.029 79 157 172
0.202617 -0.260468 1.029 35 113 128
0.204216 -0.260468 1.029 1 69 86
0.205814 -0.260468 1.029 0 57 74
0.207412 -0.260468 1.029 0 40 62
0.20901 -0.260468 1.029 0 33 55
0.210608 -0.260468 1.029 0 35 55
0.212206 -0.260468 1.029 54 119 139
0.214012 -0.260721 1.03 97 160 178
0.215402 -0.260468 1.029 90 153 171
0.217 -0.260468 1.029 83 144 162
0.218598 -0.260468 1.029 0 54 72
0.220196 -0.260468 1.029 0 14 32
0.221794 -0.260468 1.029 0 14 32
0.223392 -0.260468 1.029 0 14 33
0.22499 -0.260468 1.029 0 10 29
0.226589 -0.260468 1.029 0 10 29
0.228187 -0.260468 1.029 0 47 66
0.229785 -0.260468 1.029 84 143 166
0.231383 -0.260468 1.029 87 146 169
0.232981 -0.260468 1.029 86 142 166
0.234579 -0.260468 1.029 24 80 104
0.236177 -0.260468 1.029 0 25 48
0.237775 -0.260468 1.029 0 59 82
0.239373 -0.260468 1.029 53 99 127
0.241205 -0.260721 1.03 53 99 127
0.242805 -0.260721 1.03 0 27 44
0.244405 -0.260721 1.03 0 5 22
0.246243 -0.260975 1.031 0 25 43
0.247844 -0.260975 1.031 0 24 42
0.249445 -0.260975 1.031 0 25 35
0.251047 -0.260975 1.031 0 49 59
0.252648 -0.260975 1.031 20 94 108
0.254249 -0.260975 1.031 85 159 173
0.25585 -0.260975 1.031 97 174 197
0.257451 -0.260975 1.031 82 159 182
0.259053 -0.260975 1.031 0 64 82
0.260907 -0.261228 1.032 0 69 87
0.262509 -0.261228 1.032 0 62 85
0.264368 -0.261481 1.033 20 99 122
0.26623 -0.261734 1.034 82 164 186
0.268095 -0.261987 1.035 93 175 197
0.269702 -0.261987 1.035 77 140 158
0.271571 -0.26224 1.036 56 119 137
0.329954 -0.302487 1.195 7 22 14
0.33181 -0.302487 1.195 7 22 14
0.333665 -0.302487 1.195 7 22 14
0.335521 -0.302487 1.195 8 23 15
0.337377 -0.302487 1.195 8 23 15
0.339233 -0.302487 1.195 8 23 15
0.340804 -0.302234 1.194 10 23 15
0.342371 -0.301981 1.193 10 23 15
0.343647 -0.301475 1.191 10 23 15
0.345206 -0.301222 1.19 9 22 14
0.346763 -0.300969 1.189 9 22 14
0.348023 -0.300462 1.187 9 22 14
0.349866 -0.300462 1.187 8 21 13
0.351117 -0.299956 1.185 8 21 13
0.352957 -0.299956 1.185 8 21 13
0.354199 -0.29945 1.183 8 21 13
0.355735 -0.299197 1.182 8 21 13
0.357268 -0.298944 1.181 8 21 13
0.358798 -0.298691 1.18 10 23 15
0.360631 -0.298691 1.18 10 23 15
0.362156 -0.298437 1.179 23 36 28
0.363988 -0.298437 1.179 23 36 28
0.365508 -0.298184 1.178 6 18 13
0.367338 -0.298184 1.178 9 21 16
0.368854 -0.297931 1.177 6 19 18
0.370682 -0.297931 1.177 0 13 12
0.371877 -0.297425 1.175 0 10 12
0.371475 -0.295653 1.168 53 65 67
0.371052 -0.293881 1.161 75 90 91
0.368527 -0.289072 1.142 66 81 82
0.368031 -0.2873 1.135 71 86 87
-0.15243 -0.273711 1.088 56 65 103
-0.150463 -0.273208 1.086 50 59 97
-0.148777 -0.273208 1.086 50 61 99
-0.146955 -0.272956 1.085 48 59 97
-0.14527 -0.272956 1.085 48 59 97
-0.143452 -0.272705 1.084 47 58 96
-0.1419 -0.272956 1.085 47 58 96
-0.140215 -0.272956 1.085 46 57 95
-0.138529 -0.272956 1.085 44 58 95
-0.136844 -0.272956 1.085 43 57 94
-0.135284 -0.273208 1.086 43 57 94
-0.133597 -0.273208 1.086 42 56 93
-0.131911 -0.273208 1.086 41 55 92
-0.130344 -0.27346 1.087 39 53 90
-0.128774 -0.273711 1.088 39 53 90
-0.127085 -0.273711 1.088 38 52 89
-0.125395 -0.273711 1.088 38 52 89
-0.123705 -0.273711 1.088 37 51 88
-0.122016 -0.273711 1.088 37 52 87
-0.120326 -0.273711 1.088 36 51 86
-0.118636 -0.273711 1.088 35 50 85
-0.116839 -0.27346 1.087 34 49 84
-0.115045 -0.273208 1.086 34 49 82
-0.113254 -0.272956 1.085 32 47 80
-0.111569 -0.272956 1.085 31 46 79
-0.109681 -0.272453 1.083 31 46 79
-0.107999 -0.272453 1.083 33 45 79
-0.106219 -0.272202 1.082 32 44 78
-0.104539 -0.272202 1.082 32 44 78
-0.102858 -0.272202 1.082 31 43 77
-0.101178 -0.272202 1.082 33 44 75
-0.0994977 -0.272202 1.082 33 44 75
-0.0978173 -0.272202 1.082 31 39 66
-0.096048 -0.27195 1.081 31 39 66
-0.0943692 -0.27195 1.081 31 39 66
-0.0926904 -0.27195 1.081 38 46 73
-0.0910116 -0.27195 1.081 42 48 75
-0.0893327 -0.27195 1.081 47 53 80
-0.0875728 -0.271699 1.08 42 48 75
-0.0858955 -0.271699 1.08 31 37 64
-0.0842183 -0.271699 1.08 30 38 65
-0.082541 -0.271699 1.08 36 44 71
-0.0809386 -0.27195 1.081 34 44 73
-0.0791864 -0.271699 1.08 35 45 74
-0.0775809 -0.27195 1.081 35 45 74
-0.0758319 -0.271699 1.08 34 44 73
-0.0741546 -0.271699 1.08 34 44 73
-0.0724773 -0.271699 1.08 34 44 73
-0.0708 -0.271699 1.08 34 44 73
-0.0691868 -0.27195 1.081 34 44 73
-0.0675079 -0.27195 1.081 33 43 72
-0.06589 -0.272202 1.082 33 43 72
-0.0642096 -0.272202 1.082 33 43 72
-0.0625292 -0.272202 1.082 33 43 72
-0.0608489 -0.272202 1.082 33 43 72
-0.0591685 -0.272202 1.082 33 43 72
-0.0574881 -0.272202 1.082 31 41 70
-0.0558077 -0.272202 1.082 31 41 70
-0.0541273 -0.272202 1.082 30 40 69
-0.0524954 -0.272453 1.083 30 40 69
-0.0508135 -0.272453 1.083 30 40 69
-0.0491315 -0.272453 1.083 29 39 68
-0.0474496 -0.272453 1.083 27 39 68
-0.0458099 -0.272705 1.084 26 38 67
-0.0441671 -0.272956 1.085 26 38 67
-0.0424821 -0.272956 1.085 26 38 67
-0.0407971 -0.272956 1.085 26 38 67
-0.0391481 -0.273208 1.086 26 38 67
-0.0374615 -0.273208 1.086 26 38 67
-0.0358078 -0.27346 1.087 25 37 66
-0.0341511 -0.273711 1.088 24 37 63
-0.032521 -0.274214 1.09 22 35 61
-0.0308848 -0.274717 1.092 22 36 60
-0.0275433 -0.275221 1.094 20 33 52
-0.0259152 -0.275975 1.097 16 29 48
-0.0242336 -0.276227 1.098 7 16 27
-0.0225694 -0.27673 1.1 2 11 22
-0.02088 -0.276982 1.101 0 6 8
-0.0192049 -0.277485 1.103 2 10 12
-0.0175078 -0.277736 1.104 1 10 9
-0.0157789 -0.277485 1.103 0 8 7
-0.0140532 -0.277233 1.102 1 10 9
-0.0122521 -0.275221 1.094 2 11 10
-0.00701774 -0.269938 1.073 5 32 56
-0.00527653 -0.266164 1.058 66 93 117
-0.00362311 -0.265409 1.055 45 91 119
-0.00197902 -0.264654 1.052 44 90 118
-0.00034457 -0.264151 1.05 43 96 130
0.00128244 -0.263397 1.047 45 98 132
0.00290291 -0.262893 1.045 43 96 130
0.00451717 -0.26239 1.043 18 71 105
0.0061311 -0.262139 1.042 22 77 106
0.00774193 -0.261887 1.041 44 99 128
0.00934964 -0.261636 1.04 38 89 118
0.0109437 -0.261132 1.038 0 49 78
0.0125437 -0.260881 1.037 0 44 69
0.0141405 -0.260629 1.036 0 44 69
0.0157343 -0.260378 1.035 3 52 72
0.0173416 -0.260378 1.035 0 43 63
0.0189307 -0.260126 1.034 0 45 69
0.0205366 -0.260126 1.034 27 81 105
0.022121 -0.259875 1.033 42 105 130
0.0237253 -0.259875 1.033 41 104 129
0.025305 -0.259623 1.032 21 91 115
0.0269078 -0.259623 1.032 41 111 135
0.0284829 -0.259371 1.031 45 117 141
0.030084 -0.259371 1.031 39 111 135
0.0316852 -0.259371 1.031 39 112 133
0.0332864 -0.259371 1.031 39 112 133
0.0348876 -0.259371 1.031 20 92 111
0.0364888 -0.259371 1.031 15 87 106
0.0380899 -0.259371 1.031 24 96 115
0.0396911 -0.259371 1.031 25 97 116
0.0412923 -0.259371 1.031 11 78 98
0.0428935 -0.259371 1.031 1 68 88
0.0444947 -0.259371 1.031 2 68 85
0.0460958 -0.259371 1.031 3 69 86
0.047697 -0.259371 1.031 11 79 96
0.0492982 -0.259371 1.031 0 62 79
0.0508994 -0.259371 1.031 0 66 86
0.0524496 -0.25912 1.03 12 81 101
0.0540492 -0.25912 1.03 26 96 122
0.0556489 -0.25912 1.03 17 87 113
0.0572485 -0.25912 1.03 8 78 104
0.058791 -0.258868 1.029 0 67 93
0.0603891 -0.258868 1.029 0 63 89
0.0619871 -0.258868 1.029 0 60 86
0.0635852 -0.258868 1.029 0 65 90
0.0651833 -0.258868 1.029 7 74 99
0.0667164 -0.258617 1.028 9 81 105
0.068313 -0.258617 1.028 12 84 108
0.0699095 -0.258617 1.028 38 110 134
0.071506 -0.258617 1.028 61 133 157
0.0731025 -0.258617 1.028 51 126 149
0.074699 -0.258617 1.028 16 91 114
0.0762956 -0.258617 1.028 31 107 127
0.0778921 -0.258617 1.028 49 125 145
0.0794886 -0.258617 1.028 58 134 154
0.0810851 -0.258617 1.028 63 139 159
0.0826816 -0.258617 1.028 61 139 159
0.0842782 -0.258617 1.028 61 139 159
0.0858747 -0.258617 1.028 34 121 142
0.0874712 -0.258617 1.028 45 132 153
0.0890677 -0.258617 1.028 85 175 200
0.0906642 -0.258617 1.028 92 182 207
0.0922608 -0.258617 1.028 89 183 210
0.0938573 -0.258617 1.028 91 185 212
0.0954538 -0.258617 1.028 95 195 223
0.0970503 -0.258617 1.028 92 192 220
0.0986468 -0.258617 1.028 82 182 210
0.100243 -0.258617 1.028 28 128 156
0.10184 -0.258617 1.028 24 117 146
0.103436 -0.258617 1.028 18 111 140
0.105033 -0.258617 1.028 58 145 178
0.106629 -0.258617 1.028 103 190 223
0.108226 -0.258617 1.028 114 184 215
0.109929 -0.258868 1.029 112 182 213
0.111527 -0.258868 1.029 115 160 184
0.113125 -0.258868 1.029 159 204 228
0.114835 -0.25912 1.03 179 200 209
0.116435 -0.25912 1.03 179 200 209
0.118034 -0.25912 1.03 198 201 204
0.11975 -0.259371 1.031 198 201 204
0.121233 -0.25912 1.03 199 199 200
0.122833 -0.25912 1.03 189 189 190
0.124433 -0.25912 1.03 187 187 188
0.126032 -0.25912 1.03 186 186 187
0.127508 -0.258868 1.029 187 185 186
0.129106 -0.258868 1.029 184 182 183
0.130704 -0.258868 1.029 181 179 180
0.132174 -0.258617 1.028 181 179 180
0.13377 -0.258617 1.028 183 181 182
0.135367 -0.258617 1.028 187 185 186
0.136963 -0.258617 1.028 188 186 187
0.13856 -0.258617 1.028 188 186 187
0.140156 -0.258617 1.028 188 186 187
0.141753 -0.258617 1.028 188 186 187
0.143349 -0.258617 1.028 190 186 187
0.144946 -0.258617 1.028 190 186 187
0.146542 -0.258617 1.028 184 180 181
0.148139 -0.258617 1.028 170 166 167
0.149735 -0.258617 1.028 179 175 175
0.151332 -0.258617 1.028 205 201 201
0.153077 -0.258868 1.029 201 199 199
0.154675 -0.258868 1.029 198 196 196
0.156273 -0.258868 1.029 189 187 188
0.157871 -0.258868 1.029 189 187 188
0.15947 -0.258868 1.029 189 187 188
0.161068 -0.258868 1.029 189 187 188
0.162666 -0.258868 1.029 189 187 188
0.164264 -0.258868 1.029 190 188 189
0.165862 -0.258868 1.029 190 188 189
0.16746 -0.258868 1.029 190 188 189
0.169058 -0.258868 1.029 193 189 190
0.170656 -0.258868 1.029 193 189 190
0.172254 -0.258868 1.029 194 190 191
0.173683 -0.258617 1.028 196 192 193
0.17528 -0.258617 1.028 196 192 193
0.176876 -0.258617 1.028 194 190 191
0.178473 -0.258617 1.028 194 192 193
0.180069 -0.258617 1.028 194 192 193
0.181666 -0.258617 1.028 190 198 200
0.183262 -0.258617 1.028 193 201 203
0.184859 -0.258617 1.028 148 174 182
0.186455 -0.258617 1.028 100 126 134
0.188052 -0.258617 1.028 80 131 146
0.189648 -0.258617 1.028 90 141 156
0.191245 -0.258617 1.028 72 147 163
0.193029 -0.258868 1.029 79 154 170
0.194627 -0.258868 1.029 82 163 181
0.196225 -0.258868 1.029 82 163 181
0.197823 -0.258868 1.029 74 160 177
0.199421 -0.258868 1.029 74 160 177
0.201215 -0.25912 1.03 82 164 179
0.202814 -0.25912 1.03 78 160 175
0.204414 -0.25912 1.03 84 162 177
0.206014 -0.25912 1.03 81 159 174
0.207412 -0.258868 1.029 78 151 167
0.20901 -0.258868 1.029 67 140 156
0.210608 -0.258868 1.029 83 156 172
0.212206 -0.258868 1.029 91 164 180
0.213804 -0.258868 1.029 88 158 175
0.215611 -0.25912 1.03 79 149 166
0.217211 -0.25912 1.03 68 134 151
0.218811 -0.25912 1.03 0 36 53
0.22041 -0.25912 1.03 0 22 38
0.22201 -0.25912 1.03 0 18 34
0.22361 -0.25912 1.03 0 14 31
0.225209 -0.25912 1.03 0 13 30
0.226809 -0.25912 1.03 0 21 39
0.228408 -0.25912 1.03 51 114 132
0.230008 -0.25912 1.03 95 162 182
0.231383 -0.258868 1.029 103 170 190
0.232981 -0.258868 1.029 67 132 157
0.234579 -0.258868 1.029 0 36 61
0.236177 -0.258868 1.029 0 10 34
0.237775 -0.258868 1.029 0 8 32
0.239606 -0.25912 1.03 0 4 29
0.241205 -0.25912 1.03 0 10 35
0.242805 -0.25912 1.03 0 6 21
0.244405 -0.25912 1.03 0 33 48
0.246243 -0.259371 1.031 41 118 127
0.247844 -0.259371 1.031 57 134 143
0.249445 -0.259371 1.031 16 97 103
0.251047 -0.259371 1.031 0 59 65
0.252648 -0.259371 1.031 6 84 91
0.254496 -0.259623 1.032 82 160 167
0.256098 -0.259623 1.032 80 146 163
0.257701 -0.259623 1.032 60 126 143
0.259304 -0.259623 1.032 0 29 40
0.260907 -0.259623 1.032 0 18 29
0.262764 -0.259875 1.033 0 22 39
0.264624 -0.260126 1.034 0 43 60
0.266487 -0.260378 1.035 100 168 185
0.268095 -0.260378 1.035 110 178 195
0.269962 -0.260629 1.036 57 111 130
0.271834 -0.260881 1.037 65 119 138
0.331058 -0.301636 1.199 7 22 14
0.332643 -0.301384 1.198 8 23 15
0.334503 -0.301384 1.198 8 23 15
0.336083 -0.301133 1.197 8 23 15
0.337942 -0.301133 1.197 9 24 16
0.339801 -0.301133 1.197 9 24 16
0.341374 -0.300881 1.196 10 23 15
0.342945 -0.300629 1.195 10 23 15
0.344512 -0.300378 1.194 10 23 15
0.345786 -0.299875 1.192 10 23 15
0.347054 -0.299372 1.19 9 22 14
0.348316 -0.298868 1.188 9 22 14
0.349866 -0.298617 1.187 8 21 13
0.351413 -0.298365 1.186 8 21 13
0.352957 -0.298114 1.185 8 21 13
0.354199 -0.297611 1.183 8 21 13
0.355735 -0.297359 1.182 8 21 13
0.357268 -0.297107 1.181 8 21 13
0.358798 -0.296856 1.18 10 23 15
0.360631 -0.296856 1.18 10 23 15
0.362156 -0.296604 1.179 24 37 29
0.363988 -0.296604 1.179 20 33 25
0.365508 -0.296353 1.178 7 19 14
0.367338 -0.296353 1.178 9 21 16
0.369167 -0.296353 1.178 6 19 18
0.370682 -0.296101 1.177 0 13 12
0.371877 -0.295598 1.175 0 10 11
0.371475 -0.293837 1.168 53 68 69
0.370732 -0.291824 1.16 73 90 91
0.368527 -0.287296 1.142 62 79 80
0.368031 -0.285535 1.135 68 85 86
-0.15243 -0.272019 1.088 53 64 102
-0.150602 -0.271769 1.087 50 61 99
-0.148777 -0.271519 1.086 48 59 97
-0.146955 -0.271269 1.085 48 59 97
-0.14527 -0.271269 1.085 47 58 96
-0.143585 -0.271269 1.085 47 58 96
-0.1419 -0.271269 1.085 45 59 96
-0.140215 -0.271269 1.085 44 58 95
-0.138529 -0.271269 1.085 44 58 95
-0.136971 -0.271519 1.086 43 57 94
-0.135284 -0.271519 1.086 43 57 94
-0.133597 -0.271519 1.086 42 56 93
-0.131911 -0.271519 1.086 42 56 93
-0.130344 -0.271769 1.087 41 55 92
-0.128656 -0.271769 1.087 39 53 90
-0.127085 -0.272019 1.088 38 52 89
-0.125395 -0.272019 1.088 38 52 89
-0.123705 -0.272019 1.088 37 51 88
-0.122016 -0.272019 1.088 37 51 88
-0.120215 -0.271769 1.087 36 50 87
-0.118527 -0.271769 1.087 35 50 85
-0.116731 -0.271519 1.086 35 50 85
-0.114939 -0.271269 1.085 34 49 84
-0.113045 -0.270769 1.083 32 47 82
-0.111363 -0.270769 1.083 32 47 82
-0.10958 -0.270519 1.082 31 46 81
-0.1079 -0.270519 1.082 31 46 79
-0.106219 -0.270519 1.082 30 45 78
-0.104442 -0.270269 1.081 31 43 77
-0.102858 -0.270519 1.082 31 43 77
-0.101178 -0.270519 1.082 31 44 75
-0.0994057 -0.270269 1.081 31 44 75
-0.0977269 -0.270269 1.081 38 45 75
-0.096048 -0.270269 1.081 35 42 72
-0.0942819 -0.270019 1.08 37 45 72
-0.0926046 -0.270019 1.08 42 50 77
-0.0909274 -0.270019 1.08 46 54 81
-0.0892501 -0.270019 1.08 51 59 86
-0.0875728 -0.270019 1.08 52 58 85
-0.0858955 -0.270019 1.08 40 46 73
-0.0842183 -0.270019 1.08 36 44 71
-0.082541 -0.270019 1.08 37 45 72
-0.0808637 -0.270019 1.08 34 44 73
-0.0791864 -0.270019 1.08 35 45 74
-0.0775091 -0.270019 1.08 34 44 73
-0.0758319 -0.270019 1.08 34 44 73
-0.0741546 -0.270019 1.08 34 44 73
-0.0724773 -0.270019 1.08 34 44 73
-0.0708 -0.270019 1.08 34 44 73
-0.0691228 -0.270019 1.08 34 44 73
-0.0674455 -0.270019 1.08 34 44 73
-0.0657682 -0.270019 1.08 33 43 72
-0.0640909 -0.270019 1.08 33 43 72
-0.0624137 -0.270019 1.08 31 41 70
-0.0607364 -0.270019 1.08 31 41 70
-0.0591138 -0.270269 1.081 31 41 70
-0.057435 -0.270269 1.081 30 40 69
-0.0558077 -0.270519 1.082 29 39 68
-0.0541273 -0.270519 1.082 29 39 68
-0.0524469 -0.270519 1.082 29 39 68
-0.0507666 -0.270519 1.082 29 39 68
-0.0490862 -0.270519 1.082 29 39 68
-0.0474496 -0.270769 1.083 27 39 68
-0.0457677 -0.270769 1.083 26 38 67
-0.0440857 -0.270769 1.083 26 38 67
-0.042443 -0.271019 1.084 26 38 67
-0.0407595 -0.271019 1.084 26 38 67
-0.039112 -0.271269 1.085 26 38 67
-0.0374615 -0.271519 1.086 26 38 67
-0.0357749 -0.271519 1.086 25 37 66
-0.0341197 -0.271769 1.087 24 36 65
-0.0324912 -0.272269 1.089 22 34 63
-0.0308565 -0.272769 1.091 20 34 58
-0.0291889 -0.273019 1.092 21 35 59
-0.0258443 -0.273519 1.094 16 29 48
-0.0241673 -0.27377 1.095 9 20 33
-0.0225078 -0.27427 1.097 0 11 24
-0.0208231 -0.27452 1.098 0 5 9
-0.0191353 -0.27477 1.099 2 9 13
-0.0174444 -0.27502 1.1 1 10 9
-0.0157074 -0.27452 1.098 1 10 9
-0.0139384 -0.273269 1.093 1 10 9
-0.0121849 -0.272019 1.088 1 10 9
-0.00695888 -0.266019 1.064 58 91 112
-0.00527653 -0.264519 1.058 61 94 115
-0.00362311 -0.263769 1.055 44 90 120
-0.0019809 -0.263269 1.053 39 85 115
-0.000344898 -0.262769 1.051 36 87 121
0.00128367 -0.262019 1.048 43 94 128
0.00290569 -0.261519 1.046 40 93 127
0.0045215 -0.261019 1.044 24 77 111
0.0061311 -0.260519 1.042 16 68 99
0.00774193 -0.260269 1.041 41 93 124
0.00934964 -0.260019 1.04 38 86 114
0.0109437 -0.259518 1.038 29 77 105
0.0125437 -0.259268 1.037 37 83 111
0.0141405 -0.259018 1.036 35 81 109
0.0157343 -0.258768 1.035 34 82 105
0.0173416 -0.258768 1.035 33 81 104
0.0189307 -0.258518 1.034 17 70 97
0.0205366 -0.258518 1.034 36 89 116
0.022121 -0.258268 1.033 42 102 130
0.0237253 -0.258268 1.033 34 94 122
0.025305 -0.258018 1.032 21 88 113
0.0269078 -0.258018 1.032 40 107 132
0.0284829 -0.257768 1.031 39 111 130
0.030084 -0.257768 1.031 35 107 126
0.0316852 -0.257768 1.031 39 111 130
0.0332864 -0.257768 1.031 39 111 130
0.0348876 -0.257768 1.031 29 102 118
0.0364888 -0.257768 1.031 48 121 137
0.0380899 -0.257768 1.031 56 129 145
0.0396911 -0.257768 1.031 53 126 142
0.0412923 -0.257768 1.031 42 109 129
0.0428935 -0.257768 1.031 14 81 101
0.0444947 -0.257768 1.031 12 80 97
0.0460958 -0.257768 1.031 22 90 107
0.047697 -0.257768 1.031 28 94 111
0.0492982 -0.257768 1.031 12 78 95
0.0508994 -0.257768 1.031 0 67 87
0.0524496 -0.257518 1.03 44 113 133
0.0540492 -0.257518 1.03 43 115 139
0.0556489 -0.257518 1.03 20 92 116
0.0572485 -0.257518 1.03 6 78 104
0.058791 -0.257268 1.029 3 75 101
0.0603891 -0.257268 1.029 0 69 95
0.0619871 -0.257268 1.029 0 63 89
0.0635852 -0.257268 1.029 0 60 84
