ply
format ascii 1.0
comment Created by Open3D
element vertex 1352
property double x
property double y
property double z
property uchar red
property uchar green
property uchar blue
end_header
0.17206 -0.0905903 1.194 48 74 28
0.173915 -0.0905903 1.194 46 72 26
0.175769 -0.0905903 1.194 48 74 28
0.177474 -0.0905144 1.193 49 75 29
0.179177 -0.0904386 1.192 50 76 30
0.181028 -0.0904386 1.192 53 77 31
0.182879 -0.0904386 1.192 51 75 29
0.184576 -0.0903627 1.191 48 72 26
0.186425 -0.0903627 1.191 51 75 29
0.188117 -0.0902868 1.19 52 76 30
0.189965 -0.0902868 1.19 51 75 29
0.191652 -0.090211 1.189 53 74 29
0.193498 -0.090211 1.189 52 73 28
0.195345 -0.090211 1.189 50 71 26
0.197191 -0.090211 1.189 50 71 26
0.199205 -0.0902868 1.19 49 70 25
0.201054 -0.0902868 1.19 50 71 26
0.202902 -0.0902868 1.19 47 71 25
0.20475 -0.0902868 1.19 50 74 28
0.206945 -0.0904386 1.192 51 75 29
0.208796 -0.0904386 1.192 51 75 29
0.210648 -0.0904386 1.192 50 74 28
0.212499 -0.0904386 1.192 51 75 29
0.21435 -0.0904386 1.192 52 76 30
0.216201 -0.0904386 1.192 51 75 29
0.218235 -0.0905144 1.193 49 74 30
0.220088 -0.0905144 1.193 49 74 30
0.221941 -0.0905144 1.193 49 74 30
0.223606 -0.0904386 1.192 45 70 26
0.225457 -0.0904386 1.192 45 70 26
0.227308 -0.0904386 1.192 45 70 26
0.228967 -0.0903627 1.191 44 69 25
0.230623 -0.0902868 1.19 42 67 23
0.232471 -0.0902868 1.19 39 64 20
0.23432 -0.0902868 1.19 44 69 25
0.235969 -0.090211 1.189 40 62 21
0.237816 -0.090211 1.189 34 56 15
0.239662 -0.090211 1.189 33 55 14
0.241509 -0.090211 1.189 33 55 14
0.243355 -0.090211 1.189 34 56 17
0.245408 -0.0902868 1.19 30 52 13
0.247256 -0.0902868 1.19 21 40 2
0.249104 -0.0902868 1.19 22 41 3
0.250953 -0.0902868 1.19 25 43 7
0.253013 -0.0903627 1.191 27 45 9
0.254863 -0.0903627 1.191 28 45 12
0.256928 -0.0904386 1.192 27 44 11
0.258562 -0.0903627 1.191 28 44 13
0.260412 -0.0903627 1.191 26 42 11
0.262041 -0.0902868 1.19 26 42 11
0.263889 -0.0902868 1.19 26 42 11
0.265737 -0.0902868 1.19 26 42 11
0.267586 -0.0902868 1.19 27 43 12
0.269434 -0.0902868 1.19 25 44 12
0.271282 -0.0902868 1.19 24 43 11
0.27313 -0.0902868 1.19 24 42 13
0.274978 -0.0902868 1.19 25 43 14
0.276826 -0.0902868 1.19 24 42 13
0.278908 -0.0903627 1.191 24 42 13
0.280758 -0.0903627 1.191 24 42 13
0.282608 -0.0903627 1.191 24 42 13
0.284696 -0.0904386 1.192 22 40 11
0.286307 -0.0903627 1.191 23 41 12
0.287915 -0.0902868 1.19 20 38 9
0.289763 -0.0902868 1.19 23 41 12
0.291611 -0.0902868 1.19 23 41 14
0.293212 -0.090211 1.189 24 42 15
0.294811 -0.0901351 1.188 23 41 14
0.296406 -0.0900592 1.187 24 42 15
0.297998 -0.0899833 1.186 25 42 17
0.299587 -0.0899075 1.185 25 42 17
0.300919 -0.0897557 1.183 27 44 19
0.3025 -0.0896799 1.182 26 43 18
0.304594 -0.0897557 1.183 26 43 18
0.306172 -0.0896799 1.182 25 42 17
0.308268 -0.0897557 1.183 24 41 16
0.310367 -0.0898316 1.184 24 41 16
0.31247 -0.0899075 1.185 23 42 17
0.316417 -0.0899833 1.186 22 41 16
0.318259 -0.0899833 1.186 22 41 16
0.320371 -0.0900592 1.187 22 41 16
0.322214 -0.0900592 1.187 24 43 18
0.324058 -0.0900592 1.187 23 42 17
0.325901 -0.0900592 1.187 23 42 17
0.327745 -0.0900592 1.187 24 44 17
0.329588 -0.0900592 1.187 27 47 20
0.331432 -0.0900592 1.187 28 48 21
0.333275 -0.0900592 1.187 28 48 21
0.335119 -0.0900592 1.187 28 48 21
0.336962 -0.0900592 1.187 29 49 22
0.338806 -0.0900592 1.187 29 49 22
0.340649 -0.0900592 1.187 30 50 23
0.342492 -0.0900592 1.187 31 50 25
0.344046 -0.0899833 1.186 29 48 23
0.345888 -0.0899833 1.186 30 49 24
0.347436 -0.0899075 1.185 30 49 24
0.349277 -0.0899075 1.185 36 50 33
0.351117 -0.0899075 1.185 48 62 45
0.35266 -0.0898316 1.184 51 65 50
0.354199 -0.0897557 1.183 32 46 31
0.355735 -0.0896799 1.182 19 31 21
0.357268 -0.089604 1.181 19 31 21
0.358798 -0.0895281 1.18 17 29 19
0.360631 -0.0895281 1.18 25 37 27
0.361849 -0.0893764 1.178 20 28 21
0.362753 -0.0891488 1.175 18 26 19
0.364267 -0.0890729 1.174 13 22 20
0.363908 -0.0885418 1.167 20 29 27
0.36384 -0.0880866 1.161 59 67 74
0.363438 -0.0875555 1.154 116 124 131
0.361432 -0.086645 1.142 113 122 131
0.361934 -0.0863415 1.138 120 129 138
0.362742 -0.0861139 1.135 128 137 146
0.364505 -0.0861139 1.135 127 136 145
0.367559 -0.0864174 1.139 79 88 99
0.370625 -0.0867209 1.143 75 84 95
-0.1656 -0.087842 1.182 37 58 26
-0.163903 -0.0879163 1.183 35 56 24
-0.162339 -0.0880649 1.185 36 57 25
-0.16077 -0.0882136 1.187 36 57 25
-0.158926 -0.0882136 1.187 36 58 24
-0.157348 -0.0883622 1.189 36 58 24
-0.155632 -0.0884365 1.19 37 59 25
-0.153784 -0.0884365 1.19 37 59 25
-0.151936 -0.0884365 1.19 37 61 27
-0.150087 -0.0884365 1.19 37 61 27
-0.148239 -0.0884365 1.19 37 61 27
-0.146391 -0.0884365 1.19 37 61 27
-0.144543 -0.0884365 1.19 37 61 27
-0.142695 -0.0884365 1.19 39 63 29
-0.140847 -0.0884365 1.19 39 63 29
-0.138999 -0.0884365 1.19 37 61 27
-0.137151 -0.0884365 1.19 39 62 25
-0.135303 -0.0884365 1.19 39 62 25
-0.133454 -0.0884365 1.19 37 60 23
-0.131717 -0.0885108 1.191 36 59 22
-0.129867 -0.0885108 1.191 36 60 21
-0.128125 -0.0885852 1.192 36 60 21
-0.126168 -0.0885108 1.191 37 61 22
-0.124423 -0.0885852 1.192 38 62 23
-0.122469 -0.0885108 1.191 38 62 23
-0.120518 -0.0884365 1.19 38 62 23
-0.11867 -0.0884365 1.19 38 62 23
-0.116723 -0.0883622 1.189 39 63 24
-0.114877 -0.0883622 1.189 38 62 23
-0.11303 -0.0883622 1.189 37 61 22
-0.11109 -0.0882879 1.188 37 61 22
-0.109245 -0.0882879 1.188 38 62 23
-0.1074 -0.0882879 1.188 37 61 22
-0.105644 -0.0883622 1.189 36 60 21
-0.103797 -0.0883622 1.189 37 61 22
-0.101951 -0.0883622 1.189 38 62 23
-0.100188 -0.0884365 1.19 37 61 22
-0.0983404 -0.0884365 1.19 37 61 22
-0.0965733 -0.0885108 1.191 36 60 21
-0.0948032 -0.0885852 1.192 37 61 22
-0.092952 -0.0885852 1.192 36 60 21
-0.0911772 -0.0886595 1.193 35 59 20
-0.0893993 -0.0887338 1.194 35 59 20
-0.087545 -0.0887338 1.194 35 59 20
-0.0856907 -0.0887338 1.194 36 60 21
-0.0838363 -0.0887338 1.194 36 60 21
-0.0820507 -0.0888081 1.195 36 60 21
-0.0801277 -0.0887338 1.194 36 60 21
-0.0782734 -0.0887338 1.194 35 59 20
-0.0764191 -0.0887338 1.194 35 59 20
-0.0745023 -0.0886595 1.193 35 58 21
-0.0725886 -0.0885852 1.192 36 59 22
-0.0707374 -0.0885852 1.192 36 59 22
-0.0688862 -0.0885852 1.192 37 60 23
-0.0669225 -0.0884365 1.19 36 59 22
-0.0650744 -0.0884365 1.19 35 58 21
-0.0631731 -0.0883622 1.189 36 59 22
-0.0613266 -0.0883622 1.189 36 59 22
-0.05938 -0.0882136 1.187 36 59 22
-0.0575365 -0.0882136 1.187 36 59 22
-0.0556462 -0.0881393 1.186 36 59 22
-0.0537589 -0.0880649 1.185 35 58 21
-0.0519185 -0.0880649 1.185 37 60 23
-0.0500782 -0.0880649 1.185 37 60 23
-0.0482379 -0.0880649 1.185 38 61 24
-0.0463975 -0.0880649 1.185 36 59 22
-0.0445572 -0.0880649 1.185 37 60 23
-0.0427529 -0.0881393 1.186 36 59 22
-0.0409455 -0.0882136 1.187 27 50 13
-0.039102 -0.0882136 1.187 31 54 17
-0.0373213 -0.0883622 1.189 34 57 20
-0.0355046 -0.0884365 1.19 35 58 21
-0.0336565 -0.0884365 1.19 35 58 21
-0.0318619 -0.0885852 1.192 35 58 21
-0.030061 -0.0887338 1.194 36 59 22
-0.0282303 -0.0888081 1.195 37 60 23
-0.0245596 -0.0889567 1.197 36 59 22
-0.0227006 -0.0889567 1.197 36 59 22
-0.0208416 -0.0889567 1.197 35 58 21
-0.0189826 -0.0889567 1.197 36 59 22
-0.0171236 -0.0889567 1.197 37 60 23
-0.0152774 -0.089031 1.198 37 60 23
-0.0134057 -0.0889567 1.197 36 59 22
-0.0115274 -0.0888081 1.195 38 61 24
-0.00966344 -0.0887338 1.194 38 61 24
-0.00779604 -0.0885852 1.192 38 62 23
-0.00594482 -0.0885852 1.192 39 63 24
-0.00409017 -0.0885108 1.191 39 63 24
-0.00223862 -0.0884365 1.19 39 63 24
-0.000390513 -0.0884365 1.19 39 63 24
0.00145515 -0.0882879 1.188 39 63 24
0.00329737 -0.0882136 1.187 39 63 22
0.00514083 -0.0882136 1.187 41 65 24
0.00698428 -0.0882136 1.187 41 65 24
0.00882773 -0.0882136 1.187 41 65 24
0.0106712 -0.0882136 1.187 41 65 24
0.0125252 -0.0882879 1.188 41 65 24
0.0143823 -0.0883622 1.189 39 63 22
0.0162288 -0.0883622 1.189 38 62 21
0.0180906 -0.0884365 1.19 41 65 24
0.0199387 -0.0884365 1.19 41 65 24
0.0218051 -0.0885108 1.191 41 65 26
0.0236746 -0.0885852 1.192 39 63 24
0.0255044 -0.0885108 1.191 41 65 26
0.0273541 -0.0885108 1.191 42 66 27
0.0292038 -0.0885108 1.191 45 67 28
0.0310534 -0.0885108 1.191 44 66 27
0.0329031 -0.0885108 1.191 47 69 30
0.0347236 -0.0884365 1.19 46 68 29
0.0365717 -0.0884365 1.19 47 69 30
0.0384198 -0.0884365 1.19 47 69 30
0.0402341 -0.0883622 1.189 48 70 31
0.0420806 -0.0883622 1.189 51 73 34
0.0438903 -0.0882879 1.188 51 73 32
0.0457353 -0.0882879 1.188 51 73 32
0.0475402 -0.0882136 1.187 48 70 29
0.0493837 -0.0882136 1.187 46 68 27
0.0512271 -0.0882136 1.187 46 69 25
0.0530259 -0.0881393 1.186 45 68 24
0.0548678 -0.0881393 1.186 46 69 25
0.0567097 -0.0881393 1.186 46 69 25
0.0586009 -0.0882136 1.187 46 69 25
0.0604444 -0.0882136 1.187 45 68 24
0.0623403 -0.0882879 1.188 45 68 24
0.0641853 -0.0882879 1.188 45 68 24
0.0661415 -0.0884365 1.19 46 69 25
0.0679896 -0.0884365 1.19 46 69 25
0.0698964 -0.0885108 1.191 48 71 27
0.0718063 -0.0885852 1.192 47 70 26
0.0737193 -0.0886595 1.193 51 74 30
0.0756988 -0.0888081 1.195 48 71 27
0.0775546 -0.0888081 1.195 50 73 29
0.0794105 -0.0888081 1.195 48 71 27
0.0812664 -0.0888081 1.195 50 73 29
0.0831223 -0.0888081 1.195 51 74 30
0.0848359 -0.0886595 1.193 50 73 29
0.0866887 -0.0886595 1.193 47 70 26
0.0884672 -0.0885852 1.192 48 71 27
0.0902427 -0.0885108 1.191 50 73 29
0.092015 -0.0884365 1.19 50 73 29
0.0938631 -0.0884365 1.19 51 74 30
0.0957112 -0.0884365 1.19 51 74 30
0.0975593 -0.0884365 1.19 52 75 31
0.0994075 -0.0884365 1.19 52 75 31
0.101256 -0.0884365 1.19 52 75 31
0.103104 -0.0884365 1.19 50 73 29
0.104952 -0.0884365 1.19 51 74 30
0.1068 -0.0884365 1.19 50 73 29
0.108557 -0.0883622 1.189 50 73 29
0.110403 -0.0883622 1.189 51 74 30
0.11225 -0.0883622 1.189 52 75 31
0.114096 -0.0883622 1.189 54 77 33
0.115943 -0.0883622 1.189 54 77 33
0.11769 -0.0882879 1.188 53 76 32
0.119435 -0.0882136 1.187 51 74 30
0.121278 -0.0882136 1.187 51 74 30
0.123122 -0.0882136 1.187 51 74 30
0.12486 -0.0881393 1.186 52 75 31
0.126595 -0.0880649 1.185 52 75 31
0.128435 -0.0880649 1.185 52 75 31
0.130166 -0.0879906 1.184 51 74 30
0.132005 -0.0879906 1.184 51 74 30
0.133843 -0.0879906 1.184 51 74 30
0.135682 -0.0879906 1.184 51 75 29
0.137637 -0.0880649 1.185 52 76 30
0.139477 -0.0880649 1.185 52 76 30
0.141318 -0.0880649 1.185 51 75 29
0.143279 -0.0881393 1.186 47 71 25
0.145243 -0.0882136 1.187 46 70 24
0.147211 -0.0882879 1.188 46 70 24
0.149056 -0.0882879 1.188 46 70 24
0.151028 -0.0883622 1.189 47 71 25
0.152874 -0.0883622 1.189 47 71 25
0.154721 -0.0883622 1.189 47 71 25
0.156699 -0.0884365 1.19 47 71 25
0.158547 -0.0884365 1.19 46 72 26
0.16053 -0.0885108 1.191 48 74 28
0.16238 -0.0885108 1.191 48 74 28
0.164367 -0.0885852 1.192 48 74 28
0.166218 -0.0885852 1.192 46 72 26
0.16807 -0.0885852 1.192 45 71 25
0.170063 -0.0886595 1.193 46 72 26
0.171916 -0.0886595 1.193 48 74 28
0.173769 -0.0886595 1.193 48 74 28
0.175474 -0.0885852 1.192 48 74 28
0.177326 -0.0885852 1.192 51 75 29
0.179177 -0.0885852 1.192 54 78 32
0.181028 -0.0885852 1.192 53 78 29
0.182726 -0.0885108 1.191 50 75 26
0.184421 -0.0884365 1.19 48 73 24
0.186269 -0.0884365 1.19 51 76 27
0.188117 -0.0884365 1.19 52 77 28
0.189805 -0.0883622 1.189 51 76 27
0.191652 -0.0883622 1.189 51 76 27
0.193336 -0.0882879 1.188 51 76 27
0.195181 -0.0882879 1.188 50 75 26
0.197191 -0.0883622 1.189 50 75 26
0.199038 -0.0883622 1.189 48 73 24
0.201054 -0.0884365 1.19 51 76 27
0.202902 -0.0884365 1.19 51 75 29
0.20475 -0.0884365 1.19 52 76 30
0.206771 -0.0885108 1.191 52 76 30
0.208796 -0.0885852 1.192 53 77 31
0.210648 -0.0885852 1.192 52 76 30
0.212499 -0.0885852 1.192 51 75 29
0.21435 -0.0885852 1.192 51 75 29
0.216201 -0.0885852 1.192 52 76 30
0.218235 -0.0886595 1.193 52 75 31
0.220088 -0.0886595 1.193 51 74 30
0.221941 -0.0886595 1.193 51 74 30
0.223606 -0.0885852 1.192 47 70 26
0.225457 -0.0885852 1.192 47 70 26
0.227308 -0.0885852 1.192 47 70 26
0.228967 -0.0885108 1.191 46 69 25
0.230623 -0.0884365 1.19 44 67 23
0.232471 -0.0884365 1.19 43 66 22
0.234123 -0.0883622 1.189 43 66 22
0.235771 -0.0882879 1.188 43 66 22
0.237616 -0.0882879 1.188 45 68 24
0.239259 -0.0882136 1.187 36 58 17
0.241306 -0.0882879 1.188 33 55 14
0.243355 -0.0883622 1.189 32 54 13
0.245408 -0.0884365 1.19 30 52 11
0.247256 -0.0884365 1.19 26 48 9
0.249314 -0.0885108 1.191 29 51 12
0.251163 -0.0885108 1.191 27 45 9
0.253226 -0.0885852 1.192 27 45 9
0.255077 -0.0885852 1.192 27 44 11
0.256928 -0.0885852 1.192 27 44 11
0.258779 -0.0885852 1.192 27 44 11
0.26063 -0.0885852 1.192 27 44 11
0.262482 -0.0885852 1.192 26 43 10
0.264333 -0.0885852 1.192 27 44 11
0.266184 -0.0885852 1.192 25 44 12
0.268035 -0.0885852 1.192 25 44 12
0.269886 -0.0885852 1.192 24 43 11
0.271738 -0.0885852 1.192 24 43 11
0.273589 -0.0885852 1.192 24 42 13
0.27544 -0.0885852 1.192 26 44 15
0.277291 -0.0885852 1.192 25 43 14
0.279143 -0.0885852 1.192 24 42 13
0.280994 -0.0885852 1.192 24 42 13
0.282845 -0.0885852 1.192 24 42 13
0.284696 -0.0885852 1.192 24 42 13
0.286547 -0.0885852 1.192 24 42 13
0.288399 -0.0885852 1.192 23 41 14
0.29025 -0.0885852 1.192 23 41 14
0.291856 -0.0885108 1.191 23 41 14
0.293459 -0.0884365 1.19 24 42 15
0.295059 -0.0883622 1.189 25 43 16
0.296406 -0.0882136 1.187 25 43 16
0.29825 -0.0882136 1.187 25 42 17
0.299587 -0.0880649 1.185 26 43 18
0.300919 -0.0879163 1.183 27 44 19
0.3025 -0.087842 1.182 25 42 17
0.304336 -0.087842 1.182 26 43 18
0.306172 -0.087842 1.182 25 42 17
0.308007 -0.087842 1.182 25 42 17
0.310105 -0.0879163 1.183 24 41 16
0.312206 -0.0879906 1.184 24 41 16
0.31431 -0.0880649 1.185 25 42 17
0.316151 -0.0880649 1.185 24 41 16
0.320101 -0.0881393 1.186 25 42 17
0.321943 -0.0881393 1.186 25 42 17
0.324058 -0.0882136 1.187 25 42 17
0.325901 -0.0882136 1.187 25 42 17
0.327745 -0.0882136 1.187 26 43 18
0.329588 -0.0882136 1.187 27 44 19
0.331432 -0.0882136 1.187 30 47 22
0.333275 -0.0882136 1.187 29 46 21
0.335119 -0.0882136 1.187 29 46 21
0.336962 -0.0882136 1.187 30 47 22
0.338806 -0.0882136 1.187 30 47 22
0.340362 -0.0881393 1.186 30 47 22
0.342204 -0.0881393 1.186 31 48 23
0.344046 -0.0881393 1.186 29 46 21
0.345596 -0.0880649 1.185 31 47 25
0.347436 -0.0880649 1.185 24 40 18
0.349277 -0.0880649 1.185 31 47 32
0.350821 -0.0879906 1.184 50 66 51
0.352362 -0.0879163 1.183 52 67 54
0.354199 -0.0879163 1.183 56 71 58
0.355735 -0.087842 1.182 31 44 36
0.357268 -0.0877677 1.181 11 24 16
0.358798 -0.0876934 1.18 15 23 16
0.360631 -0.0876934 1.18 26 34 27
0.361849 -0.0875447 1.178 17 23 16
0.36337 -0.0874704 1.177 19 25 18
0.364888 -0.0873961 1.176 24 30 30
0.364531 -0.0868759 1.169 29 35 35
0.361749 -0.0849436 1.143 116 123 132
0.361934 -0.0845721 1.138 126 133 142
0.362742 -0.0843491 1.135 127 136 145
0.364505 -0.0843491 1.135 127 136 145
0.367236 -0.0845721 1.138 78 87 98
0.370625 -0.0849436 1.143 73 82 93
-0.165319 -0.0858586 1.18 30 51 19
-0.163764 -0.0860041 1.182 32 53 21
-0.162339 -0.0862224 1.185 39 60 28
-0.160634 -0.0862952 1.186 35 56 24
-0.158926 -0.0863679 1.187 35 57 23
-0.157348 -0.0865134 1.189 36 58 24
-0.155632 -0.0865862 1.19 35 59 25
-0.153784 -0.0865862 1.19 36 60 26
-0.151936 -0.0865862 1.19 36 60 26
-0.150214 -0.086659 1.191 37 61 27
-0.148364 -0.086659 1.191 40 64 30
-0.146514 -0.086659 1.191 39 63 29
-0.144665 -0.086659 1.191 39 63 29
-0.142815 -0.086659 1.191 37 61 27
-0.140965 -0.086659 1.191 36 60 26
-0.139116 -0.086659 1.191 37 61 27
-0.137266 -0.086659 1.191 39 62 25
-0.135416 -0.086659 1.191 39 62 25
-0.133679 -0.0867317 1.192 38 61 24
-0.131828 -0.0867317 1.192 37 60 23
-0.129976 -0.0867317 1.192 38 62 23
-0.128125 -0.0867317 1.192 37 61 22
-0.126168 -0.086659 1.191 37 61 22
-0.124318 -0.086659 1.191 38 62 23
-0.122366 -0.0865862 1.19 37 61 22
-0.120518 -0.0865862 1.19 37 61 22
-0.11857 -0.0865134 1.189 37 61 22
-0.116625 -0.0864407 1.188 37 61 22
-0.114684 -0.0863679 1.187 37 61 22
-0.11284 -0.0863679 1.187 37 61 22
-0.110997 -0.0863679 1.187 37 61 22
-0.109153 -0.0863679 1.187 37 61 22
-0.10731 -0.0863679 1.187 36 60 21
-0.105466 -0.0863679 1.187 36 60 21
-0.103623 -0.0863679 1.187 36 60 21
-0.101779 -0.0863679 1.187 36 60 21
-0.10002 -0.0864407 1.188 37 61 22
-0.0982577 -0.0865134 1.189 37 61 22
-0.0964112 -0.0865134 1.189 36 60 21
-0.0946442 -0.0865862 1.19 37 61 22
-0.092874 -0.086659 1.191 36 60 21
-0.0911008 -0.0867317 1.192 35 59 20
-0.0892496 -0.0867317 1.192 35 59 20
-0.0873983 -0.0867317 1.192 35 59 20
-0.0856189 -0.0868045 1.193 35 59 20
-0.0837661 -0.0868045 1.193 36 60 21
-0.081982 -0.0868773 1.194 35 59 20
-0.0801277 -0.0868773 1.194 35 59 20
-0.0782734 -0.0868773 1.194 35 59 20
-0.0763551 -0.0868045 1.193 35 59 20
-0.0745023 -0.0868045 1.193 34 57 20
-0.0725886 -0.0867317 1.192 35 58 21
-0.0707374 -0.0867317 1.192 36 59 22
-0.0688862 -0.0867317 1.192 36 59 22
-0.0669787 -0.086659 1.191 36 59 22
-0.0650744 -0.0865862 1.19 35 58 21
-0.0632263 -0.0865862 1.19 36 59 22
-0.0613782 -0.0865862 1.19 36 59 22
-0.05948 -0.0865134 1.189 36 59 22
-0.057585 -0.0864407 1.188 36 59 22
-0.0556931 -0.0863679 1.187 35 58 21
-0.0538496 -0.0863679 1.187 35 58 21
-0.0519624 -0.0862952 1.186 37 60 23
-0.0500782 -0.0862224 1.185 37 60 23
-0.0482379 -0.0862224 1.185 38 61 24
-0.0464367 -0.0862952 1.186 36 59 22
-0.0445948 -0.0862952 1.186 32 55 18
-0.0427889 -0.0863679 1.187 35 58 21
-0.04098 -0.0864407 1.188 32 55 18
-0.0391679 -0.0865134 1.189 34 57 20
-0.0373527 -0.0865862 1.19 34 57 20
-0.0355046 -0.0865862 1.19 35 58 21
-0.0337131 -0.0867317 1.192 35 58 21
-0.0318619 -0.0867317 1.192 35 58 21
-0.030061 -0.0868773 1.194 35 58 21
-0.0282303 -0.08695 1.195 37 60 23
-0.0245596 -0.0870955 1.197 38 61 24
-0.0227006 -0.0870955 1.197 37 60 23
-0.0208416 -0.0870955 1.197 36 59 22
-0.0189826 -0.0870955 1.197 36 59 22
-0.0171236 -0.0870955 1.197 37 60 23
-0.0152774 -0.0871683 1.198 37 60 23
-0.0134057 -0.0870955 1.197 36 59 22
-0.0115274 -0.08695 1.195 38 61 24
-0.00965535 -0.0868045 1.193 38 61 24
-0.00779604 -0.0867317 1.192 39 62 25
-0.00594482 -0.0867317 1.192 39 62 25
-0.00409017 -0.086659 1.191 39 63 24
-0.00223862 -0.0865862 1.19 39 63 24
-0.000390513 -0.0865862 1.19 39 63 24
0.00145637 -0.0865134 1.189 39 63 24
0.00330015 -0.0864407 1.188 38 62 23
0.00514516 -0.0864407 1.188 39 63 24
0.00699016 -0.0864407 1.188 43 67 26
0.00883517 -0.0864407 1.188 42 66 25
0.0106802 -0.0864407 1.188 42 66 25
0.0125252 -0.0864407 1.188 41 65 24
0.0143823 -0.0865134 1.189 41 65 24
0.0162425 -0.0865862 1.19 39 63 22
0.0180906 -0.0865862 1.19 41 65 24
0.0199722 -0.0867317 1.192 41 65 24
0.0218234 -0.0867317 1.192 41 65 24
0.0236746 -0.0867317 1.192 43 67 26
0.0255259 -0.0867317 1.192 45 69 30
0.0273771 -0.0867317 1.192 42 66 27
0.0292283 -0.0867317 1.192 44 68 29
0.0310795 -0.0867317 1.192 44 68 29
0.0329031 -0.086659 1.191 48 70 31
0.0347528 -0.086659 1.191 47 69 30
0.0366024 -0.086659 1.191 46 68 29
0.0384198 -0.0865862 1.19 47 69 30
0.0402679 -0.0865862 1.19 48 70 29
0.0420806 -0.0865134 1.189 50 72 31
0.0439272 -0.0865134 1.189 47 69 28
0.0457353 -0.0864407 1.188 46 68 27
0.0475402 -0.0863679 1.187 46 68 27
0.0493837 -0.0863679 1.187 47 69 28
0.0512271 -0.0863679 1.187 47 70 26
0.0530259 -0.0862952 1.186 47 70 26
0.0548678 -0.0862952 1.186 48 71 27
0.0567097 -0.0862952 1.186 47 70 26
0.0585515 -0.0862952 1.186 46 69 25
0.0604444 -0.0863679 1.187 47 70 26
0.0622878 -0.0863679 1.187 48 71 27
0.0641853 -0.0864407 1.188 46 69 25
0.0660859 -0.0865134 1.189 47 70 26
0.0679896 -0.0865862 1.19 46 69 25
0.0698964 -0.086659 1.191 51 74 30
0.0718063 -0.0867317 1.192 50 73 29
0.0737193 -0.0868045 1.193 50 73 29
0.0756354 -0.0868773 1.194 50 73 29
0.0775546 -0.08695 1.195 51 74 30
0.0794105 -0.08695 1.195 51 74 30
0.0812664 -0.08695 1.195 50 73 29
0.0831223 -0.08695 1.195 51 74 30
0.084907 -0.0868773 1.194 51 74 30
0.0866887 -0.0868045 1.193 50 73 29
0.0884672 -0.0867317 1.192 48 71 27
0.0903184 -0.0867317 1.192 50 73 29
0.0920923 -0.086659 1.191 51 74 30
0.0938631 -0.0865862 1.19 51 74 30
0.0957112 -0.0865862 1.19 52 75 31
0.0975593 -0.0865862 1.19 52 75 31
0.0994075 -0.0865862 1.19 53 76 32
0.101256 -0.0865862 1.19 52 75 31
0.103104 -0.0865862 1.19 51 74 30
0.104952 -0.0865862 1.19 51 74 30
0.1068 -0.0865862 1.19 51 74 30
0.108648 -0.0865862 1.19 50 73 29
0.110496 -0.0865862 1.19 52 75 31
0.112344 -0.0865862 1.19 52 75 31
0.114192 -0.0865862 1.19 55 78 34
0.11604 -0.0865862 1.19 54 77 33
0.117789 -0.0865134 1.189 52 75 31
0.119636 -0.0865134 1.189 51 74 30
0.12138 -0.0864407 1.188 51 74 30
0.123225 -0.0864407 1.188 51 74 30
0.124965 -0.0863679 1.187 53 76 32
0.126809 -0.0863679 1.187 53 76 32
0.128652 -0.0863679 1.187 53 76 32
0.130386 -0.0862952 1.186 51 74 30
0.132116 -0.0862224 1.185 52 75 31
0.133956 -0.0862224 1.185 51 74 30
0.135797 -0.0862224 1.185 51 75 29
0.137869 -0.0863679 1.187 50 74 28
0.139713 -0.0863679 1.187 50 74 28
0.141556 -0.0863679 1.187 50 74 28
0.14352 -0.0864407 1.188 47 72 23
0.145488 -0.0865134 1.189 46 71 22
0.147458 -0.0865862 1.19 47 72 23
0.149306 -0.0865862 1.19 46 71 22
0.151155 -0.0865862 1.19 47 72 23
0.153131 -0.086659 1.191 48 73 24
0.154981 -0.086659 1.191 50 75 26
0.156831 -0.086659 1.191 48 73 24
0.158813 -0.0867317 1.192 46 73 24
0.160665 -0.0867317 1.192 48 75 26
0.162516 -0.0867317 1.192 48 75 26
0.164367 -0.0867317 1.192 46 73 24
0.166218 -0.0867317 1.192 45 72 23
0.16807 -0.0867317 1.192 45 72 23
0.169921 -0.0867317 1.192 46 73 24
0.171772 -0.0867317 1.192 48 75 26
0.173623 -0.0867317 1.192 48 75 26
0.175474 -0.0867317 1.192 48 75 26
0.177326 -0.0867317 1.192 49 76 27
0.179027 -0.086659 1.191 52 79 30
0.180724 -0.0865862 1.19 52 77 28
0.182572 -0.0865862 1.19 51 76 27
0.184421 -0.0865862 1.19 48 73 24
0.186269 -0.0865862 1.19 51 76 27
0.187959 -0.0865134 1.189 52 77 28
0.189646 -0.0864407 1.188 53 78 29
0.191491 -0.0864407 1.188 53 78 29
0.193173 -0.0863679 1.187 53 78 29
0.195181 -0.0864407 1.188 53 78 29
0.197026 -0.0864407 1.188 52 77 28
0.199038 -0.0865134 1.189 45 70 21
0.200885 -0.0865134 1.189 55 80 31
0.202902 -0.0865862 1.19 61 86 37
0.20475 -0.0865862 1.19 59 84 35
0.206771 -0.086659 1.191 51 75 29
0.208621 -0.086659 1.191 52 76 30
0.210648 -0.0867317 1.192 53 77 31
0.212499 -0.0867317 1.192 51 75 29
0.21435 -0.0867317 1.192 50 74 28
0.216201 -0.0867317 1.192 50 74 28
0.218235 -0.0868045 1.193 48 72 26
0.220088 -0.0868045 1.193 51 75 29
0.221941 -0.0868045 1.193 51 74 30
0.223606 -0.0867317 1.192 50 73 29
0.225457 -0.0867317 1.192 48 71 27
0.227308 -0.0867317 1.192 46 69 25
0.228967 -0.086659 1.191 44 67 23
0.230623 -0.0865862 1.19 44 67 23
0.232276 -0.0865134 1.189 43 66 22
0.233926 -0.0864407 1.188 41 64 20
0.235572 -0.0863679 1.187 41 64 20
0.237416 -0.0863679 1.187 43 66 22
0.239259 -0.0863679 1.187 38 60 19
0.241103 -0.0863679 1.187 30 52 11
0.243151 -0.0864407 1.188 27 49 8
0.245202 -0.0865134 1.189 30 52 11
0.247256 -0.0865862 1.19 29 48 10
0.249104 -0.0865862 1.19 28 47 9
0.251163 -0.086659 1.191 26 44 8
0.253226 -0.0867317 1.192 26 44 8
0.255077 -0.0867317 1.192 26 43 10
0.257143 -0.0868045 1.193 27 44 11
0.259213 -0.0868773 1.194 26 43 10
0.261068 -0.0868773 1.194 27 44 11
0.262922 -0.0868773 1.194 27 44 11
0.264776 -0.0868773 1.194 27 44 11
0.266631 -0.0868773 1.194 28 44 13
0.268485 -0.0868773 1.194 26 42 11
0.270566 -0.08695 1.195 23 42 10
0.272422 -0.08695 1.195 24 43 11
0.274277 -0.08695 1.195 24 43 11
0.275902 -0.0868773 1.194 27 46 14
0.277757 -0.0868773 1.194 24 42 13
0.279845 -0.08695 1.195 24 42 13
0.281465 -0.0868773 1.194 25 43 14
0.28332 -0.0868773 1.194 25 43 14
0.285174 -0.0868773 1.194 26 44 15
0.286788 -0.0868045 1.193 25 43 14
0.288641 -0.0868045 1.193 24 42 15
0.29025 -0.0867317 1.192 24 42 15
0.292101 -0.0867317 1.192 24 42 15
0.293706 -0.086659 1.191 24 42 15
0.295307 -0.0865862 1.19 24 42 15
0.296906 -0.0865134 1.189 24 42 15
0.29825 -0.0863679 1.187 25 43 16
0.299335 -0.0861496 1.184 26 44 17
0.300919 -0.0860769 1.183 26 43 18
0.3025 -0.0860041 1.182 24 41 16
0.304336 -0.0860041 1.182 26 43 18
0.306172 -0.0860041 1.182 25 42 17
0.308007 -0.0860041 1.182 25 42 17
0.309843 -0.0860041 1.182 24 41 16
0.311942 -0.0860769 1.183 24 41 16
0.314045 -0.0861496 1.184 24 41 16
0.316151 -0.0862224 1.185 24 41 16
0.317991 -0.0862224 1.185 24 41 16
0.319831 -0.0862224 1.185 23 40 15
0.323785 -0.0862952 1.186 25 42 17
0.325627 -0.0862952 1.186 25 42 17
0.329588 -0.0863679 1.187 29 46 21
0.331432 -0.0863679 1.187 31 49 22
0.333275 -0.0863679 1.187 31 49 22
0.335119 -0.0863679 1.187 30 50 23
0.336962 -0.0863679 1.187 29 49 22
0.338806 -0.0863679 1.187 30 49 24
0.340649 -0.0863679 1.187 30 49 24
0.342204 -0.0862952 1.186 30 49 24
0.344046 -0.0862952 1.186 29 48 23
0.345596 -0.0862224 1.185 29 47 25
0.347436 -0.0862224 1.185 24 42 20
0.349277 -0.0862224 1.185 30 45 32
0.350821 -0.0861496 1.184 53 68 55
0.352362 -0.0860769 1.183 56 70 60
0.3539 -0.0860041 1.182 64 78 68
0.355735 -0.0860041 1.182 61 71 66
0.357268 -0.0859314 1.181 12 22 17
0.358798 -0.0858586 1.18 14 19 15
0.360631 -0.0858586 1.18 22 27 23
0.362156 -0.0857858 1.179 19 20 17
0.363679 -0.0857131 1.178 22 23 20
0.365198 -0.0856403 1.177 45 51 51
0.364843 -0.085131 1.17 48 54 54
0.361749 -0.0831664 1.143 114 122 129
0.361934 -0.0828026 1.138 126 134 141
0.362742 -0.0825843 1.135 127 137 144
0.364184 -0.0825116 1.134 126 136 143
0.367236 -0.0828026 1.138 78 87 98
0.370625 -0.0831664 1.143 75 84 95
-0.163487 -0.0840238 1.18 27 47 18
-0.162065 -0.0842375 1.183 31 52 20
-0.160499 -0.0843799 1.185 32 53 21
-0.158926 -0.0845223 1.187 34 55 23
-0.157348 -0.0846647 1.189 43 64 32
-0.155632 -0.0847359 1.19 45 67 33
-0.153913 -0.0848071 1.191 45 67 33
-0.152063 -0.0848071 1.191 41 63 29
-0.15034 -0.0848783 1.192 39 61 27
-0.148488 -0.0848783 1.192 41 63 29
-0.146637 -0.0848783 1.192 42 64 30
-0.144786 -0.0848783 1.192 41 63 29
-0.142935 -0.0848783 1.192 41 63 29
-0.141084 -0.0848783 1.192 38 60 26
-0.139232 -0.0848783 1.192 39 61 27
-0.137381 -0.0848783 1.192 39 62 25
-0.13553 -0.0848783 1.192 38 61 24
-0.133679 -0.0848783 1.192 38 61 24
-0.131828 -0.0848783 1.192 37 60 23
-0.129976 -0.0848783 1.192 39 62 25
-0.128018 -0.0848071 1.191 39 62 25
-0.126168 -0.0848071 1.191 38 61 24
-0.124214 -0.0847359 1.19 38 61 24
-0.122366 -0.0847359 1.19 38 61 24
-0.120315 -0.0845935 1.188 39 62 25
-0.11837 -0.0845223 1.187 38 61 24
-0.116527 -0.0845223 1.187 38 61 24
-0.11449 -0.0843799 1.185 37 60 23
-0.11265 -0.0843799 1.185 37 60 23
-0.11081 -0.0843799 1.185 37 60 23
-0.108969 -0.0843799 1.185 37 60 23
-0.107129 -0.0843799 1.185 36 59 22
-0.105289 -0.0843799 1.185 35 58 21
-0.103536 -0.0844511 1.186 35 58 21
-0.101779 -0.0845223 1.187 36 59 22
-0.0999359 -0.0845223 1.187 36 59 22
-0.0963301 -0.0845935 1.188 37 60 23
-0.0945646 -0.0846647 1.189 37 60 23
-0.0927181 -0.0846647 1.189 36 59 22
-0.0909479 -0.0847359 1.19 35 58 21
-0.0891747 -0.0848071 1.191 36 59 22
-0.0873983 -0.0848783 1.192 38 61 24
-0.0855471 -0.0848783 1.192 38 61 24
-0.0836959 -0.0848783 1.192 38 61 24
-0.0819134 -0.0849495 1.193 36 59 22
-0.0800606 -0.0849495 1.193 35 58 21
-0.0781423 -0.0848783 1.192 35 58 21
-0.0763551 -0.0849495 1.193 35 58 21
-0.0744398 -0.0848783 1.192 36 59 22
-0.0725886 -0.0848783 1.192 36 59 22
-0.0707374 -0.0848783 1.192 36 59 22
-0.0688862 -0.0848783 1.192 34 57 20
-0.0669787 -0.0848071 1.191 34 57 20
-0.0651291 -0.0848071 1.191 35 58 21
-0.0632263 -0.0847359 1.19 35 58 21
-0.0613782 -0.0847359 1.19 36 59 22
-0.05953 -0.0847359 1.19 36 59 22
-0.0576335 -0.0846647 1.189 35 58 21
-0.05574 -0.0845935 1.188 35 58 21
-0.0538496 -0.0845223 1.187 35 58 21
-0.0520062 -0.0845223 1.187 36 59 22
-0.0501627 -0.0845223 1.187 36 59 22
-0.0483193 -0.0845223 1.187 38 61 24
-0.0464758 -0.0845223 1.187 36 59 22
-0.0446324 -0.0845223 1.187 35 58 21
-0.042825 -0.0845935 1.188 36 59 22
-0.0410144 -0.0846647 1.189 35 58 21
-0.0392008 -0.0847359 1.19 35 58 21
-0.0373841 -0.0848071 1.191 35 58 21
-0.0355643 -0.0848783 1.192 35 58 21
-0.0337131 -0.0848783 1.192 35 58 21
-0.0319153 -0.0850207 1.194 37 60 23
-0.0300862 -0.0850919 1.195 37 60 23
-0.0264186 -0.0852344 1.197 38 61 24
-0.0245596 -0.0852344 1.197 36 59 22
-0.0227196 -0.0853056 1.198 36 59 22
-0.020859 -0.0853056 1.198 36 59 22
-0.0189985 -0.0853056 1.198 36 59 22
-0.0171236 -0.0852344 1.197 38 61 24
-0.0152774 -0.0853056 1.198 37 60 23
-0.0133945 -0.0851631 1.196 37 60 23
-0.0115274 -0.0850919 1.195 38 61 24
-0.00965535 -0.0849495 1.193 38 61 24
-0.00779604 -0.0848783 1.192 39 62 25
-0.00593983 -0.0848071 1.191 38 61 24
-0.00408673 -0.0847359 1.19 39 63 24
-0.00223862 -0.0847359 1.19 39 63 24
-0.000390513 -0.0847359 1.19 39 63 24
0.00145515 -0.0845935 1.188 39 63 24
0.00330015 -0.0845935 1.188 38 62 21
0.00514516 -0.0845935 1.188 38 62 21
0.00699016 -0.0845935 1.188 39 63 22
0.00883517 -0.0845935 1.188 38 62 21
0.0106892 -0.0846647 1.189 38 62 21
0.0125357 -0.0846647 1.189 38 62 21
0.0143944 -0.0847359 1.19 39 63 22
0.0162425 -0.0847359 1.19 39 63 22
0.0181058 -0.0848071 1.191 41 65 24
0.0199722 -0.0848783 1.192 41 65 24
0.0218234 -0.0848783 1.192 42 66 25
0.0236746 -0.0848783 1.192 50 74 33
0.0255259 -0.0848783 1.192 45 69 30
0.0273771 -0.0848783 1.192 42 66 27
0.0292283 -0.0848783 1.192 44 68 29
0.0310795 -0.0848783 1.192 45 69 30
0.0329307 -0.0848783 1.192 50 72 33
0.0347528 -0.0848071 1.191 47 69 30
0.0366024 -0.0848071 1.191 48 70 31
0.0384198 -0.0847359 1.19 51 73 34
0.0402679 -0.0847359 1.19 50 72 31
0.042116 -0.0847359 1.19 50 72 31
0.0439272 -0.0846647 1.189 47 69 28
0.0457353 -0.0845935 1.188 47 69 28
0.0475402 -0.0845223 1.187 46 69 25
0.0493837 -0.0845223 1.187 48 71 27
0.0512271 -0.0845223 1.187 48 71 27
0.0530259 -0.0844511 1.186 48 71 27
0.0548215 -0.0843799 1.185 47 70 26
0.0566618 -0.0843799 1.185 46 69 25
0.0585022 -0.0843799 1.185 47 70 26
0.0603934 -0.0844511 1.186 50 73 29
0.0622878 -0.0845223 1.187 48 71 27
0.0641313 -0.0845223 1.187 46 69 25
0.0660303 -0.0845935 1.188 47 70 26
0.0679324 -0.0846647 1.189 46 69 25
0.0698377 -0.0847359 1.19 50 73 29
0.071746 -0.0848071 1.191 51 74 30
0.0736575 -0.0848783 1.192 50 73 29
0.0755721 -0.0849495 1.193 50 73 29
0.0774248 -0.0849495 1.193 50 73 29
0.0794105 -0.0850919 1.195 50 73 29
0.0812664 -0.0850919 1.195 50 73 29
0.0831223 -0.0850919 1.195 50 73 29
0.084907 -0.0850207 1.194 51 74 30
0.0867613 -0.0850207 1.194 51 74 30
0.0884672 -0.0848783 1.192 50 73 29
0.0903184 -0.0848783 1.192 51 74 30
0.0921697 -0.0848783 1.192 51 74 30
0.093942 -0.0848071 1.191 52 75 31
0.0957917 -0.0848071 1.191 52 75 31
0.0975593 -0.0847359 1.19 52 75 31
0.0994075 -0.0847359 1.19 52 75 31
0.101256 -0.0847359 1.19 53 76 32
0.103104 -0.0847359 1.19 52 75 31
0.104952 -0.0847359 1.19 52 75 31
0.1068 -0.0847359 1.19 51 74 30
0.108648 -0.0847359 1.19 51 74 30
0.110496 -0.0847359 1.19 52 75 31
0.112344 -0.0847359 1.19 51 74 30
0.114192 -0.0847359 1.19 55 78 34
0.11604 -0.0847359 1.19 54 77 33
0.117889 -0.0847359 1.19 52 75 31
0.119737 -0.0847359 1.19 50 73 29
0.121483 -0.0846647 1.189 51 74 30
0.123329 -0.0846647 1.189 51 74 30
0.125176 -0.0846647 1.189 51 74 30
0.126915 -0.0845935 1.188 53 76 32
0.12876 -0.0845935 1.188 52 75 31
0.130496 -0.0845223 1.187 51 74 30
0.132339 -0.0845223 1.187 51 74 30
0.134182 -0.0845223 1.187 50 73 29
0.13614 -0.0845935 1.188 50 74 28
0.137985 -0.0845935 1.188 48 72 26
0.139948 -0.0846647 1.189 50 74 28
0.141914 -0.0847359 1.19 50 74 28
0.143762 -0.0847359 1.19 47 72 23
0.14561 -0.0847359 1.19 47 72 23
0.147582 -0.0848071 1.191 48 73 24
0.149557 -0.0848783 1.192 51 76 27
0.151409 -0.0848783 1.192 50 75 26
0.15326 -0.0848783 1.192 50 75 26
0.155111 -0.0848783 1.192 50 75 26
0.156962 -0.0848783 1.192 50 75 26
0.158813 -0.0848783 1.192 46 73 24
0.160665 -0.0848783 1.192 46 73 24
0.162516 -0.0848783 1.192 46 73 24
0.164367 -0.0848783 1.192 45 72 23
0.166218 -0.0848783 1.192 45 72 23
0.16807 -0.0848783 1.192 44 71 22
0.169921 -0.0848783 1.192 45 72 23
0.171772 -0.0848783 1.192 46 73 24
0.173623 -0.0848783 1.192 48 75 26
0.175474 -0.0848783 1.192 48 75 26
0.177326 -0.0848783 1.192 49 76 27
0.179027 -0.0848071 1.191 52 79 30
0.180724 -0.0847359 1.19 53 78 29
0.182572 -0.0847359 1.19 54 79 30
0.184266 -0.0846647 1.189 52 78 27
0.186112 -0.0846647 1.189 51 77 26
0.187801 -0.0845935 1.188 52 78 27
0.189486 -0.0845223 1.187 52 78 27
0.191329 -0.0845223 1.187 51 77 26
0.193173 -0.0845223 1.187 51 77 26
0.195016 -0.0845223 1.187 52 78 27
0.19686 -0.0845223 1.187 53 79 28
0.198871 -0.0845935 1.188 52 77 28
0.200716 -0.0845935 1.188 54 79 30
0.202731 -0.0846647 1.189 61 86 37
0.20475 -0.0847359 1.19 61 86 37
0.206598 -0.0847359 1.19 51 76 27
0.208621 -0.0848071 1.191 50 75 26
0.210648 -0.0848783 1.192 50 75 26
0.212499 -0.0848783 1.192 50 75 26
0.21435 -0.0848783 1.192 50 74 28
0.216201 -0.0848783 1.192 51 75 29
0.218235 -0.0849495 1.193 50 74 28
0.220088 -0.0849495 1.193 50 74 28
0.221941 -0.0849495 1.193 51 74 30
0.223606 -0.0848783 1.192 50 73 29
0.225457 -0.0848783 1.192 48 71 27
0.227308 -0.0848783 1.192 45 68 24
0.228967 -0.0848071 1.191 44 67 23
0.230623 -0.0847359 1.19 43 66 22
0.232276 -0.0846647 1.189 41 64 20
0.233926 -0.0845935 1.188 37 60 16
0.235572 -0.0845223 1.187 36 59 15
0.237416 -0.0845223 1.187 37 60 16
0.239259 -0.0845223 1.187 34 57 13
0.241103 -0.0845223 1.187 30 53 9
0.243151 -0.0845935 1.188 31 53 12
0.244996 -0.0845935 1.188 30 52 11
0.247256 -0.0847359 1.19 27 49 10
0.249104 -0.0847359 1.19 26 48 9
0.251163 -0.0848071 1.191 25 46 9
0.253226 -0.0848783 1.192 24 45 8
0.255077 -0.0848783 1.192 27 45 9
0.257359 -0.0850207 1.194 28 46 10
0.25943 -0.0850919 1.195 27 44 11
0.261286 -0.0850919 1.195 28 45 12
0.263142 -0.0850919 1.195 27 44 11
0.264998 -0.0850919 1.195 26 43 10
0.267077 -0.0851631 1.196 27 43 12
0.26916 -0.0852344 1.197 26 42 11
0.271019 -0.0852344 1.197 24 43 11
0.272878 -0.0852344 1.197 26 45 13
0.274736 -0.0852344 1.197 25 44 12
0.276364 -0.0851631 1.196 27 46 14
0.277989 -0.0850919 1.195 24 43 11
0.279845 -0.0850919 1.195 23 42 10
0.281701 -0.0850919 1.195 24 42 13
0.283557 -0.0850919 1.195 26 44 15
0.285413 -0.0850919 1.195 26 44 15
0.287269 -0.0850919 1.195 26 44 15
0.288883 -0.0850207 1.194 25 43 16
0.290493 -0.0849495 1.193 25 43 16
0.292346 -0.0849495 1.193 25 43 16
0.293952 -0.0848783 1.192 25 43 16
0.295307 -0.0847359 1.19 25 43 16
0.296906 -0.0846647 1.189 25 43 16
0.29825 -0.0845223 1.187 25 43 16
0.299335 -0.0843087 1.184 25 43 16
0.300919 -0.0842375 1.183 25 43 16
0.3025 -0.0841663 1.182 24 42 15
0.304336 -0.0841663 1.182 26 44 17
0.306172 -0.0841663 1.182 24 42 15
0.308007 -0.0841663 1.182 25 43 16
0.309843 -0.0841663 1.182 25 43 16
0.311942 -0.0842375 1.183 24 42 15
0.31378 -0.0842375 1.183 24 42 15
0.316151 -0.0843799 1.185 24 42 15
0.317991 -0.0843799 1.185 23 41 14
0.321943 -0.0844511 1.186 24 42 15
0.323785 -0.0844511 1.186 24 42 15
0.325627 -0.0844511 1.186 25 43 16
0.327745 -0.0845223 1.187 29 47 20
0.329588 -0.0845223 1.187 33 51 24
0.331432 -0.0845223 1.187 31 49 22
0.333275 -0.0845223 1.187 31 49 22
0.335119 -0.0845223 1.187 32 49 24
0.336962 -0.0845223 1.187 31 48 23
0.338806 -0.0845223 1.187 32 49 24
0.340649 -0.0845223 1.187 33 50 25
0.342492 -0.0845223 1.187 33 49 27
0.344046 -0.0844511 1.186 34 50 28
0.345596 -0.0843799 1.185 33 48 28
0.347436 -0.0843799 1.185 29 44 24
0.349277 -0.0843799 1.185 29 44 31
0.350821 -0.0843087 1.184 64 79 66
0.352362 -0.0842375 1.183 61 72 64
0.3539 -0.0841663 1.182 73 84 76
0.355735 -0.0841663 1.182 59 70 62
0.357268 -0.084095 1.181 12 23 15
0.358798 -0.0840238 1.18 13 18 14
0.360631 -0.0840238 1.18 26 31 27
0.362156 -0.0839526 1.179 20 18 18
0.363679 -0.0838814 1.178 24 22 22
0.365508 -0.0838814 1.178 45 49 49
0.365155 -0.083383 1.171 65 69 69
0.362065 -0.0814604 1.144 113 120 129
0.361934 -0.0810332 1.138 124 131 140
0.362742 -0.0808195 1.135 129 136 145
0.364505 -0.0808195 1.135 127 134 143
0.367236 -0.0810332 1.138 80 87 98
0.3703 -0.081318 1.142 77 84 95
-0.163487 -0.0821891 1.18 30 50 21
-0.161928 -0.0823284 1.182 32 52 23
-0.160499 -0.0825373 1.185 30 50 21
-0.158926 -0.0826766 1.187 35 56 24
-0.157348 -0.0828159 1.189 42 63 31
-0.155632 -0.0828856 1.19 44 66 32
-0.153913 -0.0829552 1.191 44 66 32
-0.152191 -0.0830249 1.192 43 67 33
-0.15034 -0.0830249 1.192 37 61 27
-0.148488 -0.0830249 1.192 37 61 27
-0.146637 -0.0830249 1.192 39 63 29
-0.144786 -0.0830249 1.192 39 63 29
-0.142935 -0.0830249 1.192 39 63 29
-0.141084 -0.0830249 1.192 38 60 26
-0.139232 -0.0830249 1.192 39 61 27
-0.137381 -0.0830249 1.192 39 62 25
-0.13553 -0.0830249 1.192 38 61 24
-0.133679 -0.0830249 1.192 38 61 24
-0.131828 -0.0830249 1.192 37 60 23
-0.129867 -0.0829552 1.191 39 62 25
-0.128018 -0.0829552 1.191 39 62 25
-0.126062 -0.0828856 1.19 39 63 24
-0.124214 -0.0828856 1.19 39 63 24
-0.122263 -0.0828159 1.189 38 62 23
-0.120214 -0.0826766 1.187 39 63 24
-0.118171 -0.0825373 1.185 39 63 24
-0.116331 -0.0825373 1.185 37 61 22
-0.11449 -0.0825373 1.185 37 61 22
-0.112555 -0.0824677 1.184 36 60 21
-0.110716 -0.0824677 1.184 35 59 20
-0.108785 -0.082398 1.183 36 60 21
-0.106948 -0.082398 1.183 36 60 21
-0.1052 -0.0824677 1.184 35 59 20
-0.103361 -0.0824677 1.184 34 58 19
-0.101608 -0.0825373 1.185 35 59 20
-0.0998517 -0.082607 1.186 32 55 18
-0.0980098 -0.082607 1.186 36 59 22
-0.096249 -0.0826766 1.187 37 60 23
-0.0926401 -0.0827463 1.188 35 58 21
-0.0890998 -0.0828856 1.19 36 59 22
-0.0872517 -0.0828856 1.19 38 61 24
-0.0854754 -0.0829552 1.191 38 61 24
-0.0836257 -0.0829552 1.191 37 60 23
-0.0818447 -0.0830249 1.192 36 59 22
-0.0799935 -0.0830249 1.192 35 58 21
-0.0781423 -0.0830249 1.192 35 58 21
-0.076291 -0.0830249 1.192 35 58 21
-0.0744398 -0.0830249 1.192 37 60 23
-0.0725886 -0.0830249 1.192 36 59 22
-0.0707374 -0.0830249 1.192 37 60 23
-0.0688862 -0.0830249 1.192 35 58 21
-0.067035 -0.0830249 1.192 35 58 21
-0.0651291 -0.0829552 1.191 35 58 21
-0.0632794 -0.0829552 1.191 35 58 21
-0.0614297 -0.0829552 1.191 35 58 21
-0.05953 -0.0828856 1.19 36 59 22
-0.0576819 -0.0828856 1.19 35 58 21
-0.0558338 -0.0828856 1.19 35 58 21
-0.0539404 -0.0828159 1.189 35 58 21
-0.0520938 -0.0828159 1.189 36 59 22
-0.050205 -0.0827463 1.188 37 60 23
-0.04836 -0.0827463 1.188 38 61 24
-0.046515 -0.0827463 1.188 37 60 23
-0.0447076 -0.0828159 1.189 36 59 22
-0.0428971 -0.0828856 1.19 36 59 22
-0.0410489 -0.0828856 1.19 36 59 22
-0.0392338 -0.0829552 1.191 36 59 22
-0.0374155 -0.0830249 1.192 35 58 21
-0.0355941 -0.0830946 1.193 35 58 21
-0.0337696 -0.0831642 1.194 35 58 21
-0.0300862 -0.0832339 1.195 37 60 23
-0.0282775 -0.0833732 1.197 37 60 23
-0.0264186 -0.0833732 1.197 38 61 24
-0.0245801 -0.0834428 1.198 38 61 24
-0.0227385 -0.0835125 1.199 38 61 24
-0.0208764 -0.0835125 1.199 36 59 22
-0.0190143 -0.0835125 1.199 36 59 22
-0.017138 -0.0834428 1.198 38 61 24
-0.0152774 -0.0834428 1.198 37 60 23
-0.0133945 -0.0833035 1.196 38 61 24
-0.0115274 -0.0832339 1.195 39 62 25
-0.00964725 -0.0830249 1.192 39 62 25
-0.00779604 -0.0830249 1.192 41 64 27
-0.00593983 -0.0829552 1.191 39 62 25
-0.00408673 -0.0828856 1.19 39 63 24
-0.00223862 -0.0828856 1.19 39 63 24
-0.000390513 -0.0828856 1.19 39 63 24
0.00145637 -0.0828159 1.189 39 63 24
0.00330015 -0.0827463 1.188 38 62 23
0.00514516 -0.0827463 1.188 38 62 23
0.00699016 -0.0827463 1.188 38 62 21
0.00883517 -0.0827463 1.188 38 62 21
0.0106802 -0.0827463 1.188 38 62 21
0.0125252 -0.0827463 1.188 39 63 22
0.0143823 -0.0828159 1.189 39 63 22
0.0162425 -0.0828856 1.19 41 65 24
0.0181058 -0.0829552 1.191 43 67 26
0.0199722 -0.0830249 1.192 42 66 25
0.0218234 -0.0830249 1.192 41 65 24
0.0236746 -0.0830249 1.192 43 67 26
0.0255259 -0.0830249 1.192 45 69 30
0.0273771 -0.0830249 1.192 42 66 27
0.0292283 -0.0830249 1.192 45 69 30
0.0310795 -0.0830249 1.192 46 70 31
0.0329307 -0.0830249 1.192 51 73 34
0.0347819 -0.0830249 1.192 52 74 35
0.0366024 -0.0829552 1.191 51 73 32
0.0384521 -0.0829552 1.191 51 73 32
0.0402679 -0.0828856 1.19 50 72 31
0.042116 -0.0828856 1.19 48 70 29
0.0439272 -0.0828159 1.189 47 69 28
0.0456968 -0.0826766 1.187 47 69 28
0.0475402 -0.0826766 1.187 47 70 26
0.0493837 -0.0826766 1.187 48 71 27
0.051184 -0.082607 1.186 48 71 27
0.0529811 -0.0825373 1.185 48 71 27
0.0548215 -0.0825373 1.185 47 71 25
0.0566618 -0.0825373 1.185 47 71 25
0.0585022 -0.0825373 1.185 46 70 24
0.0603425 -0.0825373 1.185 48 72 26
0.0621829 -0.0825373 1.185 50 74 28
0.0640772 -0.082607 1.186 47 71 25
0.0659747 -0.0826766 1.187 48 72 26
0.0678753 -0.0827463 1.188 47 71 25
0.069779 -0.0828159 1.189 47 71 25
0.0716858 -0.0828856 1.19 47 71 25
0.0735957 -0.0829552 1.191 47 71 25
0.0755087 -0.0830249 1.192 50 74 28
0.0773599 -0.0830249 1.192 50 74 28
0.0792776 -0.0830946 1.193 51 75 29
0.0811304 -0.0830946 1.193 50 74 28
0.0829831 -0.0830946 1.193 51 75 29
0.0848359 -0.0830946 1.193 51 75 29
0.0866887 -0.0830946 1.193 50 74 28
0.0884672 -0.0830249 1.192 48 71 27
0.0903184 -0.0830249 1.192 48 71 27
0.0921697 -0.0830249 1.192 48 71 27
0.093942 -0.0829552 1.191 51 74 30
0.0957917 -0.0829552 1.191 50 73 29
0.0975593 -0.0828856 1.19 50 73 29
0.0994075 -0.0828856 1.19 51 74 30
0.101256 -0.0828856 1.19 53 76 32
0.103104 -0.0828856 1.19 52 75 31
0.104952 -0.0828856 1.19 52 75 31
0.1068 -0.0828856 1.19 52 75 31
0.108648 -0.0828856 1.19 52 75 31
0.110496 -0.0828856 1.19 52 74 33
0.112344 -0.0828856 1.19 52 74 33
0.114192 -0.0828856 1.19 54 76 35
0.11604 -0.0828856 1.19 53 75 34
0.117889 -0.0828856 1.19 52 74 33
0.119737 -0.0828856 1.19 51 73 32
0.121585 -0.0828856 1.19 50 73 29
0.123433 -0.0828856 1.19 50 73 29
0.125176 -0.0828159 1.189 50 73 29
0.127022 -0.0828159 1.189 50 73 29
0.128869 -0.0828159 1.189 50 73 29
0.130715 -0.0828159 1.189 51 74 30
0.132562 -0.0828159 1.189 50 73 29
0.134522 -0.0828856 1.19 50 73 29
0.13637 -0.0828856 1.19 48 72 26
0.138218 -0.0828856 1.19 48 72 26
0.140184 -0.0829552 1.191 50 74 28
0.142033 -0.0829552 1.191 48 72 26
0.144004 -0.0830249 1.192 48 73 24
0.145855 -0.0830249 1.192 47 72 23
0.147706 -0.0830249 1.192 51 76 27
0.149683 -0.0830946 1.193 51 76 27
0.151536 -0.0830946 1.193 50 75 26
0.15326 -0.0830249 1.192 50 75 26
0.155241 -0.0830946 1.193 48 73 24
0.157094 -0.0830946 1.193 50 75 26
0.158947 -0.0830946 1.193 48 73 24
0.160799 -0.0830946 1.193 48 73 24
0.162652 -0.0830946 1.193 48 75 26
0.164505 -0.0830946 1.193 46 73 24
0.166358 -0.0830946 1.193 45 72 23
0.16807 -0.0830249 1.192 45 72 23
0.169921 -0.0830249 1.192 45 72 23
0.171772 -0.0830249 1.192 46 73 24
0.173623 -0.0830249 1.192 46 73 24
0.175474 -0.0830249 1.192 48 75 26
0.177326 -0.0830249 1.192 48 75 26
0.179027 -0.0829552 1.191 49 76 27
0.180724 -0.0828856 1.19 51 76 27
0.182572 -0.0828856 1.19 52 77 28
0.184266 -0.0828159 1.189 53 78 29
0.186112 -0.0828159 1.189 51 76 27
0.187643 -0.0826766 1.187 52 77 28
0.189486 -0.0826766 1.187 52 77 28
0.191329 -0.0826766 1.187 50 75 26
0.19301 -0.082607 1.186 51 76 27
0.195016 -0.0826766 1.187 51 76 27
0.19686 -0.0826766 1.187 52 77 28
0.198703 -0.0826766 1.187 53 78 29
0.200716 -0.0827463 1.188 52 77 28
0.202561 -0.0827463 1.188 51 76 27
0.204578 -0.0828159 1.189 50 75 26
0.206598 -0.0828856 1.19 51 76 27
0.208446 -0.0828856 1.19 50 75 26
0.210471 -0.0829552 1.191 48 73 24
0.212499 -0.0830249 1.192 51 76 27
0.21435 -0.0830249 1.192 50 75 26
0.216201 -0.0830249 1.192 51 76 27
0.218052 -0.0830249 1.192 48 72 26
0.220088 -0.0830946 1.193 51 75 29
0.221941 -0.0830946 1.193 51 75 29
0.223606 -0.0830249 1.192 50 74 28
0.225457 -0.0830249 1.192 45 68 24
0.227308 -0.0830249 1.192 44 67 23
0.228967 -0.0829552 1.191 44 67 23
0.230623 -0.0828856 1.19 44 67 23
0.232276 -0.0828159 1.189 43 66 22
0.233729 -0.0826766 1.187 40 63 19
0.235572 -0.0826766 1.187 39 62 18
0.237416 -0.0826766 1.187 37 60 16
0.239259 -0.0826766 1.187 32 55 11
0.241103 -0.0826766 1.187 32 55 11
0.242946 -0.0826766 1.187 32 54 13
0.244996 -0.0827463 1.188 30 52 11
0.247049 -0.0828159 1.189 27 49 10
0.249104 -0.0828856 1.19 26 48 9
0.251163 -0.0829552 1.191 26 47 10
0.253226 -0.0830249 1.192 25 46 9
0.255077 -0.0830249 1.192 28 45 12
0.257359 -0.0831642 1.194 28 45 12
0.25943 -0.0832339 1.195 27 44 11
0.261286 -0.0832339 1.195 27 44 11
0.263362 -0.0833035 1.196 26 42 11
0.26522 -0.0833035 1.196 26 42 11
0.267301 -0.0833732 1.197 26 45 13
0.26916 -0.0833732 1.197 24 43 11
0.271245 -0.0834428 1.198 23 42 10
0.273105 -0.0834428 1.198 24 43 11
0.274736 -0.0833732 1.197 24 43 11
0.276595 -0.0833732 1.197 26 45 13
0.278454 -0.0833732 1.197 25 44 12
0.280313 -0.0833732 1.197 24 43 11
0.281937 -0.0833035 1.196 23 41 12
0.283794 -0.0833035 1.196 25 43 14
0.285652 -0.0833035 1.196 26 44 15
0.287269 -0.0832339 1.195 26 44 15
0.289124 -0.0832339 1.195 26 44 15
0.290737 -0.0831642 1.194 26 44 15
0.292346 -0.0830946 1.193 26 44 15
0.293952 -0.0830249 1.192 26 44 15
0.295555 -0.0829552 1.191 26 44 15
0.297155 -0.0828856 1.19 26 44 15
0.29825 -0.0826766 1.187 26 44 17
0.29984 -0.082607 1.186 25 43 16
0.300919 -0.082398 1.183 26 44 17
0.3025 -0.0823284 1.182 25 43 16
0.304336 -0.0823284 1.182 26 44 17
0.306172 -0.0823284 1.182 25 43 16
0.308007 -0.0823284 1.182 25 43 16
0.309843 -0.0823284 1.182 25 43 16
0.311942 -0.082398 1.183 24 42 15
0.314045 -0.0824677 1.184 24 42 15
0.316151 -0.0825373 1.185 24 42 15
0.317991 -0.0825373 1.185 24 42 15
0.321943 -0.082607 1.186 25 43 16
0.323785 -0.082607 1.186 25 43 16
0.325901 -0.0826766 1.187 26 44 17
0.327745 -0.0826766 1.187 34 52 25
0.329866 -0.0827463 1.188 32 50 23
0.331711 -0.0827463 1.188 30 48 21
0.333556 -0.0827463 1.188 31 49 22
0.335401 -0.0827463 1.188 32 50 23
0.33753 -0.0828159 1.189 31 49 22
0.339091 -0.0827463 1.188 32 49 24
0.340936 -0.0827463 1.188 33 50 25
0.342781 -0.0827463 1.188 32 48 26
0.344336 -0.0826766 1.187 33 49 27
0.345888 -0.082607 1.186 32 47 27
0.347436 -0.0825373 1.185 27 42 22
0.349277 -0.0825373 1.185 28 43 30
0.351117 -0.0825373 1.185 60 75 62
0.352362 -0.082398 1.183 65 76 68
0.3539 -0.0823284 1.182 73 84 76
0.355735 -0.0823284 1.182 56 63 59
0.356966 -0.0821891 1.18 14 21 17
0.358798 -0.0821891 1.18 15 16 13
0.360631 -0.0821891 1.18 26 27 24
0.362156 -0.0821194 1.179 20 18 18
0.363679 -0.0820498 1.178 22 20 20
0.365508 -0.0820498 1.178 35 39 39
0.365155 -0.0815622 1.171 54 58 58
0.362065 -0.0796816 1.144 111 117 124
0.361934 -0.0792637 1.138 126 132 139
0.362423 -0.0789851 1.134 130 138 145
0.364505 -0.0790548 1.135 127 135 142
0.367236 -0.0792637 1.138 78 85 96
0.3703 -0.0795423 1.142 79 86 97
-0.165039 -0.0802181 1.178 27 47 20
-0.161654 -0.0803543 1.18 28 48 21
-0.160363 -0.0806267 1.184 25 45 18
-0.158792 -0.0807629 1.186 31 51 22
-0.157215 -0.0808991 1.188 37 57 28
-0.155632 -0.0810353 1.19 35 56 24
-0.153784 -0.0810353 1.19 32 53 21
-0.152191 -0.0811715 1.192 38 59 27
-0.15034 -0.0811715 1.192 38 59 27
-0.148488 -0.0811715 1.192 37 58 26
-0.146637 -0.0811715 1.192 38 59 27
-0.144908 -0.0812396 1.193 41 62 30
-0.142935 -0.0811715 1.192 42 63 31
-0.141202 -0.0812396 1.193 41 63 29
-0.139232 -0.0811715 1.192 39 61 27
-0.137381 -0.0811715 1.192 39 62 25
-0.13553 -0.0811715 1.192 38 61 24
-0.133679 -0.0811715 1.192 38 61 24
-0.131828 -0.0811715 1.192 37 60 23
-0.129867 -0.0811034 1.191 38 61 24
-0.128018 -0.0811034 1.191 38 61 24
-0.126062 -0.0810353 1.19 38 61 24
-0.12411 -0.0809672 1.189 38 61 24
-0.12216 -0.0808991 1.188 38 61 24
-0.120214 -0.080831 1.187 39 62 25
-0.118171 -0.0806948 1.185 38 61 24
-0.116134 -0.0805586 1.183 35 58 21
-0.114297 -0.0805586 1.183 36 59 22
-0.112365 -0.0804905 1.182 36 59 22
-0.110529 -0.0804905 1.182 35 58 21
-0.108693 -0.0804905 1.182 34 57 20
-0.106858 -0.0804905 1.182 35 58 21
-0.105022 -0.0804905 1.182 34 57 20
-0.103186 -0.0804905 1.182 35 58 21
-0.101436 -0.0805586 1.183 36 59 22
-0.0996833 -0.0806267 1.184 35 58 21
-0.0979272 -0.0806948 1.185 35 58 21
-0.0960868 -0.0806948 1.185 37 60 23
-0.094326 -0.0807629 1.186 36 59 22
-0.0925621 -0.080831 1.187 35 58 21
-0.0907951 -0.0808991 1.188 36 59 22
-0.0871784 -0.0809672 1.189 37 60 23
-0.0854036 -0.0810353 1.19 37 60 23
-0.0835555 -0.0810353 1.19 36 59 22
-0.0817074 -0.0810353 1.19 36 59 22
-0.0799264 -0.0811034 1.191 36 59 22
-0.0781423 -0.0811715 1.192 35 58 21
-0.076227 -0.0811034 1.191 34 57 20
-0.0743774 -0.0811034 1.191 35 58 21
-0.0725277 -0.0811034 1.191 35 58 21
-0.0707374 -0.0811715 1.192 35 58 21
-0.0688862 -0.0811715 1.192 34 57 20
-0.067035 -0.0811715 1.192 35 58 21
-0.0651838 -0.0811715 1.192 35 58 21
-0.0633325 -0.0811715 1.192 35 58 21
-0.0614813 -0.0811715 1.192 35 58 21
-0.0596301 -0.0811715 1.192 35 58 21
-0.0577789 -0.0811715 1.192 35 58 21
