ply
format ascii 1.0
comment Created by Open3D
element vertex 1326
property double x
property double y
property double z
property uchar red
property uchar green
property uchar blue
end_header
0.10407 -0.168423 1.18 17 32 12
0.105902 -0.168423 1.18 16 31 11
0.107735 -0.168423 1.18 17 32 12
0.109568 -0.168423 1.18 17 32 12
0.111589 -0.168708 1.182 16 31 11
0.113425 -0.168708 1.182 16 32 10
0.11526 -0.168708 1.182 16 32 10
0.117195 -0.168851 1.183 16 32 10
0.119133 -0.168994 1.184 16 32 10
0.120767 -0.168708 1.182 16 32 10
0.122811 -0.168994 1.184 12 28 6
0.124649 -0.168994 1.184 12 28 6
0.126488 -0.168994 1.184 12 28 6
0.128327 -0.168994 1.184 13 29 7
0.130056 -0.168851 1.183 12 28 6
0.131782 -0.168708 1.182 12 28 6
0.132374 -0.167138 1.171 15 31 9
0.136064 -0.164997 1.156 15 28 7
0.137263 -0.164284 1.151 14 27 6
0.138447 -0.16357 1.146 18 26 3
0.139492 -0.162713 1.14 18 26 3
0.141015 -0.162428 1.138 25 19 0
0.141904 -0.161429 1.131 30 24 0
0.142644 -0.160287 1.123 75 55 16
0.14353 -0.157432 1.103 94 63 15
0.144584 -0.156719 1.098 99 68 20
0.146156 -0.156576 1.097 116 76 20
0.147725 -0.156433 1.096 116 76 20
0.149291 -0.156291 1.095 119 74 7
0.150854 -0.156148 1.094 132 87 20
0.152274 -0.155862 1.092 129 84 11
0.153547 -0.155434 1.089 126 81 8
0.155095 -0.155291 1.088 128 81 2
0.156497 -0.155006 1.086 126 79 0
0.157892 -0.154721 1.084 132 80 1
0.159281 -0.154435 1.082 131 79 0
0.160813 -0.154292 1.081 136 82 1
0.162191 -0.154007 1.079 134 80 0
0.163563 -0.153721 1.077 137 83 2
0.165236 -0.153721 1.077 136 82 1
0.166753 -0.153579 1.076 134 81 0
0.168424 -0.153579 1.076 141 88 5
0.170095 -0.153579 1.076 133 80 0
0.171607 -0.153436 1.075 126 73 0
0.173438 -0.153579 1.076 129 73 0
0.175109 -0.153579 1.076 131 75 0
0.17678 -0.153579 1.076 129 72 0
0.178451 -0.153579 1.076 132 75 0
0.179954 -0.153436 1.075 132 75 0
0.181455 -0.153293 1.074 132 75 0
0.182952 -0.15315 1.073 132 75 0
0.184447 -0.153008 1.072 132 75 0
0.185938 -0.152865 1.071 131 74 0
0.187426 -0.152722 1.07 129 72 0
0.188911 -0.15258 1.069 131 73 0
0.190393 -0.152437 1.068 124 66 0
0.191692 -0.152151 1.066 95 51 0
0.193166 -0.152009 1.065 124 80 26
0.19482 -0.152009 1.065 208 183 158
0.19629 -0.151866 1.064 244 219 194
0.197756 -0.151723 1.063 231 216 208
0.199407 -0.151723 1.063 241 226 218
0.201247 -0.151866 1.064 255 255 246
0.2029 -0.151866 1.064 255 255 247
0.204552 -0.151866 1.064 255 255 247
0.206204 -0.151866 1.064 255 255 246
0.207857 -0.151866 1.064 255 248 239
0.209706 -0.152009 1.065 237 227 218
0.21136 -0.152009 1.065 229 216 210
0.213214 -0.152151 1.066 225 212 206
0.21487 -0.152151 1.066 225 212 206
0.216525 -0.152151 1.066 225 212 206
0.218181 -0.152151 1.066 230 218 209
0.220042 -0.152294 1.067 236 224 215
0.2217 -0.152294 1.067 254 239 231
0.223357 -0.152294 1.067 255 244 236
0.225014 -0.152294 1.067 253 238 230
0.226458 -0.152151 1.066 251 236 228
0.228114 -0.152151 1.066 251 237 227
0.229769 -0.152151 1.066 252 238 228
0.231208 -0.152009 1.065 253 239 229
0.232862 -0.152009 1.065 251 237 227
0.234516 -0.152009 1.065 254 240 230
0.23617 -0.152009 1.065 245 231 221
0.237824 -0.152009 1.065 241 226 218
0.239478 -0.152009 1.065 239 224 216
0.241132 -0.152009 1.065 241 226 218
0.242786 -0.152009 1.065 245 230 222
0.24444 -0.152009 1.065 245 233 224
0.246094 -0.152009 1.065 247 235 226
0.247748 -0.152009 1.065 243 231 222
0.249402 -0.152009 1.065 246 234 225
0.251056 -0.152009 1.065 246 230 225
0.25271 -0.152009 1.065 229 213 208
0.254364 -0.152009 1.065 222 206 201
0.256018 -0.152009 1.065 219 203 198
0.257672 -0.152009 1.065 220 204 199
0.259326 -0.152009 1.065 234 218 213
0.260734 -0.151866 1.064 255 247 236
0.262387 -0.151866 1.064 255 253 242
0.264039 -0.151866 1.064 255 255 240
0.265692 -0.151866 1.064 255 255 242
0.267344 -0.151866 1.064 255 241 217
0.268997 -0.151866 1.064 155 114 90
0.270649 -0.151866 1.064 117 46 0
0.272301 -0.151866 1.064 105 34 0
0.273954 -0.151866 1.064 133 52 0
0.275606 -0.151866 1.064 134 53 0
0.277259 -0.151866 1.064 141 60 0
0.278911 -0.151866 1.064 144 63 0
0.280564 -0.151866 1.064 173 97 0
0.281951 -0.151723 1.063 199 123 21
0.283602 -0.151723 1.063 209 131 29
0.284984 -0.15158 1.062 212 134 32
0.286634 -0.15158 1.062 209 133 25
0.288283 -0.15158 1.062 203 127 19
0.289932 -0.15158 1.062 178 101 0
0.291582 -0.15158 1.062 171 94 0
0.293231 -0.15158 1.062 204 131 0
0.29488 -0.15158 1.062 255 221 90
0.296529 -0.15158 1.062 255 194 71
0.298179 -0.15158 1.062 195 119 0
0.299828 -0.15158 1.062 158 73 0
0.301477 -0.15158 1.062 157 72 0
0.303412 -0.151723 1.063 165 78 0
0.30535 -0.151866 1.064 197 110 7
0.307291 -0.152009 1.065 207 116 18
0.309525 -0.152294 1.067 206 115 17
0.311766 -0.15258 1.069 178 93 0
0.314305 -0.153008 1.072 156 71 0
0.318033 -0.154007 1.079 143 71 0
0.322376 -0.155291 1.088 125 53 0
0.328151 -0.156433 1.096 60 14 0
0.332561 -0.157718 1.105 25 18 0
0.336698 -0.15886 1.113 28 21 3
0.3426 -0.160002 1.121 19 17 5
0.346798 -0.161143 1.129 17 18 5
0.350095 -0.161857 1.134 15 16 3
0.353097 -0.162428 1.138 17 18 5
0.354553 -0.162285 1.137 14 15 2
0.356005 -0.162143 1.136 13 8 0
0.357769 -0.162143 1.136 41 36 26
0.358901 -0.161857 1.134 94 90 83
0.360344 -0.161714 1.133 116 112 105
0.361784 -0.161572 1.132 117 117 117
0.363221 -0.161429 1.131 117 117 117
0.364977 -0.161429 1.131 84 87 90
0.366409 -0.161286 1.13 43 46 49
-0.145145 -0.146259 1.036 165 177 192
-0.143674 -0.1464 1.037 166 178 193
-0.142064 -0.1464 1.037 167 179 194
-0.140589 -0.146541 1.038 165 177 192
-0.138977 -0.146541 1.038 165 177 192
-0.137629 -0.146823 1.04 166 178 193
-0.136145 -0.146964 1.041 167 179 194
-0.134658 -0.147106 1.042 167 179 194
-0.133167 -0.147247 1.043 168 180 195
-0.131673 -0.147388 1.044 168 180 195
-0.130177 -0.147529 1.045 167 179 194
-0.128677 -0.14767 1.046 167 179 194
-0.127174 -0.147812 1.047 167 179 194
-0.125668 -0.147953 1.048 168 180 195
-0.124158 -0.148094 1.049 170 182 197
-0.122529 -0.148094 1.049 168 180 195
-0.1209 -0.148094 1.049 168 180 195
-0.119271 -0.148094 1.049 168 180 195
-0.117642 -0.148094 1.049 165 177 192
-0.116013 -0.148094 1.049 164 176 191
-0.114384 -0.148094 1.049 164 175 193
-0.112754 -0.148094 1.049 160 171 189
-0.111125 -0.148094 1.049 159 170 188
-0.109392 -0.147953 1.048 159 170 188
-0.107867 -0.148094 1.049 158 168 188
-0.106238 -0.148094 1.049 158 168 188
-0.104609 -0.148094 1.049 156 169 188
-0.103078 -0.148235 1.05 154 167 186
-0.101544 -0.148376 1.051 152 165 184
-0.100007 -0.148517 1.052 154 167 186
-0.0984662 -0.148659 1.053 154 167 186
-0.0968309 -0.148659 1.053 154 167 186
-0.095286 -0.1488 1.054 154 167 186
-0.0937379 -0.148941 1.055 154 167 186
-0.0921868 -0.149082 1.056 154 168 185
-0.0889909 -0.149223 1.057 154 168 185
-0.0873494 -0.149223 1.057 155 169 186
-0.0857889 -0.149364 1.058 154 168 185
-0.0841458 -0.149364 1.058 155 169 186
-0.0825807 -0.149506 1.059 161 175 192
-0.0810124 -0.149647 1.06 165 179 196
-0.0794411 -0.149788 1.061 166 180 197
-0.0777933 -0.149788 1.061 161 175 192
-0.0762173 -0.149929 1.062 165 179 196
-0.0746382 -0.15007 1.063 162 176 193
-0.073056 -0.150212 1.064 161 175 192
-0.0714707 -0.150353 1.065 162 176 193
-0.0698167 -0.150353 1.065 164 178 195
-0.0682267 -0.150494 1.066 159 173 190
-0.0666336 -0.150635 1.067 158 172 189
-0.0650375 -0.150776 1.068 158 172 189
-0.0633788 -0.150776 1.068 158 172 189
-0.0617202 -0.150776 1.068 158 172 189
-0.0601178 -0.150917 1.069 158 172 189
-0.0585123 -0.151059 1.07 157 171 188
-0.0568505 -0.151059 1.07 156 170 187
-0.0551888 -0.151059 1.07 157 171 188
-0.053527 -0.151059 1.07 157 171 188
-0.0519137 -0.1512 1.071 158 172 189
-0.0502504 -0.1512 1.071 156 170 187
-0.0485871 -0.1512 1.071 157 171 188
-0.0469238 -0.1512 1.071 157 171 188
-0.0452605 -0.1512 1.071 158 172 189
-0.043638 -0.151341 1.072 157 171 188
-0.0419339 -0.1512 1.071 158 172 189
-0.0403082 -0.151341 1.072 159 173 190
-0.0386434 -0.151341 1.072 158 172 189
-0.0369785 -0.151341 1.072 157 171 188
-0.0353137 -0.151341 1.072 157 171 188
-0.0336488 -0.151341 1.072 157 171 188
-0.031984 -0.151341 1.072 158 172 189
-0.0303474 -0.151482 1.073 158 172 189
-0.028681 -0.151482 1.073 158 172 189
-0.0270398 -0.151623 1.074 156 170 187
-0.0253718 -0.151623 1.074 157 171 188
-0.0237259 -0.151764 1.075 157 171 188
-0.0220769 -0.151906 1.076 157 171 188
-0.0204059 -0.151906 1.076 157 171 188
-0.0187522 -0.152047 1.077 157 171 188
-0.0170955 -0.152188 1.078 157 171 188
-0.0154356 -0.152329 1.079 157 171 188
-0.0137726 -0.15247 1.08 157 171 188
-0.0121066 -0.152612 1.081 157 171 188
-0.0104374 -0.152753 1.082 158 170 185
-0.00876508 -0.152894 1.083 159 171 186
-0.00708314 -0.152894 1.083 160 172 187
-0.00540121 -0.152894 1.083 160 172 187
-0.00372271 -0.153035 1.084 158 170 185
-0.00203922 -0.153035 1.084 158 170 185
-0.000355727 -0.153035 1.084 158 170 185
0.00132776 -0.153035 1.084 159 171 186
0.00301125 -0.153035 1.084 160 172 187
0.00469041 -0.152894 1.083 160 172 187
0.00637234 -0.152894 1.083 160 172 187
0.00805428 -0.152894 1.083 160 172 187
0.00973622 -0.152894 1.083 159 171 186
0.0114287 -0.153035 1.084 161 173 188
0.0131122 -0.153035 1.084 159 171 186
0.0147957 -0.153035 1.084 159 171 186
0.0164792 -0.153035 1.084 160 172 187
0.0181794 -0.153176 1.085 159 171 186
0.0198644 -0.153176 1.085 159 171 186
0.0215495 -0.153176 1.085 160 172 187
0.0232345 -0.153176 1.085 161 173 188
0.0249425 -0.153317 1.086 161 173 188
0.0266291 -0.153317 1.086 161 173 188
0.0283418 -0.153459 1.087 163 175 190
0.0300576 -0.1536 1.088 170 182 197
0.0317473 -0.1536 1.088 166 178 193
0.0334677 -0.153741 1.089 163 173 188
0.035159 -0.153741 1.089 158 168 183
0.0368841 -0.153882 1.09 152 162 177
0.0386123 -0.154023 1.091 162 172 187
0.0403436 -0.154164 1.092 165 175 190
0.0421165 -0.154447 1.094 148 158 173
0.0438555 -0.154588 1.095 147 157 172
0.0455561 -0.154588 1.095 153 163 178
0.0473862 -0.155012 1.098 168 170 182
0.051213 -0.156282 1.107 104 107 110
0.0536016 -0.158259 1.121 15 18 21
0.0598215 -0.160941 1.14 20 31 17
0.0621322 -0.162353 1.15 19 30 16
0.064474 -0.163764 1.16 18 29 15
0.0667326 -0.164894 1.168 18 29 15
0.0706015 -0.165459 1.172 19 30 16
0.0723598 -0.165317 1.171 18 29 15
0.0741784 -0.165317 1.171 18 29 15
0.075997 -0.165317 1.171 18 29 15
0.0778821 -0.165459 1.172 19 30 16
0.0797703 -0.1656 1.173 19 30 16
0.0816615 -0.165741 1.174 18 29 15
0.0835559 -0.165882 1.175 18 29 15
0.0854534 -0.166023 1.176 18 29 15
0.0874282 -0.166306 1.178 15 29 12
0.0892577 -0.166306 1.178 15 29 12
0.0911645 -0.166447 1.179 15 29 12
0.0930744 -0.166588 1.18 16 30 13
0.0949069 -0.166588 1.18 16 30 13
0.0967395 -0.166588 1.18 16 30 13
0.0985721 -0.166588 1.18 17 31 14
0.100405 -0.166588 1.18 17 31 14
0.102237 -0.166588 1.18 17 32 12
0.104158 -0.166729 1.181 17 32 12
0.106082 -0.16687 1.182 16 31 11
0.107918 -0.16687 1.182 18 33 13
0.109753 -0.16687 1.182 17 33 11
0.111589 -0.16687 1.182 17 33 11
0.113521 -0.167011 1.183 16 32 10
0.115358 -0.167011 1.183 15 31 9
0.117294 -0.167153 1.184 13 29 7
0.119133 -0.167153 1.184 16 32 10
0.121074 -0.167294 1.185 17 33 11
0.122914 -0.167294 1.185 15 31 9
0.124649 -0.167153 1.184 16 32 10
0.126595 -0.167294 1.185 16 32 10
0.128435 -0.167294 1.185 15 31 9
0.130276 -0.167294 1.185 13 29 7
0.131893 -0.167011 1.183 11 27 5
0.133391 -0.166588 1.18 11 27 5
0.134422 -0.1656 1.173 11 27 5
0.136888 -0.164188 1.163 17 30 9
0.138217 -0.163623 1.159 15 28 7
0.139655 -0.1632 1.156 15 26 5
0.140838 -0.162494 1.151 15 26 5
0.142378 -0.162211 1.149 21 19 0
0.143911 -0.161929 1.147 26 24 0
0.145058 -0.161223 1.142 71 56 21
0.144848 -0.155294 1.1 98 71 26
0.14629 -0.155012 1.098 113 78 23
0.14786 -0.15487 1.097 109 74 19
0.149564 -0.15487 1.097 117 77 11
0.150992 -0.154588 1.095 122 82 16
0.152413 -0.154306 1.093 124 82 8
0.153829 -0.154023 1.091 122 80 6
0.155238 -0.153741 1.089 127 80 1
0.156641 -0.153459 1.087 127 80 1
0.158038 -0.153176 1.085 131 79 0
0.159576 -0.153035 1.084 132 80 1
0.160962 -0.152753 1.082 134 83 1
0.162642 -0.152753 1.082 135 84 2
0.164171 -0.152612 1.081 136 85 3
0.165543 -0.152329 1.079 135 84 2
0.167218 -0.152329 1.079 137 83 2
0.168894 -0.152329 1.079 137 83 2
0.170254 -0.152047 1.077 141 87 6
0.171926 -0.152047 1.077 132 78 0
0.173599 -0.152047 1.077 124 68 0
0.175271 -0.152047 1.077 128 72 0
0.176944 -0.152047 1.077 128 71 0
0.178617 -0.152047 1.077 129 72 0
0.180122 -0.151906 1.076 129 72 0
0.181793 -0.151906 1.076 131 74 0
0.183294 -0.151764 1.075 132 75 0
0.184791 -0.151623 1.074 132 75 0
0.186285 -0.151482 1.073 131 72 0
0.187426 -0.151059 1.07 131 72 0
0.188911 -0.150917 1.069 133 73 0
0.190393 -0.150776 1.068 126 66 0
0.191872 -0.150635 1.067 101 52 0
0.193348 -0.150494 1.066 122 73 20
0.19482 -0.150353 1.065 185 156 130
0.19629 -0.150212 1.064 255 226 200
0.197942 -0.150212 1.064 249 235 223
0.199407 -0.15007 1.063 255 247 235
0.201247 -0.150212 1.064 255 255 247
0.2029 -0.150212 1.064 255 255 245
0.204552 -0.150212 1.064 255 254 248
0.206204 -0.150212 1.064 252 241 235
0.208052 -0.150353 1.065 228 217 211
0.209706 -0.150353 1.065 220 209 203
0.211559 -0.150494 1.066 225 214 208
0.213214 -0.150494 1.066 225 214 208
0.215071 -0.150635 1.067 225 212 206
0.216728 -0.150635 1.067 230 217 211
0.21859 -0.150776 1.068 236 223 217
0.220249 -0.150776 1.068 244 231 225
0.221907 -0.150776 1.068 255 243 237
0.223566 -0.150776 1.068 255 243 237
0.225225 -0.150776 1.068 250 238 229
0.226671 -0.150635 1.067 249 237 228
0.228328 -0.150635 1.067 251 236 228
0.229769 -0.150494 1.066 252 237 229
0.231425 -0.150494 1.066 253 238 230
0.233081 -0.150494 1.066 251 236 228
0.234516 -0.150353 1.065 255 241 233
0.23617 -0.150353 1.065 248 233 225
0.237824 -0.150353 1.065 238 223 215
0.239478 -0.150353 1.065 236 221 213
0.241132 -0.150353 1.065 240 225 217
0.242786 -0.150353 1.065 241 226 218
0.244669 -0.150494 1.066 238 226 217
0.246325 -0.150494 1.066 232 220 211
0.24798 -0.150494 1.066 235 223 214
0.249402 -0.150353 1.065 244 232 223
0.251056 -0.150353 1.065 238 225 219
0.25271 -0.150353 1.065 227 214 208
0.254364 -0.150353 1.065 218 206 197
0.256018 -0.150353 1.065 220 208 199
0.257672 -0.150353 1.065 224 212 203
0.259326 -0.150353 1.065 255 244 235
0.260734 -0.150212 1.064 255 254 242
0.262387 -0.150212 1.064 255 255 243
0.264039 -0.150212 1.064 255 255 238
0.265692 -0.150212 1.064 255 255 239
0.267344 -0.150212 1.064 255 247 225
0.269249 -0.150353 1.065 211 171 149
0.270649 -0.150212 1.064 120 55 8
0.272301 -0.150212 1.064 112 47 0
0.273954 -0.150212 1.064 135 59 0
0.275606 -0.150212 1.064 142 66 0
0.277259 -0.150212 1.064 167 93 0
0.278911 -0.150212 1.064 198 124 23
0.280564 -0.150212 1.064 210 131 31
0.282216 -0.150212 1.064 211 132 32
0.283602 -0.15007 1.063 210 132 30
0.284984 -0.149929 1.062 207 129 27
0.286634 -0.149929 1.062 200 118 21
0.288283 -0.149929 1.062 171 89 0
0.289932 -0.149929 1.062 158 84 0
0.291582 -0.149929 1.062 171 97 0
0.293231 -0.149929 1.062 252 179 62
0.29488 -0.149929 1.062 255 205 88
0.296529 -0.149929 1.062 237 161 53
0.298179 -0.149929 1.062 160 84 0
0.299828 -0.149929 1.062 154 70 0
0.301477 -0.149929 1.062 160 76 0
0.303127 -0.149929 1.062 165 79 0
0.30535 -0.150212 1.064 203 117 11
0.307291 -0.150353 1.065 201 113 13
0.309235 -0.150494 1.066 185 97 0
0.311474 -0.150776 1.068 164 78 0
0.314012 -0.1512 1.071 161 75 0
0.317444 -0.152047 1.077 151 73 5
0.321487 -0.153176 1.085 157 79 11
0.327552 -0.154447 1.094 65 14 0
0.331959 -0.155717 1.103 27 16 0
0.33579 -0.156706 1.11 33 22 2
0.339946 -0.157835 1.118 23 21 7
0.345876 -0.158964 1.126 20 21 8
0.349477 -0.159811 1.132 19 20 7
0.352166 -0.160235 1.135 19 20 7
0.354241 -0.160376 1.136 14 15 2
0.355692 -0.160235 1.135 19 12 2
0.357139 -0.160094 1.134 48 41 31
0.358901 -0.160094 1.134 95 91 84
0.360344 -0.159953 1.133 116 112 105
0.361784 -0.159811 1.132 118 118 118
0.363542 -0.159811 1.132 117 117 117
0.364654 -0.159529 1.13 78 81 84
0.366409 -0.159529 1.13 42 45 48
-0.145145 -0.144648 1.036 165 177 192
-0.143536 -0.144648 1.036 166 178 193
-0.142064 -0.144787 1.037 166 178 193
-0.140589 -0.144927 1.038 165 177 192
-0.138977 -0.144927 1.038 165 177 192
-0.137629 -0.145206 1.04 165 177 192
-0.136145 -0.145346 1.041 166 178 193
-0.134658 -0.145485 1.042 167 179 194
-0.133167 -0.145625 1.043 168 180 195
-0.131673 -0.145765 1.044 168 180 195
-0.130177 -0.145904 1.045 168 180 195
-0.1288 -0.146184 1.047 167 179 194
-0.127295 -0.146323 1.048 167 179 194
-0.125787 -0.146463 1.049 168 180 195
-0.124158 -0.146463 1.049 168 180 195
-0.122646 -0.146602 1.05 166 178 193
-0.1209 -0.146463 1.049 167 179 194
-0.119385 -0.146602 1.05 167 179 194
-0.117754 -0.146602 1.05 160 172 187
-0.116013 -0.146463 1.049 156 168 183
-0.114384 -0.146463 1.049 163 174 192
-0.112862 -0.146602 1.05 161 172 190
-0.111125 -0.146463 1.049 159 170 188
-0.109496 -0.146463 1.049 161 172 190
-0.10797 -0.146602 1.05 159 170 188
-0.106339 -0.146602 1.05 158 169 187
-0.104708 -0.146602 1.05 158 169 187
-0.103176 -0.146742 1.051 158 169 187
-0.101544 -0.146742 1.051 157 168 186
-0.100007 -0.146882 1.052 157 168 186
-0.0984662 -0.147021 1.053 157 168 186
-0.0968309 -0.147021 1.053 158 169 187
-0.0953764 -0.147301 1.055 157 168 186
-0.0937379 -0.147301 1.055 157 168 186
-0.0921868 -0.14744 1.056 156 167 185
-0.0905468 -0.14744 1.056 158 169 187
-0.0873494 -0.14758 1.057 155 169 186
-0.0857889 -0.147719 1.058 155 169 186
-0.0841458 -0.147719 1.058 155 169 186
-0.0825807 -0.147859 1.059 159 173 190
-0.0810124 -0.147999 1.06 161 175 192
-0.0794411 -0.148138 1.061 161 175 192
-0.0778667 -0.148278 1.062 161 175 192
-0.0762173 -0.148278 1.062 162 176 193
-0.0746382 -0.148417 1.063 165 179 196
-0.073056 -0.148557 1.064 169 183 200
-0.0714707 -0.148697 1.065 170 184 201
-0.0698823 -0.148836 1.066 166 180 197
-0.0682267 -0.148836 1.066 158 172 189
-0.0666336 -0.148976 1.067 155 169 186
-0.0650375 -0.149116 1.068 154 168 185
-0.0633788 -0.149116 1.068 154 168 185
-0.061778 -0.149255 1.069 151 165 182
-0.0601178 -0.149255 1.069 156 170 187
-0.0585123 -0.149395 1.07 156 170 187
-0.0568505 -0.149395 1.07 157 171 188
-0.0551888 -0.149395 1.07 157 171 188
-0.053527 -0.149395 1.07 158 172 189
-0.0518653 -0.149395 1.07 159 173 190
-0.0502035 -0.149395 1.07 158 172 189
-0.0485418 -0.149395 1.07 158 172 189
-0.04688 -0.149395 1.07 157 171 188
-0.0452183 -0.149395 1.07 155 169 186
-0.0435972 -0.149534 1.071 156 170 187
-0.0418948 -0.149395 1.07 156 170 187
-0.0402706 -0.149534 1.071 158 172 189
-0.0386073 -0.149534 1.071 159 173 190
-0.0369441 -0.149534 1.071 158 172 189
-0.0353137 -0.149674 1.072 157 171 188
-0.0336488 -0.149674 1.072 158 172 189
-0.031984 -0.149674 1.072 158 172 189
-0.0303191 -0.149674 1.072 159 173 190
-0.028681 -0.149814 1.073 158 172 189
-0.0270146 -0.149814 1.073 157 171 188
-0.0253482 -0.149814 1.073 157 171 188
-0.0237039 -0.149953 1.074 156 170 187
-0.0220564 -0.150093 1.075 156 170 187
-0.0204059 -0.150233 1.076 157 171 188
-0.0187522 -0.150372 1.077 156 170 187
-0.0170955 -0.150512 1.078 157 171 188
-0.0154356 -0.150651 1.079 157 171 188
-0.0137726 -0.150791 1.08 157 171 188
-0.0121066 -0.150931 1.081 157 171 188
-0.0104374 -0.15107 1.082 159 170 188
-0.00876508 -0.15121 1.083 159 170 188
-0.00708968 -0.15135 1.084 160 171 189
-0.00540619 -0.15135 1.084 160 171 189
-0.00372614 -0.151489 1.085 159 170 188
-0.0020411 -0.151489 1.085 159 170 188
-0.000356056 -0.151489 1.085 160 172 187
0.00132899 -0.151489 1.085 161 173 188
0.00301403 -0.151489 1.085 161 173 188
0.00469907 -0.151489 1.085 161 173 188
0.00637823 -0.15135 1.084 161 173 188
0.00806172 -0.15135 1.084 163 175 190
0.00974521 -0.15135 1.084 158 170 185
0.0114287 -0.15135 1.084 163 175 190
0.0131122 -0.15135 1.084 161 173 188
0.0147957 -0.15135 1.084 160 172 187
0.0164792 -0.15135 1.084 160 172 187
0.0181794 -0.151489 1.085 160 172 187
0.0198644 -0.151489 1.085 160 172 187
0.0215495 -0.151489 1.085 160 172 187
0.0232345 -0.151489 1.085 165 177 192
0.0249425 -0.151629 1.086 166 178 193
0.0266291 -0.151629 1.086 166 178 193
0.0283157 -0.151629 1.086 166 178 193
0.03003 -0.151768 1.087 164 176 191
0.0317473 -0.151908 1.088 158 170 185
0.033437 -0.151908 1.088 160 170 185
0.035159 -0.152048 1.089 159 169 184
0.0369179 -0.152327 1.091 158 168 183
0.0386123 -0.152327 1.091 162 172 187
0.0403436 -0.152467 1.092 158 168 183
0.0421165 -0.152746 1.094 144 154 169
0.0438555 -0.152885 1.095 146 154 168
0.0455561 -0.152885 1.095 154 162 176
0.0474293 -0.153444 1.099 176 178 188
0.0512592 -0.1547 1.108 105 109 109
0.0534582 -0.156097 1.118 13 17 17
0.0597165 -0.158889 1.138 20 31 17
0.0620242 -0.160285 1.148 19 30 16
0.0643629 -0.161682 1.158 19 30 16
0.0667326 -0.163078 1.168 20 31 17
0.0704208 -0.163217 1.169 20 31 17
0.072298 -0.163357 1.17 18 29 15
0.0741151 -0.163357 1.17 17 28 14
0.0759321 -0.163357 1.17 18 29 15
0.0778156 -0.163497 1.171 18 29 15
0.0797023 -0.163636 1.172 18 29 15
0.081592 -0.163776 1.173 18 29 15
0.0834848 -0.163915 1.174 18 29 13
0.0854534 -0.164195 1.176 18 29 13
0.0874282 -0.164474 1.178 16 30 13
0.0892577 -0.164474 1.178 13 27 10
0.0912418 -0.164753 1.18 15 29 12
0.0930744 -0.164753 1.18 15 29 12
0.0949874 -0.164893 1.181 16 30 13
0.0968215 -0.164893 1.181 16 30 13
0.0987392 -0.165032 1.182 16 30 13
0.100575 -0.165032 1.182 16 30 13
0.102411 -0.165032 1.182 17 32 12
0.104246 -0.165032 1.182 17 32 12
0.106172 -0.165172 1.183 17 32 12
0.108009 -0.165172 1.183 18 33 13
0.109939 -0.165312 1.184 18 33 13
0.111778 -0.165312 1.184 19 34 14
0.113713 -0.165451 1.185 16 32 10
0.115553 -0.165451 1.185 13 29 7
0.117393 -0.165451 1.185 15 31 9
0.119234 -0.165451 1.185 15 31 9
0.121074 -0.165451 1.185 16 32 10
0.122914 -0.165451 1.185 16 32 10
0.12486 -0.165591 1.186 16 32 10
0.126702 -0.165591 1.186 17 33 11
0.128435 -0.165451 1.185 16 32 10
0.130386 -0.165591 1.186 16 32 10
0.132227 -0.165591 1.186 16 32 10
0.133843 -0.165312 1.184 16 32 10
0.135338 -0.164893 1.181 13 29 7
0.136824 -0.164474 1.178 15 31 9
0.137947 -0.163636 1.172 15 31 9
0.13929 -0.163078 1.168 15 31 9
0.140742 -0.162659 1.165 16 27 6
0.142306 -0.16238 1.163 16 27 6
0.143741 -0.161961 1.16 21 21 0
0.145291 -0.161682 1.158 24 24 0
0.147852 -0.162519 1.164 47 37 3
0.145243 -0.154002 1.103 100 77 34
0.146556 -0.153583 1.1 109 73 21
0.147995 -0.153304 1.098 106 70 18
0.149564 -0.153165 1.097 111 72 9
0.151405 -0.153304 1.098 123 84 21
0.152971 -0.153165 1.097 124 81 9
0.154393 -0.152885 1.095 124 81 9
0.155808 -0.152606 1.093 125 79 3
0.157217 -0.152327 1.091 125 79 3
0.158621 -0.152048 1.089 130 80 2
0.160165 -0.151908 1.088 129 79 1
0.161557 -0.151629 1.086 135 83 4
0.163093 -0.151489 1.085 136 84 5
0.164474 -0.15121 1.083 136 85 3
0.166003 -0.15107 1.082 134 83 1
0.167528 -0.150931 1.081 136 83 0
0.169051 -0.150791 1.08 136 83 0
0.17057 -0.150651 1.079 136 83 0
0.172245 -0.150651 1.079 137 84 1
0.17376 -0.150512 1.078 133 75 0
0.175434 -0.150512 1.078 130 72 0
0.177108 -0.150512 1.078 131 72 0
0.178617 -0.150372 1.077 131 72 0
0.180289 -0.150372 1.077 133 74 0
0.181962 -0.150372 1.077 133 74 0
0.183464 -0.150233 1.076 134 75 0
0.184963 -0.150093 1.075 134 75 0
0.186459 -0.149953 1.074 133 74 0
0.187777 -0.149674 1.072 131 72 0
0.189088 -0.149395 1.07 131 71 0
0.190571 -0.149255 1.069 126 66 0
0.192052 -0.149116 1.068 110 57 1
0.193348 -0.148836 1.066 119 66 10
0.19482 -0.148697 1.065 161 129 99
0.19629 -0.148557 1.064 255 228 198
0.197942 -0.148557 1.064 255 243 228
0.199595 -0.148557 1.064 255 253 238
0.201247 -0.148557 1.064 255 254 243
0.2029 -0.148557 1.064 255 253 242
0.204552 -0.148557 1.064 255 252 243
0.206204 -0.148557 1.064 237 225 216
0.208052 -0.148697 1.065 218 206 197
0.209706 -0.148697 1.065 218 206 197
0.211559 -0.148836 1.066 223 211 202
0.213214 -0.148836 1.066 225 213 204
0.215273 -0.149116 1.068 230 217 211
0.216931 -0.149116 1.068 240 227 221
0.21859 -0.149116 1.068 247 234 228
0.220455 -0.149255 1.069 242 229 223
0.222115 -0.149255 1.069 242 229 223
0.223775 -0.149255 1.069 243 230 224
0.225435 -0.149255 1.069 247 235 226
0.226883 -0.149116 1.068 244 232 223
0.228542 -0.149116 1.068 244 232 223
0.229985 -0.148976 1.067 249 237 228
0.231425 -0.148836 1.066 249 238 227
0.233081 -0.148836 1.066 249 238 227
0.234516 -0.148697 1.065 254 243 232
0.23617 -0.148697 1.065 254 243 232
0.237824 -0.148697 1.065 246 231 223
0.239478 -0.148697 1.065 240 225 217
0.241132 -0.148697 1.065 240 225 217
0.242786 -0.148697 1.065 242 227 219
0.244669 -0.148836 1.066 239 227 218
0.246094 -0.148697 1.065 234 222 213
0.247748 -0.148697 1.065 240 228 219
0.249402 -0.148697 1.065 246 234 225
0.251056 -0.148697 1.065 240 227 221
0.25271 -0.148697 1.065 227 214 208
0.254364 -0.148697 1.065 223 210 204
0.255777 -0.148557 1.064 224 211 205
0.25743 -0.148557 1.064 255 242 232
0.259082 -0.148557 1.064 255 255 245
0.260734 -0.148557 1.064 255 255 242
0.262387 -0.148557 1.064 255 254 241
0.264039 -0.148557 1.064 255 249 234
0.265692 -0.148557 1.064 255 250 235
0.267344 -0.148557 1.064 255 251 231
0.268997 -0.148557 1.064 235 201 181
0.270649 -0.148557 1.064 138 75 29
0.272301 -0.148557 1.064 118 55 9
0.273954 -0.148557 1.064 161 88 5
0.275606 -0.148557 1.064 174 101 18
0.277259 -0.148557 1.064 199 121 24
0.278911 -0.148557 1.064 205 127 30
0.280564 -0.148557 1.064 203 127 25
0.282216 -0.148557 1.064 205 129 27
0.283602 -0.148417 1.063 200 120 23
0.285253 -0.148417 1.063 179 99 2
0.286634 -0.148278 1.062 162 81 0
0.288283 -0.148278 1.062 153 72 0
0.289932 -0.148278 1.062 157 76 0
0.291582 -0.148278 1.062 184 103 3
0.293231 -0.148278 1.062 252 174 66
0.29488 -0.148278 1.062 255 219 111
0.296529 -0.148278 1.062 209 124 23
0.298179 -0.148278 1.062 154 69 0
0.299828 -0.148278 1.062 161 79 0
0.301477 -0.148278 1.062 160 78 0
0.303127 -0.148278 1.062 189 100 0
0.305063 -0.148417 1.063 211 122 19
0.307002 -0.148557 1.064 191 104 0
0.309235 -0.148836 1.066 174 87 0
0.311474 -0.149116 1.068 172 85 0
0.314012 -0.149534 1.071 174 87 0
0.317149 -0.150233 1.076 183 106 28
0.320894 -0.15121 1.083 173 96 18
0.326953 -0.152467 1.092 73 15 0
0.331056 -0.153583 1.1 37 20 0
0.335185 -0.1547 1.108 41 24 3
0.339034 -0.155678 1.115 24 22 8
0.344955 -0.156795 1.123 24 25 10
0.348551 -0.157633 1.129 19 20 5
0.351546 -0.158191 1.133 20 21 8
0.353617 -0.158331 1.134 14 15 2
0.355378 -0.158331 1.134 21 11 2
0.356824 -0.158191 1.133 51 41 32
0.358268 -0.158051 1.132 96 92 85
0.360026 -0.158051 1.132 116 112 105
0.361784 -0.158051 1.132 118 119 116
0.363542 -0.158051 1.132 119 120 117
0.364654 -0.157772 1.13 73 76 79
0.366409 -0.157772 1.13 42 45 48
-0.145005 -0.142899 1.035 164 176 191
-0.143536 -0.143037 1.036 165 177 192
-0.142064 -0.143175 1.037 165 177 192
-0.140589 -0.143313 1.038 166 178 193
-0.138977 -0.143313 1.038 167 179 194
-0.137497 -0.143451 1.039 166 178 193
-0.136014 -0.143589 1.04 167 179 194
-0.134658 -0.143865 1.042 167 179 194
-0.133167 -0.144003 1.043 168 180 195
-0.131673 -0.144141 1.044 168 180 195
-0.130301 -0.144418 1.046 167 179 194
-0.128677 -0.144418 1.046 167 179 194
-0.127295 -0.144694 1.048 168 180 195
-0.125787 -0.144832 1.049 168 180 195
-0.124158 -0.144832 1.049 168 180 195
-0.122646 -0.14497 1.05 167 179 194
-0.121015 -0.14497 1.05 172 184 199
-0.119385 -0.14497 1.05 166 178 193
-0.117754 -0.14497 1.05 158 169 187
-0.116123 -0.14497 1.05 154 165 183
-0.114493 -0.14497 1.05 159 170 188
-0.112862 -0.14497 1.05 158 169 187
-0.111231 -0.14497 1.05 157 168 186
-0.109705 -0.145108 1.051 157 168 186
-0.108073 -0.145108 1.051 157 168 186
-0.10644 -0.145108 1.051 157 168 186
-0.104808 -0.145108 1.051 157 168 186
-0.103274 -0.145246 1.052 158 169 187
-0.10164 -0.145246 1.052 158 169 187
-0.100102 -0.145384 1.053 157 168 186
-0.0984662 -0.145384 1.053 157 168 186
-0.0969229 -0.145522 1.054 157 168 186
-0.0953764 -0.14566 1.055 158 169 187
-0.0937379 -0.14566 1.055 157 168 186
-0.0921868 -0.145798 1.056 156 167 185
-0.0905468 -0.145798 1.056 158 169 187
-0.0873494 -0.145936 1.057 156 170 187
-0.0857889 -0.146074 1.058 155 169 186
-0.0841458 -0.146074 1.058 156 170 187
-0.0825807 -0.146212 1.059 157 171 188
-0.0810124 -0.14635 1.06 159 173 190
-0.0794411 -0.146489 1.061 162 176 193
-0.0777933 -0.146489 1.061 159 173 190
-0.0762173 -0.146627 1.062 159 173 190
-0.0746382 -0.146765 1.063 161 175 192
-0.073056 -0.146903 1.064 163 177 194
-0.0714707 -0.147041 1.065 168 182 199
-0.0698823 -0.147179 1.066 165 179 196
-0.0682267 -0.147179 1.066 165 179 196
-0.0666336 -0.147317 1.067 170 184 201
-0.0650375 -0.147455 1.068 170 184 201
-0.0633788 -0.147455 1.068 168 182 199
-0.061778 -0.147593 1.069 164 178 195
-0.0601178 -0.147593 1.069 159 173 190
-0.0584576 -0.147593 1.069 159 173 190
-0.0567974 -0.147593 1.069 159 173 190
-0.0551888 -0.147731 1.07 159 173 190
-0.053527 -0.147731 1.07 159 173 190
-0.0518653 -0.147731 1.07 159 173 190
-0.0502035 -0.147731 1.07 157 171 188
-0.0485418 -0.147731 1.07 156 170 187
-0.04688 -0.147731 1.07 156 170 187
-0.0452183 -0.147731 1.07 156 170 187
-0.0435565 -0.147731 1.07 156 170 187
-0.0418948 -0.147731 1.07 157 171 188
-0.040233 -0.147731 1.07 158 172 189
-0.0385713 -0.147731 1.07 161 175 192
-0.0369096 -0.147731 1.07 159 173 190
-0.0352808 -0.147869 1.071 157 171 188
-0.0335861 -0.147731 1.07 158 172 189
-0.0319542 -0.147869 1.071 159 173 190
-0.0302909 -0.147869 1.071 159 173 190
-0.0286543 -0.148007 1.072 159 173 190
-0.0269894 -0.148007 1.072 158 172 189
-0.0253246 -0.148007 1.072 158 172 189
-0.0236818 -0.148145 1.073 156 170 187
-0.0220359 -0.148283 1.074 156 170 187
-0.0203869 -0.148421 1.075 156 170 187
-0.0187348 -0.14856 1.076 156 170 187
-0.0170796 -0.148698 1.077 157 171 188
-0.0154213 -0.148836 1.078 157 171 188
-0.0137599 -0.148974 1.079 157 171 188
-0.0120954 -0.149112 1.08 157 171 188
-0.0104374 -0.149388 1.082 158 172 189
-0.00876508 -0.149526 1.083 158 172 189
-0.00708314 -0.149526 1.083 160 172 187
-0.00541118 -0.149802 1.085 160 172 187
-0.00372614 -0.149802 1.085 160 172 187
-0.00204298 -0.14994 1.086 160 172 187
-0.000356384 -0.14994 1.086 161 173 188
0.00133021 -0.14994 1.086 163 175 190
0.00301403 -0.149802 1.085 163 175 190
0.00469907 -0.149802 1.085 161 173 188
0.00638411 -0.149802 1.085 160 172 187
0.00806915 -0.149802 1.085 163 175 190
0.0097542 -0.149802 1.085 158 170 185
0.0114287 -0.149664 1.084 161 173 188
0.0131122 -0.149664 1.084 163 175 190
0.0147957 -0.149664 1.084 160 172 187
0.0164792 -0.149664 1.084 158 170 185
0.0181794 -0.149802 1.085 159 171 186
0.0198644 -0.149802 1.085 159 171 186
0.0215495 -0.149802 1.085 160 172 187
0.0232345 -0.149802 1.085 155 165 180
0.0249196 -0.149802 1.085 151 161 176
0.0266291 -0.14994 1.086 152 162 177
0.0283157 -0.14994 1.086 155 165 180
0.03003 -0.150078 1.087 156 166 181
0.0317473 -0.150216 1.088 156 166 181
0.033437 -0.150216 1.088 158 168 183
0.035159 -0.150354 1.089 158 168 183
0.0369179 -0.150631 1.091 156 166 181
0.0386123 -0.150631 1.091 155 165 180
0.0403805 -0.150907 1.093 151 161 176
0.0421165 -0.151045 1.094 144 154 169
0.0438555 -0.151183 1.095 144 152 166
0.0455561 -0.151183 1.095 160 168 182
0.0474725 -0.151873 1.1 184 187 195
0.0511667 -0.152702 1.106 107 111 110
0.0533625 -0.154082 1.116 13 17 16
0.0619161 -0.158224 1.146 20 31 17
0.0642517 -0.159605 1.156 20 31 17
0.0666184 -0.160986 1.166 20 31 17
0.0685466 -0.161262 1.168 19 30 16
0.0703605 -0.161262 1.168 19 30 16
0.0721745 -0.161262 1.168 15 26 12
0.0739884 -0.161262 1.168 15 26 12
0.0777492 -0.161538 1.17 17 28 14
0.0796342 -0.161676 1.171 17 28 12
0.0815224 -0.161814 1.172 18 29 13
0.0834137 -0.161952 1.173 18 29 13
0.0853807 -0.162228 1.175 18 29 13
0.0874282 -0.162642 1.178 17 28 12
0.0892577 -0.162642 1.178 15 26 10
0.0912418 -0.162918 1.18 16 30 13
0.0931532 -0.163057 1.181 16 30 13
0.0950678 -0.163195 1.182 16 30 13
0.0969855 -0.163333 1.183 16 30 13
0.0988227 -0.163333 1.183 16 31 11
0.100745 -0.163471 1.184 16 31 11
0.10267 -0.163609 1.185 18 33 13
0.104511 -0.163609 1.185 18 33 13
0.106351 -0.163609 1.185 18 33 13
0.108192 -0.163609 1.185 18 33 13
0.110032 -0.163609 1.185 18 34 12
0.111967 -0.163747 1.186 18 34 12
0.113809 -0.163747 1.186 16 32 10
0.11565 -0.163747 1.186 16 32 10
0.117492 -0.163747 1.186 16 32 10
0.119435 -0.163885 1.187 16 32 10
0.121278 -0.163885 1.187 15 31 9
0.123122 -0.163885 1.187 15 31 9
0.124965 -0.163885 1.187 15 31 9
0.126809 -0.163885 1.187 15 31 9
0.128652 -0.163885 1.187 13 29 7
0.130496 -0.163885 1.187 16 32 10
0.132339 -0.163885 1.187 16 32 10
0.133956 -0.163609 1.185 16 32 10
0.135682 -0.163471 1.184 15 31 9
0.137289 -0.163195 1.182 13 29 7
0.138889 -0.162918 1.18 12 28 6
0.14096 -0.163195 1.182 12 28 6
0.142554 -0.162918 1.18 13 26 5
0.144142 -0.162642 1.178 14 27 6
0.1456 -0.162228 1.175 21 27 4
0.147173 -0.161952 1.173 17 23 0
0.148741 -0.161676 1.171 29 20 0
0.145901 -0.152978 1.108 98 76 35
0.147222 -0.152563 1.105 103 72 24
0.148669 -0.152287 1.103 100 69 21
0.150109 -0.152011 1.101 106 68 7
0.151819 -0.152011 1.101 124 86 25
0.15325 -0.151735 1.099 125 84 12
0.154675 -0.151459 1.097 123 82 10
0.156093 -0.151183 1.095 126 80 4
0.15765 -0.151045 1.094 124 78 2
0.159057 -0.150769 1.092 129 78 3
0.160606 -0.150631 1.091 136 85 10
0.162003 -0.150354 1.089 139 89 11
0.163394 -0.150078 1.087 135 85 7
0.164778 -0.149802 1.085 135 86 4
0.16631 -0.149664 1.084 135 86 4
0.167838 -0.149526 1.083 136 85 3
0.169364 -0.149388 1.082 135 84 2
0.170886 -0.14925 1.081 137 83 2
0.172405 -0.149112 1.08 143 89 8
0.174082 -0.149112 1.08 140 82 1
0.17576 -0.149112 1.08 130 72 0
0.177273 -0.148974 1.079 131 73 0
0.178948 -0.148974 1.079 133 75 0
0.180624 -0.148974 1.079 133 74 0
0.1823 -0.148974 1.079 133 74 0
0.183805 -0.148836 1.078 133 74 0
0.185307 -0.148698 1.077 134 75 0
0.186633 -0.148421 1.075 134 75 0
0.187952 -0.148145 1.073 133 74 0
0.189265 -0.147869 1.071 133 74 0
0.19075 -0.147731 1.07 127 68 0
0.192232 -0.147593 1.069 118 63 0
0.193529 -0.147317 1.067 122 67 4
0.195003 -0.147179 1.066 139 105 66
0.196474 -0.147041 1.065 255 223 184
0.197942 -0.146903 1.064 255 248 231
0.199595 -0.146903 1.064 255 250 233
0.201247 -0.146903 1.064 255 254 241
0.2029 -0.146903 1.064 255 249 236
0.204552 -0.146903 1.064 245 233 224
0.206204 -0.146903 1.064 220 208 199
0.208052 -0.147041 1.065 216 206 197
0.209706 -0.147041 1.065 216 206 197
0.211559 -0.147179 1.066 222 211 205
0.213414 -0.147317 1.067 230 219 213
0.215273 -0.147455 1.068 245 234 228
0.216931 -0.147455 1.068 248 237 231
0.218795 -0.147593 1.069 250 239 233
0.220455 -0.147593 1.069 243 232 226
0.222115 -0.147593 1.069 240 231 226
0.223775 -0.147593 1.069 240 231 226
0.225435 -0.147593 1.069 240 232 225
0.227096 -0.147593 1.069 246 238 231
0.228542 -0.147455 1.068 246 239 229
0.229985 -0.147317 1.067 243 236 226
0.231425 -0.147179 1.066 242 235 225
0.233081 -0.147179 1.066 245 238 228
0.234516 -0.147041 1.065 253 241 232
0.23617 -0.147041 1.065 255 247 238
0.237824 -0.147041 1.065 248 233 225
0.239478 -0.147041 1.065 236 221 213
0.241132 -0.147041 1.065 240 225 217
0.242786 -0.147041 1.065 241 226 218
0.244669 -0.147179 1.066 239 227 218
0.246094 -0.147041 1.065 242 230 221
0.247748 -0.147041 1.065 249 237 228
0.249402 -0.147041 1.065 249 237 228
0.251056 -0.147041 1.065 243 231 222
0.25271 -0.147041 1.065 230 218 209
0.254364 -0.147041 1.065 229 217 208
0.255777 -0.146903 1.064 255 244 235
0.25743 -0.146903 1.064 255 252 242
0.259082 -0.146903 1.064 255 253 243
0.260734 -0.146903 1.064 255 250 234
0.262387 -0.146903 1.064 255 249 233
0.264039 -0.146903 1.064 254 244 228
0.265692 -0.146903 1.064 255 250 234
0.267344 -0.146903 1.064 255 253 231
0.269249 -0.147041 1.065 239 213 191
0.270903 -0.147041 1.065 145 89 47
0.272557 -0.147041 1.065 127 71 29
0.274211 -0.147041 1.065 183 112 36
0.275606 -0.146903 1.064 189 118 42
0.277259 -0.146903 1.064 195 125 27
0.278911 -0.146903 1.064 190 120 22
0.280564 -0.146903 1.064 187 114 17
0.282216 -0.146903 1.064 178 105 8
0.283602 -0.146765 1.063 169 91 2
0.285253 -0.146765 1.063 149 71 0
0.286634 -0.146627 1.062 152 71 0
0.288283 -0.146627 1.062 152 71 0
0.289932 -0.146627 1.062 151 74 0
0.291582 -0.146627 1.062 156 79 0
0.293231 -0.146627 1.062 229 149 59
0.29488 -0.146627 1.062 209 129 39
0.29625 -0.146489 1.061 152 72 0
0.297898 -0.146489 1.061 161 81 0
0.299828 -0.146627 1.062 163 82 0
0.301477 -0.146627 1.062 164 83 0
0.303127 -0.146627 1.062 207 118 10
0.305063 -0.146765 1.063 217 128 20
0.307002 -0.146903 1.064 191 101 0
0.309235 -0.147179 1.066 189 99 0
0.311474 -0.147455 1.068 185 98 0
0.313719 -0.147731 1.07 210 123 13
0.317149 -0.14856 1.076 200 121 36
0.320894 -0.149526 1.083 182 103 18
0.326653 -0.150631 1.091 81 19 0
0.330455 -0.151597 1.098 48 25 0
0.334277 -0.152563 1.105 48 25 0
0.338426 -0.153668 1.113 26 23 6
0.342294 -0.154634 1.12 27 24 7
0.347934 -0.155601 1.127 24 22 8
0.350925 -0.156153 1.131 22 20 6
0.352993 -0.156291 1.132 18 16 2
0.354752 -0.156291 1.132 20 13 3
0.35651 -0.156291 1.132 48 41 31
0.358268 -0.156291 1.132 97 93 86
0.360026 -0.156291 1.132 118 114 107
0.361784 -0.156291 1.132 118 120 114
0.363221 -0.156153 1.131 118 120 114
0.364654 -0.156015 1.13 69 72 75
0.366733 -0.156153 1.131 41 44 47
-0.145005 -0.141289 1.035 165 177 192
-0.143536 -0.141426 1.036 166 178 193
-0.141927 -0.141426 1.036 166 178 193
-0.140453 -0.141563 1.037 167 179 194
-0.138977 -0.141699 1.038 167 179 194
-0.137365 -0.141699 1.038 167 179 194
-0.136014 -0.141972 1.04 167 179 194
-0.134658 -0.142245 1.042 166 178 193
-0.133167 -0.142382 1.043 167 179 194
-0.131673 -0.142518 1.044 166 178 193
-0.130301 -0.142791 1.046 167 179 194
-0.1288 -0.142928 1.047 167 179 194
-0.127295 -0.143064 1.048 167 179 194
-0.125787 -0.143201 1.049 167 179 194
-0.124277 -0.143337 1.05 167 179 194
-0.122646 -0.143337 1.05 168 180 195
-0.121131 -0.143474 1.051 160 172 187
-0.119498 -0.143474 1.051 152 164 179
-0.117866 -0.143474 1.051 154 165 183
-0.116234 -0.143474 1.051 157 168 186
-0.114602 -0.143474 1.051 157 168 186
-0.112969 -0.143474 1.051 157 168 186
-0.111337 -0.143474 1.051 157 168 186
-0.109705 -0.143474 1.051 157 168 186
-0.108073 -0.143474 1.051 157 168 186
-0.106542 -0.14361 1.052 157 168 186
-0.104808 -0.143474 1.051 159 170 188
-0.103274 -0.14361 1.052 161 172 190
-0.10164 -0.14361 1.052 159 170 188
-0.100102 -0.143747 1.053 158 169 187
-0.0985598 -0.143883 1.054 159 170 188
-0.0969229 -0.143883 1.054 161 172 190
-0.0953764 -0.14402 1.055 161 172 190
-0.0937379 -0.14402 1.055 160 171 189
-0.0921868 -0.144156 1.056 159 170 188
-0.0905468 -0.144156 1.056 158 169 187
-0.0873494 -0.144293 1.057 158 169 187
-0.0857889 -0.144429 1.058 157 171 188
-0.0841458 -0.144429 1.058 158 172 189
-0.0825807 -0.144566 1.059 158 172 189
-0.0810124 -0.144702 1.06 158 172 189
-0.0794411 -0.144839 1.061 161 175 192
-0.0777933 -0.144839 1.061 159 173 190
-0.0762173 -0.144975 1.062 159 173 190
-0.074568 -0.144975 1.062 159 173 190
-0.073056 -0.145248 1.064 159 173 190
-0.0714036 -0.145248 1.064 161 175 192
-0.0698167 -0.145385 1.065 161 175 192
-0.0682267 -0.145521 1.066 162 176 193
-0.0665712 -0.145521 1.066 165 179 196
-0.0650375 -0.145794 1.068 166 180 197
-0.0633788 -0.145794 1.068 169 183 200
-0.061778 -0.145931 1.069 164 178 195
-0.0601178 -0.145931 1.069 164 178 195
-0.0584576 -0.145931 1.069 164 178 195
-0.0568505 -0.146067 1.07 163 177 194
-0.0551888 -0.146067 1.07 162 176 193
-0.053527 -0.146067 1.07 161 175 192
-0.0518168 -0.145931 1.069 161 175 192
-0.0502035 -0.146067 1.07 159 173 190
-0.0485418 -0.146067 1.07 157 171 188
-0.04688 -0.146067 1.07 151 165 182
-0.0452183 -0.146067 1.07 150 164 181
-0.0435565 -0.146067 1.07 152 166 183
-0.0418948 -0.146067 1.07 152 166 183
-0.040233 -0.146067 1.07 159 173 190
-0.0385713 -0.146067 1.07 161 175 192
-0.0369096 -0.146067 1.07 159 173 190
-0.0352478 -0.146067 1.07 157 171 188
-0.0335861 -0.146067 1.07 159 173 190
-0.0319243 -0.146067 1.07 159 173 190
-0.0302626 -0.146067 1.07 159 173 190
-0.0286276 -0.146204 1.071 159 173 190
-0.0269894 -0.14634 1.072 159 173 190
-0.0253246 -0.14634 1.072 161 175 192
-0.0236597 -0.14634 1.072 156 170 187
-0.0220154 -0.146477 1.073 156 170 187
-0.0203679 -0.146613 1.074 156 170 187
-0.0187174 -0.14675 1.075 157 171 188
-0.0170637 -0.146886 1.076 157 171 188
-0.015407 -0.147023 1.077 157 171 188
-0.0137599 -0.147296 1.079 157 171 188
-0.0120954 -0.147433 1.08 157 171 188
-0.0104277 -0.147569 1.081 158 172 189
-0.00876508 -0.147842 1.083 158 172 189
-0.00708968 -0.147979 1.084 161 172 190
-0.00541118 -0.148115 1.085 160 171 189
-0.00372614 -0.148115 1.085 161 173 188
-0.00204298 -0.148252 1.086 161 173 188
-0.000356384 -0.148252 1.086 163 175 190
0.00133021 -0.148252 1.086 163 175 190
0.00301681 -0.148252 1.086 163 175 190
0.0047034 -0.148252 1.086 163 175 190
0.00638411 -0.148115 1.085 159 171 186
0.00806915 -0.148115 1.085 163 175 190
0.0097542 -0.148115 1.085 160 172 187
0.0114392 -0.148115 1.085 160 172 187
0.0131122 -0.147979 1.084 160 172 187
0.0147957 -0.147979 1.084 160 172 187
0.0164792 -0.147979 1.084 159 171 186
0.0181794 -0.148115 1.085 158 170 185
0.0198644 -0.148115 1.085 158 170 185
0.0215495 -0.148115 1.085 158 170 185
0.0232345 -0.148115 1.085 152 162 177
0.0249196 -0.148115 1.085 147 157 172
0.0266291 -0.148252 1.086 147 157 172
0.0283157 -0.148252 1.086 147 157 172
0.03003 -0.148388 1.087 147 157 172
0.0317473 -0.148525 1.088 149 159 174
0.0334677 -0.148661 1.089 154 164 179
0.035159 -0.148661 1.089 155 165 180
0.0369179 -0.148934 1.091 155 165 180
0.0386477 -0.149071 1.092 154 164 179
0.0403805 -0.149207 1.093 153 160 176
0.0421165 -0.149344 1.094 144 151 167
0.0438555 -0.14948 1.095 146 152 166
0.0455977 -0.149617 1.096 166 172 186
0.0474725 -0.150163 1.1 188 195 199
0.0511667 -0.150982 1.106 116 120 119
0.0532669 -0.152074 1.114 15 19 18
0.0554413 -0.153303 1.123 21 20 12
0.0641405 -0.157534 1.154 20 31 17
0.0665041 -0.158899 1.164 19 30 16
0.0684879 -0.159309 1.167 19 30 16
0.0703003 -0.159309 1.167 19 30 16
0.0721127 -0.159309 1.167 18 29 15
0.0739251 -0.159309 1.167 15 26 12
0.0758023 -0.159446 1.168 17 28 12
0.0776827 -0.159582 1.169 17 28 12
0.0814529 -0.159855 1.171 18 29 13
0.0834137 -0.160128 1.173 18 29 13
0.0853807 -0.160401 1.175 18 29 13
0.0874282 -0.160811 1.178 18 29 13
0.0894092 -0.161084 1.18 15 26 10
0.0913191 -0.16122 1.181 16 30 13
0.0932321 -0.161357 1.182 16 30 13
0.0952287 -0.16163 1.184 16 30 13
0.0971494 -0.161766 1.185 17 31 14
0.0989898 -0.161766 1.185 17 32 12
0.10083 -0.161766 1.185 16 31 11
0.102844 -0.162039 1.187 18 33 13
0.104599 -0.161903 1.186 19 34 14
0.106531 -0.162039 1.187 19 34 14
0.108374 -0.162039 1.187 13 28 8
0.110218 -0.162039 1.187 10 25 5
0.112061 -0.162039 1.187 13 28 8
0.113904 -0.162039 1.187 16 32 10
0.115748 -0.162039 1.187 17 33 11
0.117591 -0.162039 1.187 16 32 10
0.119535 -0.162176 1.188 15 31 9
0.12138 -0.162176 1.188 15 31 9
0.123329 -0.162312 1.189 16 32 10
0.125386 -0.162585 1.191 15 31 9
0.127129 -0.162449 1.19 16 32 10
0.128977 -0.162449 1.19 15 31 9
0.130825 -0.162449 1.19 16 32 10
0.132673 -0.162449 1.19 15 31 9
0.134409 -0.162312 1.189 13 29 7
0.136026 -0.162039 1.187 13 29 7
0.137869 -0.162039 1.187 13 29 7
0.139595 -0.161903 1.186 12 28 6
0.141318 -0.161766 1.185 11 27 5
0.142796 -0.161357 1.182 13 26 5
0.144631 -0.161357 1.182 13 26 5
0.146343 -0.16122 1.181 19 26 6
0.147926 -0.160947 1.179 15 22 2
0.14963 -0.160811 1.178 27 19 0
0.151203 -0.160538 1.176 47 39 10
0.149125 -0.156442 1.146 94 76 37
0.147355 -0.150982 1.106 102 71 23
0.148938 -0.150845 1.105 100 69 21
0.150382 -0.150572 1.103 111 75 16
0.152095 -0.150572 1.103 123 87 28
0.153529 -0.150299 1.101 130 87 20
0.155098 -0.150163 1.1 124 81 14
0.156521 -0.14989 1.098 126 81 8
0.158082 -0.149753 1.097 127 82 9
0.159494 -0.14948 1.095 141 90 15
0.161048 -0.149344 1.094 144 93 18
0.162449 -0.149071 1.092 142 92 14
0.163694 -0.148661 1.089 135 85 7
0.165234 -0.148525 1.088 142 90 11
0.166617 -0.148252 1.086 145 93 14
0.168148 -0.148115 1.085 137 86 4
0.16952 -0.147842 1.083 136 85 3
0.171202 -0.147842 1.083 138 85 2
0.172724 -0.147706 1.082 144 91 8
0.174405 -0.147706 1.082 140 83 0
0.175922 -0.147569 1.081 129 72 0
0.177601 -0.147569 1.081 133 75 0
0.17928 -0.147569 1.081 134 76 0
0.180959 -0.147569 1.081 135 73 0
0.182469 -0.147433 1.08 135 73 0
0.183976 -0.147296 1.079 133 74 0
0.185651 -0.147296 1.079 134 75 0
0.18698 -0.147023 1.077 134 75 0
0.188302 -0.14675 1.075 134 75 0
0.189441 -0.14634 1.072 134 75 0
0.190928 -0.146204 1.071 128 69 0
0.192232 -0.145931 1.069 121 65 0
0.19371 -0.145794 1.068 122 66 0
0.195003 -0.145521 1.066 131 92 47
0.196474 -0.145385 1.065 255 216 171
0.197942 -0.145248 1.064 255 244 223
0.199595 -0.145248 1.064 255 248 227
0.201247 -0.145248 1.064 254 241 226
0.2029 -0.145248 1.064 238 225 210
0.204552 -0.145248 1.064 218 207 196
0.206398 -0.145385 1.065 215 204 193
0.208052 -0.145385 1.065 220 209 198
0.209903 -0.145521 1.066 222 211 200
0.211559 -0.145521 1.066 229 219 210
0.213614 -0.145794 1.068 244 234 225
0.215273 -0.145794 1.068 248 240 233
0.217135 -0.145931 1.069 246 238 231
0.218795 -0.145931 1.069 246 240 233
0.220661 -0.146067 1.07 247 241 234
0.222323 -0.146067 1.07 251 244 239
0.223985 -0.146067 1.07 252 245 240
0.225646 -0.146067 1.07 254 247 242
0.227096 -0.145931 1.069 255 253 248
0.228542 -0.145794 1.068 255 251 244
0.230201 -0.145794 1.068 253 247 240
0.231425 -0.145521 1.066 253 248 238
0.233081 -0.145521 1.066 253 248 238
0.234736 -0.145521 1.066 255 253 242
0.23617 -0.145385 1.065 255 252 241
0.237824 -0.145385 1.065 247 232 224
0.239478 -0.145385 1.065 234 219 211
0.241132 -0.145385 1.065 240 225 217
0.242786 -0.145385 1.065 241 226 218
0.244669 -0.145521 1.066 244 229 221
0.246094 -0.145385 1.065 251 236 228
0.247748 -0.145385 1.065 245 233 224
0.249402 -0.145385 1.065 250 238 229
0.251056 -0.145385 1.065 245 233 224
0.25271 -0.145385 1.065 237 225 216
0.254125 -0.145248 1.064 252 240 231
0.255777 -0.145248 1.064 255 249 240
0.25743 -0.145248 1.064 255 248 237
0.259082 -0.145248 1.064 255 248 237
0.260734 -0.145248 1.064 254 245 232
0.262387 -0.145248 1.064 255 246 233
0.264039 -0.145248 1.064 255 248 235
0.265692 -0.145248 1.064 255 252 239
0.267344 -0.145248 1.064 255 247 227
0.269249 -0.145385 1.065 248 226 206
0.270903 -0.145385 1.065 168 120 78
0.272557 -0.145385 1.065 137 89 47
0.274211 -0.145385 1.065 177 105 38
0.275606 -0.145248 1.064 178 106 39
0.277259 -0.145248 1.064 182 108 21
0.278911 -0.145248 1.064 168 94 7
0.280564 -0.145248 1.064 155 78 0
0.282216 -0.145248 1.064 147 70 0
0.283602 -0.145112 1.063 148 68 0
0.284984 -0.144975 1.062 150 70 0
0.286634 -0.144975 1.062 149 69 0
0.288283 -0.144975 1.062 151 71 0
0.289932 -0.144975 1.062 152 69 0
0.291582 -0.144975 1.062 151 68 0
0.292955 -0.144839 1.061 150 64 0
0.294602 -0.144839 1.061 150 64 0
0.29625 -0.144839 1.061 164 77 0
0.297898 -0.144839 1.061 171 84 0
0.299828 -0.144975 1.062 170 83 0
0.301477 -0.144975 1.062 196 109 0
0.303127 -0.144975 1.062 236 148 29
0.30535 -0.145248 1.064 236 148 29
0.307002 -0.145248 1.064 229 142 19
0.308945 -0.145385 1.065 221 134 11
0.311182 -0.145658 1.067 221 131 25
0.313719 -0.146067 1.07 222 132 26
0.316854 -0.14675 1.075 196 114 30
0.320598 -0.147706 1.082 184 102 18
0.326055 -0.148661 1.089 88 21 0
0.329853 -0.149617 1.096 51 22 0
0.333672 -0.150572 1.103 54 25 0
0.337514 -0.151528 1.11 28 23 6
0.341683 -0.15262 1.118 30 25 8
0.347316 -0.153576 1.125 25 23 9
0.350305 -0.154122 1.129 24 22 8
0.352682 -0.154395 1.131 21 19 5
0.354752 -0.154531 1.132 20 13 3
0.356195 -0.154395 1.131 44 37 27
0.357951 -0.154395 1.131 93 89 82
0.359708 -0.154395 1.131 120 116 109
0.361464 -0.154395 1.131 118 120 114
0.363221 -0.154395 1.131 117 119 113
0.3653 -0.154531 1.132 68 71 74
0.367058 -0.154531 1.132 38 41 44
-0.145005 -0.13968 1.035 166 178 193
-0.143397 -0.13968 1.035 167 179 194
-0.141927 -0.139815 1.036 168 180 195
-0.140318 -0.139815 1.036 168 180 195
-0.138843 -0.13995 1.037 167 179 194
-0.137365 -0.140085 1.038 167 179 194
-0.136014 -0.140355 1.04 166 178 193
-0.134658 -0.140625 1.042 168 180 195
-0.133167 -0.14076 1.043 171 183 198
-0.131799 -0.14103 1.045 168 180 195
-0.130301 -0.141165 1.046 168 180 195
-0.1288 -0.1413 1.047 167 179 194
-0.127295 -0.141435 1.048 166 178 193
-0.125787 -0.14157 1.049 167 179 194
-0.124277 -0.141705 1.05 167 179 194
-0.122763 -0.14184 1.051 167 179 194
