ply
format ascii 1.0
comment Created by Open3D
element vertex 1280
property double x
property double y
property double z
property uchar red
property uchar green
property uchar blue
end_header
0.344046 -0.0457252 1.186 34 54 25
0.345596 -0.0456867 1.185 29 47 20
0.347436 -0.0456867 1.185 32 50 23
0.349277 -0.0456867 1.185 40 51 35
0.350821 -0.0456481 1.184 107 118 102
0.352362 -0.0456096 1.183 128 136 124
0.3539 -0.045571 1.182 115 123 111
0.355434 -0.0455325 1.181 59 59 53
0.356966 -0.0454939 1.18 35 35 29
0.35819 -0.0454168 1.178 68 67 64
0.36002 -0.0454168 1.178 61 60 57
0.361235 -0.0453397 1.176 38 37 34
0.362135 -0.045224 1.173 31 30 27
0.362716 -0.0450698 1.169 29 33 33
0.362972 -0.0448771 1.164 73 77 77
0.3629 -0.0446457 1.158 100 103 111
0.361549 -0.0442602 1.148 127 130 138
0.362065 -0.044106 1.144 93 98 109
0.362252 -0.0439132 1.139 98 103 114
0.362742 -0.043759 1.135 113 120 131
0.363542 -0.0436433 1.132 141 148 159
0.366913 -0.0438361 1.137 88 92 106
0.370625 -0.0440674 1.143 84 88 102
-0.15285 -0.0403662 1.091 151 165 194
-0.151156 -0.0403662 1.091 152 166 195
-0.149462 -0.0403662 1.091 155 169 198
-0.147767 -0.0403662 1.091 146 160 189
-0.146073 -0.0403662 1.091 143 157 186
-0.144379 -0.0403662 1.091 139 153 182
-0.142553 -0.0403292 1.09 140 152 181
-0.140861 -0.0403292 1.09 143 155 184
-0.139296 -0.0403662 1.091 141 155 184
-0.137601 -0.0403662 1.091 145 159 188
-0.135907 -0.0403662 1.091 139 153 182
-0.134212 -0.0403662 1.091 131 145 174
-0.132518 -0.0403662 1.091 132 146 175
-0.130824 -0.0403662 1.091 133 147 176
-0.129129 -0.0403662 1.091 129 143 172
-0.127435 -0.0403662 1.091 128 142 171
-0.125741 -0.0403662 1.091 136 150 179
-0.124046 -0.0403662 1.091 140 154 183
-0.12224 -0.0403292 1.09 141 155 184
-0.120436 -0.0402922 1.089 141 155 184
-0.118745 -0.0402922 1.089 136 150 179
-0.117054 -0.0402922 1.089 131 145 174
-0.115257 -0.0402552 1.088 136 150 179
-0.113567 -0.0402552 1.088 138 152 181
-0.111877 -0.0402552 1.088 130 144 173
-0.110188 -0.0402552 1.088 126 140 169
-0.108498 -0.0402552 1.088 124 138 167
-0.106906 -0.0402922 1.089 121 135 164
-0.105215 -0.0402922 1.089 122 136 165
-0.103619 -0.0403292 1.09 124 138 167
-0.101926 -0.0403292 1.09 125 139 168
-0.100325 -0.0403662 1.091 128 142 171
-0.0986309 -0.0403662 1.091 122 136 165
-0.0969366 -0.0403662 1.091 114 128 157
-0.0952422 -0.0403662 1.091 116 130 159
-0.0935478 -0.0403662 1.091 116 130 159
-0.0918535 -0.0403662 1.091 116 130 159
-0.0901591 -0.0403662 1.091 111 125 154
-0.0884648 -0.0403662 1.091 114 128 157
-0.0866909 -0.0403292 1.09 117 131 160
-0.0849981 -0.0403292 1.09 119 133 162
-0.0833052 -0.0403292 1.09 117 131 160
-0.0816124 -0.0403292 1.09 110 127 155
-0.0799196 -0.0403292 1.09 119 136 164
-0.0782268 -0.0403292 1.09 121 138 166
-0.0766042 -0.0403662 1.091 115 132 160
-0.0749099 -0.0403662 1.091 113 132 160
-0.0732155 -0.0403662 1.091 115 134 162
-0.0715212 -0.0403662 1.091 117 136 164
-0.0698268 -0.0403662 1.091 117 136 164
-0.0681324 -0.0403662 1.091 117 136 164
-0.0664381 -0.0403662 1.091 115 134 162
-0.0647437 -0.0403662 1.091 115 134 162
-0.0629338 -0.0402922 1.089 115 134 162
-0.0612425 -0.0402922 1.089 115 134 162
-0.0595513 -0.0402922 1.089 115 134 162
-0.0578069 -0.0402552 1.088 117 136 164
-0.0561172 -0.0402552 1.088 118 137 165
-0.0544275 -0.0402552 1.088 118 137 165
-0.0527378 -0.0402552 1.088 118 137 165
-0.0510481 -0.0402552 1.088 118 137 165
-0.0494037 -0.0402922 1.089 119 138 166
-0.0477125 -0.0402922 1.089 120 139 167
-0.0460212 -0.0402922 1.089 120 139 167
-0.0443707 -0.0403292 1.09 122 141 169
-0.042717 -0.0403662 1.091 124 143 171
-0.0410227 -0.0403662 1.091 124 144 169
-0.0376684 -0.0404032 1.092 126 144 169
-0.0359725 -0.0404032 1.092 126 144 169
-0.034308 -0.0404402 1.093 126 144 169
-0.0326105 -0.0404402 1.093 126 144 169
-0.0309131 -0.0404402 1.093 129 145 169
-0.0292423 -0.0404772 1.094 130 146 170
-0.0275433 -0.0404772 1.094 130 146 170
-0.0258443 -0.0404772 1.094 131 147 171
-0.0241011 -0.0404032 1.092 131 147 171
-0.0224052 -0.0404032 1.092 131 147 171
-0.0206903 -0.0403662 1.091 132 149 170
-0.0189786 -0.0403292 1.09 132 149 170
-0.0172699 -0.0402922 1.089 133 148 169
-0.0155787 -0.0402922 1.089 133 148 169
-0.0138746 -0.0402552 1.088 134 149 170
-0.0121849 -0.0402552 1.088 135 150 171
-0.0104856 -0.0402182 1.087 134 149 168
-0.00879745 -0.0402182 1.087 132 147 166
-0.0071093 -0.0402182 1.087 132 147 166
-0.00542116 -0.0402182 1.087 132 147 166
-0.00373301 -0.0402182 1.087 132 147 166
-0.00204674 -0.0402552 1.088 133 148 167
-0.00035704 -0.0402552 1.088 133 148 167
0.00133266 -0.0402552 1.088 132 147 166
0.00302514 -0.0402922 1.089 131 146 165
0.00471639 -0.0402922 1.089 131 146 165
0.00640765 -0.0402922 1.089 131 146 165
0.0080989 -0.0402922 1.089 131 146 165
0.00979915 -0.0403292 1.09 131 146 165
0.0115025 -0.0403662 1.091 131 146 165
0.0131969 -0.0403662 1.091 130 145 164
0.0148912 -0.0403662 1.091 130 145 164
0.0165856 -0.0403662 1.091 130 145 164
0.0182799 -0.0403662 1.091 130 145 164
0.0199926 -0.0404032 1.092 129 142 161
0.0216885 -0.0404032 1.092 128 141 160
0.0234058 -0.0404402 1.093 127 140 159
0.0251033 -0.0404402 1.093 125 138 157
0.0268253 -0.0404772 1.094 126 139 158
0.0285243 -0.0404772 1.094 130 143 162
0.030251 -0.0405142 1.095 129 142 163
0.0319807 -0.0405512 1.096 129 142 163
0.0336828 -0.0405512 1.096 129 142 163
0.0354173 -0.0405882 1.097 129 142 163
0.0371209 -0.0405882 1.097 128 141 162
0.03886 -0.0406252 1.098 127 140 161
0.0405652 -0.0406252 1.098 129 142 163
0.0422705 -0.0406252 1.098 128 141 162
0.0439757 -0.0406252 1.098 128 141 162
0.0456393 -0.0405882 1.097 129 142 163
0.047343 -0.0405882 1.097 130 143 164
0.0490467 -0.0405882 1.097 132 145 166
0.0507504 -0.0405882 1.097 132 145 166
0.0524062 -0.0405512 1.096 126 139 160
0.0541083 -0.0405512 1.096 125 138 159
0.0558614 -0.0405882 1.097 128 141 162
0.0575651 -0.0405882 1.097 146 156 176
0.0592687 -0.0405882 1.097 157 167 187
0.0609724 -0.0405882 1.097 163 172 190
0.0626761 -0.0405882 1.097 159 168 186
0.0643798 -0.0405882 1.097 165 175 190
0.0660835 -0.0405882 1.097 170 180 195
0.0677871 -0.0405882 1.097 173 183 198
0.0694908 -0.0405882 1.097 175 185 200
0.0711296 -0.0405512 1.096 176 186 201
0.0727653 -0.0405142 1.095 175 185 200
0.0744658 -0.0405142 1.095 169 179 194
0.0760969 -0.0404772 1.094 166 176 191
0.0777959 -0.0404772 1.094 167 177 192
0.0794949 -0.0404772 1.094 168 178 193
0.0811939 -0.0404772 1.094 168 178 193
0.0828929 -0.0404772 1.094 166 176 191
0.0845146 -0.0404402 1.093 168 178 193
0.086291 -0.0404772 1.094 174 184 199
0.08799 -0.0404772 1.094 174 184 199
0.089771 -0.0405142 1.095 173 183 198
0.0914716 -0.0405142 1.095 168 178 193
0.0931721 -0.0405142 1.095 172 182 197
0.0949594 -0.0405512 1.096 168 178 193
0.0967497 -0.0405882 1.097 162 172 187
0.0984534 -0.0405882 1.097 165 175 190
0.100157 -0.0405882 1.097 168 178 193
0.101861 -0.0405882 1.097 166 176 191
0.103659 -0.0406252 1.098 172 182 197
0.105364 -0.0406252 1.098 168 178 193
0.107069 -0.0406252 1.098 161 171 186
0.108774 -0.0406252 1.098 156 167 180
0.11048 -0.0406252 1.098 155 166 179
0.112185 -0.0406252 1.098 158 169 182
0.11389 -0.0406252 1.098 159 170 183
0.115595 -0.0406252 1.098 166 177 190
0.117301 -0.0406252 1.098 168 179 192
0.119006 -0.0406252 1.098 167 178 191
0.120711 -0.0406252 1.098 161 172 185
0.122528 -0.0406622 1.099 170 177 193
0.124348 -0.0406992 1.1 171 178 194
0.126056 -0.0406992 1.1 169 179 194
0.12788 -0.0407362 1.101 176 186 201
0.129826 -0.0408102 1.103 224 232 239
0.131539 -0.0408102 1.103 245 253 255
0.135454 -0.0409582 1.107 97 109 99
0.138784 -0.0414392 1.12 60 70 40
0.14228 -0.0419572 1.134 61 71 41
0.151077 -0.0429562 1.161 62 82 39
0.156815 -0.0435482 1.177 63 83 40
0.160395 -0.0440292 1.19 63 83 40
0.163061 -0.0442511 1.196 64 85 40
0.165057 -0.0442881 1.197 63 84 39
0.166916 -0.0442881 1.197 64 86 38
0.168775 -0.0442881 1.197 67 89 41
0.170634 -0.0442881 1.197 64 87 37
0.172492 -0.0442881 1.197 62 85 35
0.174206 -0.0442511 1.196 60 86 35
0.175916 -0.0442141 1.195 60 86 35
0.177623 -0.0441771 1.194 60 86 35
0.179327 -0.0441401 1.193 58 84 33
0.181028 -0.0441032 1.192 59 85 34
0.182879 -0.0441032 1.192 60 86 35
0.184421 -0.0440292 1.19 58 84 33
0.186269 -0.0440292 1.19 57 83 32
0.187959 -0.0439922 1.189 58 84 33
0.189646 -0.0439552 1.188 58 84 33
0.191329 -0.0439182 1.187 57 83 32
0.193173 -0.0439182 1.187 54 80 29
0.195016 -0.0439182 1.187 55 81 30
0.196694 -0.0438812 1.186 55 81 30
0.198536 -0.0438812 1.186 55 81 30
0.200378 -0.0438812 1.186 55 81 30
0.20222 -0.0438812 1.186 54 80 29
0.204062 -0.0438812 1.186 54 80 29
0.205903 -0.0438812 1.186 57 83 32
0.207745 -0.0438812 1.186 57 83 32
0.209764 -0.0439182 1.187 57 83 32
0.211607 -0.0439182 1.187 57 83 32
0.213631 -0.0439552 1.188 57 83 32
0.215657 -0.0439922 1.189 59 85 34
0.217687 -0.0440292 1.19 59 85 34
0.219535 -0.0440292 1.19 59 85 34
0.221755 -0.0441032 1.192 59 84 35
0.223606 -0.0441032 1.192 55 80 31
0.225457 -0.0441032 1.192 57 81 35
0.227499 -0.0441401 1.193 55 79 33
0.229544 -0.0441771 1.194 54 76 35
0.231399 -0.0441771 1.194 51 73 32
0.233253 -0.0441771 1.194 51 73 32
0.235107 -0.0441771 1.194 53 75 34
0.236763 -0.0441401 1.193 52 71 31
0.238416 -0.0441032 1.192 41 60 20
0.240267 -0.0441032 1.192 41 60 20
0.242118 -0.0441032 1.192 43 62 22
0.243969 -0.0441032 1.192 42 61 21
0.245821 -0.0441032 1.192 35 54 14
0.247464 -0.0440662 1.191 34 50 14
0.249523 -0.0441032 1.192 35 51 15
0.251374 -0.0441032 1.192 31 48 15
0.253226 -0.0441032 1.192 32 49 16
0.255291 -0.0441401 1.193 31 48 15
0.257359 -0.0441771 1.194 31 48 15
0.259213 -0.0441771 1.194 32 48 17
0.261286 -0.0442141 1.195 32 48 17
0.263142 -0.0442141 1.195 31 47 16
0.264998 -0.0442141 1.195 31 47 16
0.266854 -0.0442141 1.195 31 47 16
0.26871 -0.0442141 1.195 32 48 17
0.270566 -0.0442141 1.195 31 47 16
0.272422 -0.0442141 1.195 28 44 13
0.274277 -0.0442141 1.195 29 48 16
0.276133 -0.0442141 1.195 30 49 17
0.277989 -0.0442141 1.195 29 47 18
0.279611 -0.0441771 1.194 29 47 18
0.281465 -0.0441771 1.194 29 47 18
0.283082 -0.0441401 1.193 27 45 16
0.284696 -0.0441032 1.192 27 45 16
0.286547 -0.0441032 1.192 29 47 18
0.288399 -0.0441032 1.192 27 45 16
0.289763 -0.0440292 1.19 25 43 14
0.291611 -0.0440292 1.19 27 45 16
0.293459 -0.0440292 1.19 27 45 16
0.295307 -0.0440292 1.19 29 47 20
0.297155 -0.0440292 1.19 30 48 21
0.298752 -0.0439922 1.189 29 47 20
0.300346 -0.0439552 1.188 29 47 20
0.301937 -0.0439182 1.187 29 47 20
0.30378 -0.0439182 1.187 26 44 17
0.305366 -0.0438812 1.186 29 47 20
0.30669 -0.0438072 1.184 30 48 21
0.308268 -0.0437702 1.183 30 48 21
0.309843 -0.0437332 1.182 29 47 20
0.311679 -0.0437332 1.182 27 45 18
0.313514 -0.0437332 1.182 26 44 17
0.31535 -0.0437332 1.182 27 45 18
0.317186 -0.0437332 1.182 26 44 17
0.319022 -0.0437332 1.182 26 44 17
0.320857 -0.0437332 1.182 27 45 18
0.322693 -0.0437332 1.182 26 44 17
0.324529 -0.0437332 1.182 31 49 22
0.32664 -0.0437702 1.183 32 50 23
0.328478 -0.0437702 1.183 34 52 25
0.330594 -0.0438072 1.184 34 54 25
0.332714 -0.0438442 1.185 36 56 27
0.334554 -0.0438442 1.185 34 54 25
0.336394 -0.0438442 1.185 32 52 23
0.340362 -0.0438812 1.186 31 51 22
0.342204 -0.0438812 1.186 34 54 25
0.344046 -0.0438812 1.186 32 52 23
0.345596 -0.0438442 1.185 28 48 21
0.347436 -0.0438442 1.185 28 48 21
0.349277 -0.0438442 1.185 45 57 38
0.350821 -0.0438072 1.184 107 119 100
0.352362 -0.0437702 1.183 118 127 113
0.3539 -0.0437332 1.182 106 115 101
0.355133 -0.0436592 1.18 39 39 33
0.356966 -0.0436592 1.18 33 33 27
0.35819 -0.0435852 1.178 50 47 44
0.36002 -0.0435852 1.178 55 52 49
0.361235 -0.0435112 1.176 38 37 34
0.362135 -0.0434002 1.173 32 31 28
0.362405 -0.0432152 1.168 26 30 30
0.36266 -0.0430302 1.163 50 54 54
0.3629 -0.0428452 1.158 95 98 106
0.361549 -0.0424752 1.148 130 133 141
0.361749 -0.0422902 1.143 107 112 123
0.361934 -0.0421052 1.138 102 107 118
0.362742 -0.0419942 1.135 142 147 158
0.363542 -0.0418832 1.132 144 149 160
0.366591 -0.0420312 1.136 86 91 102
0.370625 -0.0422902 1.143 86 91 102
-0.15285 -0.0386698 1.091 151 165 194
-0.151156 -0.0386698 1.091 153 167 196
-0.149325 -0.0386344 1.09 148 162 191
-0.147632 -0.0386344 1.09 144 158 187
-0.145939 -0.0386344 1.09 143 157 186
-0.144246 -0.0386344 1.09 138 152 181
-0.142553 -0.0386344 1.09 140 152 181
-0.140861 -0.0386344 1.09 142 154 183
-0.139168 -0.0386344 1.09 147 159 188
-0.137475 -0.0386344 1.09 139 151 180
-0.135907 -0.0386698 1.091 133 146 172
-0.134212 -0.0386698 1.091 125 138 164
-0.132518 -0.0386698 1.091 135 148 174
-0.130824 -0.0386698 1.091 140 153 179
-0.129129 -0.0386698 1.091 136 151 177
-0.127318 -0.0386344 1.09 134 149 175
-0.125625 -0.0386344 1.09 133 148 174
-0.123819 -0.038599 1.089 131 146 172
-0.122128 -0.038599 1.089 131 146 172
-0.120436 -0.038599 1.089 132 147 173
-0.118636 -0.0385635 1.088 128 143 169
-0.116946 -0.0385635 1.088 125 140 166
-0.115257 -0.0385635 1.088 122 136 165
-0.113567 -0.0385635 1.088 121 135 164
-0.111877 -0.0385635 1.088 119 133 162
-0.110188 -0.0385635 1.088 116 130 159
-0.108498 -0.0385635 1.088 115 129 158
-0.106808 -0.0385635 1.088 111 125 154
-0.105215 -0.038599 1.089 110 124 153
-0.103524 -0.038599 1.089 109 123 152
-0.101833 -0.038599 1.089 109 123 152
-0.100141 -0.038599 1.089 108 122 151
-0.0984501 -0.038599 1.089 108 122 151
-0.0968477 -0.0386344 1.09 107 121 150
-0.0951549 -0.0386344 1.09 107 121 150
-0.0934621 -0.0386344 1.09 107 121 150
-0.0917693 -0.0386344 1.09 107 121 150
-0.0900765 -0.0386344 1.09 105 119 148
-0.0883837 -0.0386344 1.09 105 119 148
-0.0866909 -0.0386344 1.09 105 119 148
-0.0849201 -0.038599 1.089 111 125 154
-0.0833052 -0.0386344 1.09 108 122 151
-0.0816124 -0.0386344 1.09 107 124 152
-0.0799196 -0.0386344 1.09 113 130 158
-0.0782268 -0.0386344 1.09 120 137 165
-0.076534 -0.0386344 1.09 114 131 159
-0.0749099 -0.0386698 1.091 115 132 160
-0.0732155 -0.0386698 1.091 115 132 160
-0.0715212 -0.0386698 1.091 117 134 162
-0.0698268 -0.0386698 1.091 116 133 161
-0.0681324 -0.0386698 1.091 115 132 160
-0.0664381 -0.0386698 1.091 117 134 162
-0.0647437 -0.0386698 1.091 119 136 164
-0.0630494 -0.0386698 1.091 119 136 164
-0.0612425 -0.038599 1.089 119 136 164
-0.0595513 -0.038599 1.089 119 136 164
-0.05786 -0.038599 1.089 119 136 164
-0.0561688 -0.038599 1.089 120 137 165
-0.0544775 -0.038599 1.089 120 137 165
-0.0527378 -0.0385635 1.088 121 138 166
-0.0510481 -0.0385635 1.088 123 140 168
-0.0494037 -0.038599 1.089 122 139 167
-0.0477125 -0.038599 1.089 123 141 166
-0.0460212 -0.038599 1.089 123 141 166
-0.0443707 -0.0386344 1.09 124 142 167
-0.042717 -0.0386698 1.091 124 142 167
-0.0410227 -0.0386698 1.091 126 144 169
-0.0376684 -0.0387053 1.092 128 144 168
-0.0359725 -0.0387053 1.092 126 142 166
-0.0326105 -0.0387407 1.093 128 144 168
-0.0309131 -0.0387407 1.093 129 145 169
-0.0292156 -0.0387407 1.093 130 146 170
-0.0275433 -0.0387762 1.094 130 146 170
-0.0258207 -0.0387407 1.093 131 147 171
-0.0241011 -0.0387053 1.092 131 148 169
-0.0224052 -0.0387053 1.092 132 149 170
-0.0206903 -0.0386698 1.091 134 151 172
-0.0189786 -0.0386344 1.09 134 151 172
-0.0172699 -0.038599 1.089 134 151 172
-0.0155643 -0.0385635 1.088 133 150 171
-0.0138746 -0.0385635 1.088 134 149 170
-0.0121737 -0.0385281 1.087 134 149 170
-0.010476 -0.0384926 1.086 133 148 167
-0.00878936 -0.0384926 1.086 132 147 166
-0.00710276 -0.0384926 1.086 132 147 166
-0.00541617 -0.0384926 1.086 131 146 165
-0.00372957 -0.0384926 1.086 131 146 165
-0.00204486 -0.0385281 1.087 132 147 166
-0.000356712 -0.0385281 1.087 133 148 167
0.00133266 -0.0385635 1.088 131 146 165
0.00302236 -0.0385635 1.088 130 145 164
0.00471639 -0.038599 1.089 130 145 164
0.00640765 -0.038599 1.089 131 146 165
0.0080989 -0.038599 1.089 131 146 165
0.00979915 -0.0386344 1.09 131 146 165
0.011492 -0.0386344 1.09 130 145 164
0.0131969 -0.0386698 1.091 130 143 162
0.0148912 -0.0386698 1.091 132 145 164
0.0165856 -0.0386698 1.091 133 146 165
0.0182799 -0.0386698 1.091 130 143 162
0.0199926 -0.0387053 1.092 127 140 159
0.0216885 -0.0387053 1.092 127 140 159
0.0233844 -0.0387053 1.092 128 141 160
0.0251033 -0.0387407 1.093 126 139 158
0.0268253 -0.0387762 1.094 127 140 159
0.0285243 -0.0387762 1.094 128 141 160
0.030251 -0.0388116 1.095 128 141 162
0.0319515 -0.0388116 1.095 128 141 162
0.0336828 -0.0388471 1.096 128 141 162
0.0354173 -0.0388825 1.097 129 142 163
0.0371209 -0.0388825 1.097 130 143 164
0.0388246 -0.0388825 1.097 130 143 164
0.0405652 -0.038918 1.098 130 143 164
0.0422705 -0.038918 1.098 130 143 164
0.0439757 -0.038918 1.098 130 143 164
0.0456393 -0.0388825 1.097 129 142 163
0.0472998 -0.0388471 1.096 129 142 163
0.049002 -0.0388471 1.096 132 145 166
0.0506578 -0.0388116 1.095 130 143 164
0.0523584 -0.0388116 1.095 127 140 161
0.054059 -0.0388116 1.095 132 145 164
0.0557595 -0.0388116 1.095 155 168 187
0.0574076 -0.0387762 1.094 167 178 196
0.0591607 -0.0388116 1.095 167 178 196
0.0608613 -0.0388116 1.095 170 182 197
0.062619 -0.0388471 1.096 168 180 195
0.0642624 -0.0388116 1.095 168 178 193
0.0660232 -0.0388471 1.096 174 184 199
0.0676636 -0.0388116 1.095 176 186 201
0.0693641 -0.0388116 1.095 170 180 195
0.0710647 -0.0388116 1.095 172 179 195
0.0727653 -0.0388116 1.095 171 178 194
0.0743978 -0.0387762 1.094 171 178 194
0.0760969 -0.0387762 1.094 170 177 193
0.0777959 -0.0387762 1.094 170 177 193
0.0794949 -0.0387762 1.094 170 177 193
0.0811939 -0.0387762 1.094 169 179 194
0.0828929 -0.0387762 1.094 168 178 193
0.084592 -0.0387762 1.094 170 180 195
0.086291 -0.0387762 1.094 177 187 202
0.08799 -0.0387762 1.094 177 187 202
0.089771 -0.0388116 1.095 168 178 193
0.0914716 -0.0388116 1.095 168 178 193
0.0932572 -0.0388471 1.096 168 178 193
0.095046 -0.0388825 1.097 168 178 193
0.0967497 -0.0388825 1.097 168 178 193
0.0984534 -0.0388825 1.097 169 179 194
0.100248 -0.038918 1.098 170 180 195
0.101954 -0.038918 1.098 170 180 195
0.103659 -0.038918 1.098 173 183 198
0.105364 -0.038918 1.098 173 184 197
0.107069 -0.038918 1.098 168 179 192
0.108774 -0.038918 1.098 167 178 191
0.11058 -0.0389534 1.099 170 181 194
0.112287 -0.0389534 1.099 175 186 199
0.113994 -0.0389534 1.099 177 188 201
0.115701 -0.0389534 1.099 179 190 203
0.117407 -0.0389534 1.099 180 191 204
0.119006 -0.038918 1.098 180 191 204
0.120821 -0.0389534 1.099 179 190 203
0.122528 -0.0389534 1.099 175 182 198
0.124348 -0.0389888 1.1 178 185 201
0.126171 -0.0390243 1.101 175 183 197
0.127997 -0.0390597 1.102 182 190 204
0.129826 -0.0390952 1.103 236 244 251
0.131777 -0.0391661 1.105 244 252 255
0.135944 -0.0393787 1.111 95 105 93
0.13928 -0.0398395 1.124 57 71 40
0.142657 -0.0403003 1.137 59 73 42
0.151337 -0.0412218 1.163 63 83 40
0.157215 -0.0418244 1.18 63 83 40
0.160665 -0.0422497 1.192 63 83 40
0.163061 -0.0423915 1.196 63 84 39
0.164781 -0.0423561 1.195 64 85 40
0.166776 -0.0423915 1.196 64 86 38
0.168634 -0.0423915 1.196 67 89 41
0.170491 -0.0423915 1.196 66 89 39
0.172348 -0.0423915 1.196 63 86 36
0.17406 -0.0423561 1.195 62 85 35
0.175916 -0.0423561 1.195 61 84 34
0.177772 -0.0423561 1.195 59 85 34
0.179327 -0.0422852 1.193 58 84 33
0.181028 -0.0422497 1.192 58 84 33
0.182879 -0.0422497 1.192 60 86 35
0.184576 -0.0422143 1.191 59 85 34
0.186269 -0.0421788 1.19 58 84 33
0.188117 -0.0421788 1.19 59 85 34
0.189805 -0.0421434 1.189 65 91 40
0.191652 -0.0421434 1.189 58 84 33
0.193336 -0.042108 1.188 54 80 29
0.195016 -0.0420725 1.187 58 84 33
0.19686 -0.0420725 1.187 58 84 33
0.198536 -0.0420371 1.186 58 84 33
0.200378 -0.0420371 1.186 58 84 33
0.20222 -0.0420371 1.186 58 84 33
0.204062 -0.0420371 1.186 59 85 34
0.206077 -0.0420725 1.187 59 85 34
0.207745 -0.0420371 1.186 58 84 33
0.209764 -0.0420725 1.187 57 83 32
0.211607 -0.0420725 1.187 58 84 33
0.213631 -0.042108 1.188 58 84 33
0.215657 -0.0421434 1.189 59 85 34
0.217687 -0.0421788 1.19 58 83 34
0.219535 -0.0421788 1.19 59 84 35
0.221755 -0.0422497 1.192 60 85 36
0.223606 -0.0422497 1.192 58 83 34
0.225457 -0.0422497 1.192 57 81 35
0.227499 -0.0422852 1.193 55 79 33
0.229544 -0.0423206 1.194 55 77 36
0.231399 -0.0423206 1.194 48 70 29
0.233253 -0.0423206 1.194 50 72 31
0.235107 -0.0423206 1.194 50 72 31
0.236961 -0.0423206 1.194 50 69 29
0.238416 -0.0422497 1.192 46 65 25
0.240267 -0.0422497 1.192 45 64 24
0.242118 -0.0422497 1.192 42 61 21
0.243969 -0.0422497 1.192 40 59 19
0.245821 -0.0422497 1.192 38 57 17
0.247464 -0.0422143 1.191 37 53 17
0.249314 -0.0422143 1.191 35 51 15
0.251374 -0.0422497 1.192 30 45 12
0.253226 -0.0422497 1.192 31 46 13
0.255077 -0.0422497 1.192 29 46 13
0.257143 -0.0422852 1.193 31 48 15
0.258996 -0.0422852 1.193 32 48 17
0.260849 -0.0422852 1.193 31 47 16
0.262702 -0.0422852 1.193 29 45 14
0.264555 -0.0422852 1.193 29 45 14
0.266407 -0.0422852 1.193 28 44 13
0.26826 -0.0422852 1.193 29 45 14
0.270113 -0.0422852 1.193 31 46 18
0.272194 -0.0423206 1.194 31 46 18
0.273818 -0.0422852 1.193 30 48 19
0.275671 -0.0422852 1.193 29 47 18
0.277524 -0.0422852 1.193 29 47 18
0.279143 -0.0422497 1.192 29 47 18
0.280994 -0.0422497 1.192 30 48 19
0.282845 -0.0422497 1.192 29 47 18
0.284696 -0.0422497 1.192 27 45 16
0.286307 -0.0422143 1.191 29 47 18
0.288157 -0.0422143 1.191 26 44 15
0.289763 -0.0421788 1.19 27 45 16
0.291611 -0.0421788 1.19 29 47 18
0.293459 -0.0421788 1.19 29 47 18
0.295059 -0.0421434 1.189 27 45 18
0.296906 -0.0421434 1.189 29 47 20
0.29825 -0.0420725 1.187 27 45 18
0.300093 -0.0420725 1.187 27 45 18
0.301682 -0.0420371 1.186 29 47 20
0.303268 -0.0420016 1.185 27 45 18
0.304851 -0.0419662 1.184 29 47 20
0.306172 -0.0418953 1.182 29 47 20
0.308007 -0.0418953 1.182 29 47 20
0.309581 -0.0418598 1.181 29 47 20
0.311151 -0.0418244 1.18 27 45 18
0.312984 -0.0418244 1.18 27 45 18
0.314817 -0.0418244 1.18 27 45 18
0.316649 -0.0418244 1.18 27 45 18
0.318482 -0.0418244 1.18 26 44 17
0.320586 -0.0418598 1.181 22 40 13
0.32242 -0.0418598 1.181 24 42 15
0.324529 -0.0418953 1.182 31 49 22
0.326364 -0.0418953 1.182 31 49 20
0.328478 -0.0419307 1.183 33 51 22
0.330315 -0.0419307 1.183 34 54 25
0.332433 -0.0419662 1.184 36 56 27
0.334554 -0.0420016 1.185 35 55 26
0.336394 -0.0420016 1.185 32 52 23
0.338235 -0.0420016 1.185 34 54 25
0.342204 -0.0420371 1.186 45 65 36
0.344046 -0.0420371 1.186 42 62 33
0.345596 -0.0420016 1.185 30 50 23
0.347436 -0.0420016 1.185 28 48 21
0.349277 -0.0420016 1.185 45 60 40
0.350821 -0.0419662 1.184 94 109 89
0.352064 -0.0418953 1.182 104 115 99
0.3539 -0.0418953 1.182 92 103 87
0.355133 -0.0418244 1.18 43 46 38
0.356966 -0.0418244 1.18 27 30 22
0.35819 -0.0417535 1.178 31 31 25
0.36002 -0.0417535 1.178 34 34 28
0.361235 -0.0416826 1.176 33 34 31
0.362135 -0.0415763 1.173 29 30 27
0.362716 -0.0414345 1.169 24 27 30
0.362972 -0.0412573 1.164 61 64 67
0.3629 -0.0410446 1.158 90 93 101
0.361549 -0.0406902 1.148 133 136 144
0.362065 -0.0405484 1.144 130 137 148
0.361934 -0.0403357 1.138 140 147 158
0.362423 -0.040194 1.134 150 157 168
0.363542 -0.0401231 1.132 142 149 160
0.366913 -0.0403003 1.137 81 88 99
0.370625 -0.040513 1.143 85 92 103
-0.15285 -0.0369735 1.091 150 163 189
-0.151018 -0.0369396 1.09 148 161 187
-0.149188 -0.0369057 1.089 140 153 179
-0.147496 -0.0369057 1.089 138 151 177
-0.145805 -0.0369057 1.089 139 151 180
-0.144114 -0.0369057 1.089 140 152 181
-0.142423 -0.0369057 1.089 140 152 181
-0.140731 -0.0369057 1.089 142 154 183
-0.139168 -0.0369396 1.09 139 151 180
-0.137349 -0.0369057 1.089 131 143 172
-0.135782 -0.0369396 1.09 128 141 167
-0.134212 -0.0369735 1.091 121 134 160
-0.132518 -0.0369735 1.091 134 147 173
-0.130824 -0.0369735 1.091 140 153 179
-0.129129 -0.0369735 1.091 138 151 177
-0.127318 -0.0369396 1.09 132 145 171
-0.12551 -0.0369057 1.089 127 140 166
-0.123819 -0.0369057 1.089 120 133 159
-0.122128 -0.0369057 1.089 116 129 155
-0.120326 -0.0368718 1.088 113 126 152
-0.118636 -0.0368718 1.088 113 125 154
-0.116839 -0.0368379 1.087 112 124 153
-0.115151 -0.0368379 1.087 113 125 154
-0.113463 -0.0368379 1.087 113 125 154
-0.111774 -0.0368379 1.087 113 125 154
-0.110086 -0.0368379 1.087 112 124 153
-0.108498 -0.0368718 1.088 110 124 153
-0.106808 -0.0368718 1.088 110 124 153
-0.105119 -0.0368718 1.088 109 123 152
-0.103429 -0.0368718 1.088 108 122 151
-0.101833 -0.0369057 1.089 112 126 155
-0.100141 -0.0369057 1.089 111 125 154
-0.0984501 -0.0369057 1.089 111 125 154
-0.0967589 -0.0369057 1.089 111 125 154
-0.0950676 -0.0369057 1.089 111 125 154
-0.0933763 -0.0369057 1.089 111 125 154
-0.0917693 -0.0369396 1.09 111 125 154
-0.0900765 -0.0369396 1.09 111 125 154
-0.0883026 -0.0369057 1.089 110 124 153
-0.0866113 -0.0369057 1.089 105 119 148
-0.0849981 -0.0369396 1.09 105 119 148
-0.0833052 -0.0369396 1.09 110 124 153
-0.0815376 -0.0369057 1.089 110 124 153
-0.0799196 -0.0369396 1.09 105 119 148
-0.0782268 -0.0369396 1.09 107 124 152
-0.076534 -0.0369396 1.09 113 130 158
-0.0749099 -0.0369735 1.091 113 130 158
-0.0732155 -0.0369735 1.091 112 129 157
-0.0715212 -0.0369735 1.091 112 129 157
-0.0698268 -0.0369735 1.091 113 130 158
-0.0681324 -0.0369735 1.091 113 130 158
-0.0664381 -0.0369735 1.091 117 134 162
-0.0647437 -0.0369735 1.091 117 134 162
-0.0630494 -0.0369735 1.091 116 133 161
-0.0612988 -0.0369396 1.09 117 134 162
-0.0595513 -0.0369057 1.089 116 133 161
-0.05786 -0.0369057 1.089 117 134 162
-0.0561688 -0.0369057 1.089 119 136 164
-0.0544775 -0.0369057 1.089 120 137 165
-0.0527862 -0.0369057 1.089 120 137 165
-0.051095 -0.0369057 1.089 121 139 164
-0.0494037 -0.0369057 1.089 121 139 164
-0.0477125 -0.0369057 1.089 122 140 165
-0.0460635 -0.0369396 1.09 123 141 166
-0.0444114 -0.0369735 1.091 123 141 166
-0.042717 -0.0369735 1.091 123 141 166
-0.0393644 -0.0370074 1.092 125 141 165
-0.0376684 -0.0370074 1.092 126 142 166
-0.0359725 -0.0370074 1.092 126 142 166
-0.034308 -0.0370413 1.093 128 142 166
-0.0326105 -0.0370413 1.093 128 142 166
-0.0309414 -0.0370751 1.094 130 144 168
-0.0292423 -0.0370751 1.094 131 145 169
-0.0275433 -0.0370751 1.094 132 146 170
-0.0258207 -0.0370413 1.093 133 147 171
-0.0241011 -0.0370074 1.092 136 151 172
-0.0224052 -0.0370074 1.092 135 150 171
-0.0206903 -0.0369735 1.091 134 149 170
-0.0189786 -0.0369396 1.09 135 150 171
-0.0172699 -0.0369057 1.089 136 151 172
-0.0155643 -0.0368718 1.088 133 148 169
-0.0138746 -0.0368718 1.088 132 147 168
-0.0121737 -0.0368379 1.087 132 147 168
-0.010476 -0.036804 1.086 131 146 167
-0.00878936 -0.036804 1.086 131 146 167
-0.00710276 -0.036804 1.086 131 146 167
-0.00541617 -0.036804 1.086 130 145 166
-0.00372957 -0.036804 1.086 130 145 166
-0.00204298 -0.036804 1.086 130 145 166
-0.000356712 -0.0368379 1.087 130 145 166
0.00133266 -0.0368718 1.088 130 145 166
0.00302236 -0.0368718 1.088 130 145 166
0.00471206 -0.0368718 1.088 130 145 166
0.00640765 -0.0369057 1.089 131 146 167
0.0080989 -0.0369057 1.089 131 146 167
0.00979915 -0.0369396 1.09 131 146 167
0.011492 -0.0369396 1.09 128 143 164
0.0131969 -0.0369735 1.091 128 143 164
0.0148912 -0.0369735 1.091 130 145 166
0.0165856 -0.0369735 1.091 133 146 167
0.0182799 -0.0369735 1.091 125 138 159
0.0199926 -0.0370074 1.092 127 140 161
0.0216885 -0.0370074 1.092 126 139 160
0.0234058 -0.0370413 1.093 127 140 161
0.0251033 -0.0370413 1.093 126 139 160
0.0268253 -0.0370751 1.094 127 140 161
0.0285243 -0.0370751 1.094 128 141 162
0.030251 -0.037109 1.095 128 141 162
0.0319515 -0.037109 1.095 128 141 162
0.0336828 -0.0371429 1.096 128 141 162
0.0354173 -0.0371768 1.097 127 140 161
0.0371209 -0.0371768 1.097 129 142 163
0.0388246 -0.0371768 1.097 130 143 164
0.0405652 -0.0372107 1.098 130 143 164
0.0422705 -0.0372107 1.098 130 143 164
0.0439757 -0.0372107 1.098 129 142 163
0.0456393 -0.0371768 1.097 129 142 163
0.0472998 -0.0371429 1.096 125 138 159
0.0489573 -0.037109 1.095 127 140 161
0.0506578 -0.037109 1.095 132 142 164
0.0523106 -0.0370751 1.094 137 147 169
0.0540096 -0.0370751 1.094 154 164 184
0.0557086 -0.0370751 1.094 166 176 196
0.0573552 -0.0370413 1.093 168 177 195
0.0590526 -0.0370413 1.093 168 177 195
0.0608057 -0.0370751 1.094 169 179 194
0.0625047 -0.0370751 1.094 173 183 198
0.0642037 -0.0370751 1.094 176 183 199
0.065963 -0.037109 1.095 177 184 200
0.0676636 -0.037109 1.095 176 183 199
0.0693641 -0.037109 1.095 171 178 194
0.0709998 -0.0370751 1.094 169 176 192
0.0726988 -0.0370751 1.094 169 176 192
0.0743978 -0.0370751 1.094 169 176 192
0.0760969 -0.0370751 1.094 170 177 193
0.0777959 -0.0370751 1.094 170 177 193
0.0794949 -0.0370751 1.094 170 177 193
0.0811939 -0.0370751 1.094 168 178 193
0.0828929 -0.0370751 1.094 169 179 194
0.084592 -0.0370751 1.094 173 183 198
0.0863699 -0.037109 1.095 179 189 204
0.0880704 -0.037109 1.095 177 187 202
0.089771 -0.037109 1.095 168 178 193
0.0915551 -0.0371429 1.096 168 178 193
0.0933423 -0.0371768 1.097 168 178 193
0.095046 -0.0371768 1.097 168 178 193
0.0967497 -0.0371768 1.097 168 178 193
0.0985431 -0.0372107 1.098 169 179 194
0.100248 -0.0372107 1.098 169 179 194
0.101954 -0.0372107 1.098 169 179 194
0.103659 -0.0372107 1.098 170 180 195
0.10546 -0.0372446 1.099 170 181 194
0.107167 -0.0372446 1.099 170 181 194
0.108874 -0.0372446 1.099 175 186 199
0.11058 -0.0372446 1.099 175 186 199
0.112287 -0.0372446 1.099 177 188 201
0.113994 -0.0372446 1.099 177 188 201
0.115701 -0.0372446 1.099 176 187 200
0.117407 -0.0372446 1.099 175 186 199
0.119114 -0.0372446 1.099 177 185 199
0.120821 -0.0372446 1.099 177 185 199
0.122639 -0.0372785 1.1 177 183 197
0.124461 -0.0373124 1.101 177 183 197
0.126171 -0.0373124 1.101 176 185 196
0.128113 -0.0373801 1.103 190 199 210
0.129943 -0.037414 1.104 244 254 255
0.131897 -0.0374818 1.106 244 254 255
0.136311 -0.0377529 1.114 85 95 83
0.139652 -0.0381935 1.127 55 69 38
0.151598 -0.0394813 1.165 63 83 40
0.157481 -0.0400574 1.182 64 87 43
0.160665 -0.0403963 1.192 65 88 44
0.162925 -0.040498 1.195 64 88 42
0.164781 -0.040498 1.195 64 88 42
0.166776 -0.0405319 1.196 62 87 38
0.168634 -0.0405319 1.196 65 90 41
0.170491 -0.0405319 1.196 64 90 39
0.172204 -0.040498 1.195 64 90 39
0.17406 -0.040498 1.195 61 87 36
0.175916 -0.040498 1.195 57 83 32
0.177623 -0.0404641 1.194 58 84 33
0.179327 -0.0404302 1.193 57 83 32
0.181028 -0.0403963 1.192 58 84 33
0.182879 -0.0403963 1.192 60 86 35
0.184576 -0.0403624 1.191 59 85 34
0.186269 -0.0403285 1.19 60 86 35
0.187959 -0.0402946 1.189 60 86 35
0.189965 -0.0403285 1.19 67 93 42
0.191652 -0.0402946 1.189 58 84 33
0.193498 -0.0402946 1.189 54 80 29
0.195181 -0.0402608 1.188 55 81 30
0.19686 -0.0402269 1.187 57 83 32
0.198703 -0.0402269 1.187 57 83 32
0.200547 -0.0402269 1.187 57 83 32
0.20239 -0.0402269 1.187 58 84 33
0.204234 -0.0402269 1.187 59 85 34
0.206077 -0.0402269 1.187 60 86 35
0.20792 -0.0402269 1.187 60 86 35
0.209764 -0.0402269 1.187 58 84 33
0.211607 -0.0402269 1.187 58 84 33
0.213631 -0.0402608 1.188 58 84 33
0.215657 -0.0402946 1.189 60 86 35
0.217687 -0.0403285 1.19 59 84 35
0.219535 -0.0403285 1.19 58 83 34
0.221755 -0.0403963 1.192 59 84 35
0.223606 -0.0403963 1.192 59 84 35
0.225457 -0.0403963 1.192 58 82 36
0.227499 -0.0404302 1.193 57 81 35
0.229544 -0.0404641 1.194 54 76 35
0.231399 -0.0404641 1.194 46 68 27
0.233253 -0.0404641 1.194 51 73 32
0.235107 -0.0404641 1.194 51 73 32
0.236763 -0.0404302 1.193 45 67 26
0.238416 -0.0403963 1.192 43 65 24
0.240267 -0.0403963 1.192 43 65 24
0.242118 -0.0403963 1.192 39 61 20
0.243969 -0.0403963 1.192 43 62 22
0.245614 -0.0403624 1.191 41 60 20
0.247464 -0.0403624 1.191 36 55 17
0.249314 -0.0403624 1.191 33 52 14
0.251163 -0.0403624 1.191 28 44 8
0.253226 -0.0403963 1.192 30 46 10
0.255077 -0.0403963 1.192 29 45 14
0.256928 -0.0403963 1.192 31 47 16
0.258779 -0.0403963 1.192 31 47 16
0.26063 -0.0403963 1.192 29 45 14
0.262482 -0.0403963 1.192 31 47 16
0.264333 -0.0403963 1.192 31 47 16
0.266184 -0.0403963 1.192 29 45 14
0.268035 -0.0403963 1.192 28 44 13
0.269886 -0.0403963 1.192 29 45 14
0.271738 -0.0403963 1.192 29 45 14
0.273589 -0.0403963 1.192 31 46 18
0.27544 -0.0403963 1.192 29 44 16
0.277059 -0.0403624 1.191 27 45 16
0.278908 -0.0403624 1.191 29 47 18
0.280758 -0.0403624 1.191 29 47 18
0.28237 -0.0403285 1.19 27 45 16
0.284219 -0.0403285 1.19 27 45 16
0.286067 -0.0403285 1.19 30 48 19
0.287673 -0.0402946 1.189 29 47 18
0.289519 -0.0402946 1.189 30 48 19
0.291121 -0.0402608 1.188 30 48 21
0.292719 -0.0402269 1.187 30 48 21
0.294811 -0.0402608 1.188 29 47 20
0.296406 -0.0402269 1.187 30 48 21
0.29825 -0.0402269 1.187 27 45 18
0.29984 -0.040193 1.186 26 44 17
0.301428 -0.0401591 1.185 26 44 17
0.303268 -0.0401591 1.185 25 43 16
0.304336 -0.0400574 1.182 27 45 18
0.305913 -0.0400235 1.181 26 44 17
0.307486 -0.0399896 1.18 27 45 18
0.309319 -0.0399896 1.18 26 44 17
0.310888 -0.0399558 1.179 27 45 18
0.312454 -0.0399219 1.178 27 45 18
0.31455 -0.0399558 1.179 29 47 20
0.316381 -0.0399558 1.179 29 47 20
0.318482 -0.0399896 1.18 29 47 20
0.320314 -0.0399896 1.18 30 48 21
0.32242 -0.0400235 1.181 31 49 22
0.324254 -0.0400235 1.181 32 50 23
0.326364 -0.0400574 1.182 32 50 23
0.3282 -0.0400574 1.182 31 49 22
0.330036 -0.0400574 1.182 32 52 23
0.332152 -0.0400913 1.183 41 61 32
0.334554 -0.0401591 1.185 35 55 26
0.336394 -0.0401591 1.185 32 52 23
0.338235 -0.0401591 1.185 34 54 25
0.340075 -0.0401591 1.185 31 51 22
0.341915 -0.0401591 1.185 46 66 37
0.343756 -0.0401591 1.185 46 66 37
0.345596 -0.0401591 1.185 28 48 19
0.347436 -0.0401591 1.185 28 48 19
0.348982 -0.0401252 1.184 43 56 35
0.350524 -0.0400913 1.183 75 88 67
0.352064 -0.0400574 1.182 94 103 87
0.3536 -0.0400235 1.181 97 106 90
0.355133 -0.0399896 1.18 73 76 68
0.356966 -0.0399896 1.18 27 30 22
0.35819 -0.0399219 1.178 32 31 28
0.36002 -0.0399219 1.178 42 41 38
0.361235 -0.0398541 1.176 32 31 28
0.362444 -0.0397863 1.174 28 27 24
0.362716 -0.0396169 1.169 28 32 32
0.362972 -0.0394474 1.164 71 75 75
0.3629 -0.0392441 1.158 93 99 106
0.361863 -0.0389391 1.149 133 139 146
0.362065 -0.0387696 1.144 138 143 154
0.362252 -0.0386002 1.139 148 153 164
0.362423 -0.0384307 1.134 151 156 167
0.363542 -0.0383629 1.132 144 149 160
0.366913 -0.0385324 1.137 83 88 99
0.370949 -0.0387696 1.144 86 91 102
-0.15285 -0.0352771 1.091 148 162 186
-0.151018 -0.0352448 1.09 145 159 183
-0.149188 -0.0352124 1.089 136 150 174
-0.147496 -0.0352124 1.089 135 149 173
-0.145805 -0.0352124 1.089 134 147 173
-0.144114 -0.0352124 1.089 139 152 178
-0.142423 -0.0352124 1.089 139 152 178
-0.140731 -0.0352124 1.089 134 147 173
-0.13904 -0.0352124 1.089 128 141 167
-0.137349 -0.0352124 1.089 130 143 169
-0.135782 -0.0352448 1.09 126 139 165
-0.134212 -0.0352771 1.091 128 141 167
-0.132518 -0.0352771 1.091 132 145 171
-0.130824 -0.0352771 1.091 131 144 170
-0.129011 -0.0352448 1.09 119 132 158
-0.127201 -0.0352124 1.089 117 130 156
-0.12551 -0.0352124 1.089 118 131 157
-0.123819 -0.0352124 1.089 117 130 156
-0.122016 -0.0351801 1.088 112 125 151
-0.120326 -0.0351801 1.088 112 125 151
-0.118527 -0.0351478 1.087 112 124 153
-0.116839 -0.0351478 1.087 114 126 155
-0.115045 -0.0351154 1.086 120 132 161
-0.113358 -0.0351154 1.086 121 133 162
-0.111774 -0.0351478 1.087 120 132 161
-0.110086 -0.0351478 1.087 119 131 160
-0.108498 -0.0351801 1.088 120 132 161
-0.106808 -0.0351801 1.088 118 130 159
-0.105119 -0.0351801 1.088 116 128 157
-0.103429 -0.0351801 1.088 116 128 157
-0.101833 -0.0352124 1.089 114 128 157
-0.100141 -0.0352124 1.089 114 128 157
-0.0984501 -0.0352124 1.089 115 129 158
-0.0967589 -0.0352124 1.089 114 128 157
-0.0951549 -0.0352448 1.09 114 128 157
-0.0934621 -0.0352448 1.09 112 126 155
-0.0917693 -0.0352448 1.09 112 126 155
-0.0900765 -0.0352448 1.09 112 126 155
-0.0883837 -0.0352448 1.09 114 128 157
-0.0866909 -0.0352448 1.09 117 131 160
-0.0849981 -0.0352448 1.09 118 132 161
-0.0833052 -0.0352448 1.09 115 129 158
-0.0816124 -0.0352448 1.09 110 127 155
-0.0799196 -0.0352448 1.09 106 123 151
-0.0782268 -0.0352448 1.09 106 123 151
-0.076534 -0.0352448 1.09 112 129 157
-0.0749099 -0.0352771 1.091 112 129 157
-0.0732155 -0.0352771 1.091 112 129 157
-0.0715212 -0.0352771 1.091 113 130 158
-0.0698268 -0.0352771 1.091 113 130 158
-0.0681324 -0.0352771 1.091 113 130 158
-0.0664381 -0.0352771 1.091 113 130 158
-0.0647437 -0.0352771 1.091 114 131 159
-0.0630494 -0.0352771 1.091 115 132 160
-0.061355 -0.0352771 1.091 116 133 161
-0.0596059 -0.0352448 1.09 116 133 161
-0.0579131 -0.0352448 1.09 117 134 162
-0.0562203 -0.0352448 1.09 117 134 162
-0.0544775 -0.0352124 1.089 119 136 164
-0.0528347 -0.0352448 1.09 120 137 165
-0.0511419 -0.0352448 1.09 123 138 164
-0.0494491 -0.0352448 1.09 122 137 163
-0.0477563 -0.0352448 1.09 123 138 164
-0.0461057 -0.0352771 1.091 124 139 165
-0.0444114 -0.0352771 1.091 124 139 165
-0.0410603 -0.0353094 1.092 124 140 164
-0.0393644 -0.0353094 1.092 125 141 165
-0.0376684 -0.0353094 1.092 126 142 166
-0.0360055 -0.0353418 1.093 126 142 166
-0.0343394 -0.0353741 1.094 128 142 166
-0.0326404 -0.0353741 1.094 128 142 166
-0.0309414 -0.0353741 1.094 130 144 168
-0.0292423 -0.0353741 1.094 130 144 168
-0.0275433 -0.0353741 1.094 130 144 168
-0.0258207 -0.0353418 1.093 131 145 169
-0.0241232 -0.0353418 1.093 128 143 164
-0.0224052 -0.0353094 1.092 125 140 161
-0.0206903 -0.0352771 1.091 121 136 157
-0.0189786 -0.0352448 1.09 127 142 163
-0.0172699 -0.0352124 1.089 130 145 166
-0.0155787 -0.0352124 1.089 126 141 162
-0.0138746 -0.0351801 1.088 125 140 161
-0.0121737 -0.0351478 1.087 127 142 163
-0.010476 -0.0351154 1.086 130 145 166
-0.00878936 -0.0351154 1.086 131 146 167
-0.00710276 -0.0351154 1.086 128 143 164
-0.00541617 -0.0351154 1.086 130 145 166
-0.00372957 -0.0351154 1.086 131 146 167
-0.00204486 -0.0351478 1.087 130 145 166
-0.000356712 -0.0351478 1.087 130 145 166
0.00133266 -0.0351801 1.088 130 145 166
0.00302236 -0.0351801 1.088 130 145 166
0.00471206 -0.0351801 1.088 130 145 166
0.00640765 -0.0352124 1.089 130 145 166
0.0080989 -0.0352124 1.089 130 145 166
0.00979915 -0.0352448 1.09 130 145 166
0.011492 -0.0352448 1.09 130 145 166
0.0131969 -0.0352771 1.091 128 143 164
0.0148912 -0.0352771 1.091 130 145 166
0.0165856 -0.0352771 1.091 128 143 164
0.0182799 -0.0352771 1.091 126 141 162
0.0199926 -0.0353094 1.092 126 141 162
0.0216885 -0.0353094 1.092 125 140 161
0.0233844 -0.0353094 1.092 126 141 162
0.0251033 -0.0353418 1.093 125 140 161
0.0268008 -0.0353418 1.093 126 141 162
0.0285243 -0.0353741 1.094 126 141 162
0.0302233 -0.0353741 1.094 125 140 161
0.0319515 -0.0354064 1.095 125 140 161
0.0336521 -0.0354064 1.095 125 140 161
0.035385 -0.0354388 1.096 125 140 161
0.0371209 -0.0354711 1.097 127 142 163
0.0388246 -0.0354711 1.097 128 143 164
0.0405652 -0.0355034 1.098 125 140 161
0.0422705 -0.0355034 1.098 127 142 163
0.0439356 -0.0354711 1.097 127 142 163
0.0456393 -0.0354711 1.097 126 141 162
0.0472567 -0.0354064 1.095 127 140 161
0.0489573 -0.0354064 1.095 129 142 163
0.0506116 -0.0353741 1.094 132 145 164
0.0522628 -0.0353418 1.093 141 154 173
0.0539109 -0.0353094 1.092 161 172 190
0.0556068 -0.0353094 1.092 163 174 192
0.0573027 -0.0353094 1.092 165 177 192
0.0589446 -0.0352771 1.091 159 171 186
0.0606945 -0.0353094 1.092 159 169 184
0.0623904 -0.0353094 1.092 166 176 191
0.064145 -0.0353418 1.093 162 172 187
0.0658425 -0.0353418 1.093 160 170 185
0.06754 -0.0353418 1.093 161 168 184
0.0693008 -0.0353741 1.094 163 170 186
0.0709998 -0.0353741 1.094 165 172 188
0.0726988 -0.0353741 1.094 165 172 188
0.0743978 -0.0353741 1.094 165 172 188
0.0760969 -0.0353741 1.094 168 175 191
0.0777959 -0.0353741 1.094 169 176 192
0.0794949 -0.0353741 1.094 169 176 192
0.0811939 -0.0353741 1.094 169 176 192
0.0828929 -0.0353741 1.094 176 183 199
0.084592 -0.0353741 1.094 176 186 201
0.0863699 -0.0354064 1.095 176 186 201
0.0880704 -0.0354064 1.095 176 186 201
0.089853 -0.0354388 1.096 173 183 198
0.0915551 -0.0354388 1.096 168 178 193
0.0933423 -0.0354711 1.097 168 178 193
0.095046 -0.0354711 1.097 168 178 193
0.0968379 -0.0355034 1.098 168 178 193
0.0985431 -0.0355034 1.098 169 179 194
0.100248 -0.0355034 1.098 169 179 194
0.101954 -0.0355034 1.098 169 180 193
0.103753 -0.0355358 1.099 168 179 192
0.10546 -0.0355358 1.099 167 178 191
0.107167 -0.0355358 1.099 170 181 194
0.108874 -0.0355358 1.099 173 185 195
0.110681 -0.0355681 1.1 177 189 199
0.112389 -0.0355681 1.1 177 189 199
0.114098 -0.0355681 1.1 173 185 195
0.115806 -0.0355681 1.1 163 175 185
0.117407 -0.0355358 1.099 159 171 181
0.119114 -0.0355358 1.099 155 166 179
0.120931 -0.0355681 1.1 160 171 184
0.122639 -0.0355681 1.1 163 171 185
0.124461 -0.0356004 1.101 169 177 191
0.126171 -0.0356004 1.101 175 184 195
0.128113 -0.0356651 1.103 197 206 217
0.129943 -0.0356975 1.104 244 254 255
0.133856 -0.0358268 1.108 220 230 218
0.136678 -0.0361178 1.117 81 91 79
0.1399 -0.0365058 1.129 51 65 34
0.151858 -0.0377345 1.167 65 88 44
0.157348 -0.0381872 1.181 66 89 45
0.160665 -0.0385429 1.192 65 88 44
0.162789 -0.0386076 1.194 64 88 42
0.164781 -0.0386399 1.195 64 88 42
0.166637 -0.0386399 1.195 62 87 38
0.168493 -0.0386399 1.195 65 90 41
0.170348 -0.0386399 1.195 64 89 40
0.172204 -0.0386399 1.195 64 89 40
0.173915 -0.0386076 1.194 61 86 37
0.175769 -0.0386076 1.194 57 82 33
0.177474 -0.0385752 1.193 60 86 35
0.179327 -0.0385752 1.193 58 84 33
0.181028 -0.0385429 1.192 60 86 35
0.182879 -0.0385429 1.192 59 85 34
0.184576 -0.0385106 1.191 58 84 33
0.186269 -0.0384782 1.19 59 85 34
0.188117 -0.0384782 1.19 61 87 36
0.189965 -0.0384782 1.19 60 86 35
0.191813 -0.0384782 1.19 58 84 33
0.193498 -0.0384459 1.189 58 84 33
0.195345 -0.0384459 1.189 58 84 33
0.197026 -0.0384136 1.188 58 84 33
0.198703 -0.0383812 1.187 57 82 33
0.200547 -0.0383812 1.187 57 82 33
0.20239 -0.0383812 1.187 58 83 34
0.204234 -0.0383812 1.187 58 83 34
0.206077 -0.0383812 1.187 58 83 34
0.20792 -0.0383812 1.187 60 85 36
0.209764 -0.0383812 1.187 59 84 35
0.211607 -0.0383812 1.187 59 84 35
0.213631 -0.0384136 1.188 57 82 33
0.215657 -0.0384459 1.189 59 84 35
0.217687 -0.0384782 1.19 60 85 36
0.219535 -0.0384782 1.19 59 84 35
0.221569 -0.0385106 1.191 59 83 37
0.223606 -0.0385429 1.192 60 84 38
0.225457 -0.0385429 1.192 57 80 36
0.227499 -0.0385752 1.193 55 78 34
0.229544 -0.0386076 1.194 54 76 35
0.231399 -0.0386076 1.194 53 75 34
0.233448 -0.0386399 1.195 60 82 41
0.235107 -0.0386076 1.194 51 73 32
0.236763 -0.0385752 1.193 41 63 22
0.238616 -0.0385752 1.193 45 67 26
0.240267 -0.0385429 1.192 43 65 24
0.242118 -0.0385429 1.192 40 62 21
0.243969 -0.0385429 1.192 48 65 27
0.245614 -0.0385106 1.191 40 57 19
0.247256 -0.0384782 1.19 37 54 16
0.249104 -0.0384782 1.19 35 52 14
0.250953 -0.0384782 1.19 33 49 13
0.253013 -0.0385106 1.191 33 49 13
0.254863 -0.0385106 1.191 33 48 15
0.256497 -0.0384782 1.19 33 48 15
0.258345 -0.0384782 1.19 31 47 16
0.260193 -0.0384782 1.19 31 47 16
0.262041 -0.0384782 1.19 32 48 17
0.263889 -0.0384782 1.19 32 48 17
0.265737 -0.0384782 1.19 32 48 17
0.267586 -0.0384782 1.19 32 48 17
0.269434 -0.0384782 1.19 32 48 17
0.271282 -0.0384782 1.19 31 47 16
0.27313 -0.0384782 1.19 31 46 18
0.274978 -0.0384782 1.19 29 44 16
0.276826 -0.0384782 1.19 26 44 15
0.27844 -0.0384459 1.189 27 45 16
0.280051 -0.0384136 1.188 27 45 16
0.281896 -0.0384136 1.188 27 45 16
0.283741 -0.0384136 1.188 26 44 15
0.285345 -0.0383812 1.187 29 47 18
0.287189 -0.0383812 1.187 29 47 18
0.289032 -0.0383812 1.187 29 47 18
0.290631 -0.0383489 1.186 29 47 20
0.292473 -0.0383489 1.186 30 48 21
0.294066 -0.0383166 1.185 30 48 21
0.295907 -0.0383166 1.185 29 47 20
0.297747 -0.0383166 1.185 26 44 17
0.299587 -0.0383166 1.185 27 45 18
0.301173 -0.0382842 1.184 26 44 17
0.3025 -0.0382196 1.182 27 45 18
0.304336 -0.0382196 1.182 27 45 18
0.305654 -0.0381549 1.18 26 44 17
0.307226 -0.0381225 1.179 27 45 18
0.309057 -0.0381225 1.179 27 45 18
0.310624 -0.0380902 1.178 26 44 17
0.312454 -0.0380902 1.178 29 47 20
0.314283 -0.0380902 1.178 29 47 20
0.316112 -0.0380902 1.178 29 47 20
0.318212 -0.0381225 1.179 31 49 22
0.320314 -0.0381549 1.18 32 50 23
0.322147 -0.0381549 1.18 32 50 23
0.323979 -0.0381549 1.18 32 50 23
0.326088 -0.0381872 1.181 32 50 21
0.3282 -0.0382196 1.182 32 50 21
0.330036 -0.0382196 1.182 30 50 21
0.332152 -0.0382519 1.183 35 55 26
0.334272 -0.0382842 1.184 34 54 25
0.336394 -0.0383166 1.185 32 52 23
0.338235 -0.0383166 1.185 34 54 25
0.340075 -0.0383166 1.185 29 49 20
0.341915 -0.0383166 1.185 44 64 35
0.343756 -0.0383166 1.185 43 63 34
0.345596 -0.0383166 1.185 25 45 16
0.347436 -0.0383166 1.185 30 50 21
0.348982 -0.0382842 1.184 65 81 59
0.350524 -0.0382519 1.183 52 68 46
0.352064 -0.0382196 1.182 61 73 54
0.3539 -0.0382196 1.182 92 104 85
0.355133 -0.0381549 1.18 86 91 78
0.356966 -0.0381549 1.18 31 36 23
0.358494 -0.0381225 1.179 29 31 25
0.36002 -0.0380902 1.178 48 50 44
0.361542 -0.0380579 1.177 29 31 25
0.362753 -0.0379932 1.175 29 31 25
0.363026 -0.0378315 1.17 57 61 61
0.362972 -0.0376375 1.164 78 82 82
0.363213 -0.0374759 1.159 102 108 115
0.361863 -0.0371525 1.149 132 138 145
0.362065 -0.0369908 1.144 130 137 146
0.362252 -0.0368292 1.139 142 149 158
0.362423 -0.0366675 1.134 150 157 168
0.363542 -0.0366028 1.132 142 149 160
0.367236 -0.0367968 1.138 85 92 103
0.370949 -0.0369908 1.144 87 94 105
-0.152991 -0.0336115 1.092 151 164 185
-0.151156 -0.0335807 1.091 143 156 177
-0.149325 -0.0335499 1.09 145 158 179
-0.147496 -0.0335192 1.089 141 154 175
-0.145805 -0.0335192 1.089 136 148 172
-0.144114 -0.0335192 1.089 135 147 171
-0.142423 -0.0335192 1.089 136 148 172
-0.140731 -0.0335192 1.089 132 144 168
-0.13904 -0.0335192 1.089 130 141 167
-0.137349 -0.0335192 1.089 129 140 166
-0.135782 -0.0335499 1.09 124 137 163
-0.134089 -0.0335499 1.09 127 140 166
-0.132397 -0.0335499 1.09 125 138 164
-0.130704 -0.0335499 1.09 125 138 164
-0.128893 -0.0335192 1.089 118 131 157
-0.127201 -0.0335192 1.089 114 127 153
-0.12551 -0.0335192 1.089 114 127 153
-0.123705 -0.0334884 1.088 116 129 155
-0.122016 -0.0334884 1.088 113 126 152
-0.120215 -0.0334576 1.087 112 125 151
-0.118527 -0.0334576 1.087 117 130 156
-0.116839 -0.0334576 1.087 123 136 162
-0.115151 -0.0334576 1.087 123 136 162
-0.113463 -0.0334576 1.087 124 137 163
-0.111774 -0.0334576 1.087 123 134 160
-0.110086 -0.0334576 1.087 121 132 158
-0.108498 -0.0334884 1.088 118 130 159
-0.106808 -0.0334884 1.088 117 129 158
-0.105119 -0.0334884 1.088 116 128 157
-0.103524 -0.0335192 1.089 114 126 155
-0.101833 -0.0335192 1.089 116 128 157
-0.100141 -0.0335192 1.089 116 128 157
-0.0984501 -0.0335192 1.089 117 129 158
-0.0968477 -0.0335499 1.09 117 129 158
-0.0951549 -0.0335499 1.09 116 128 157
-0.0934621 -0.0335499 1.09 116 128 157
-0.0918535 -0.0335807 1.091 116 128 157
-0.0901591 -0.0335807 1.091 114 126 155
-0.0884648 -0.0335807 1.091 114 128 157
-0.0866909 -0.0335499 1.09 118 132 161
-0.0849981 -0.0335499 1.09 116 130 159
-0.0833817 -0.0335807 1.091 116 130 159
-0.0816873 -0.0335807 1.091 118 132 161
-0.079993 -0.0335807 1.091 116 130 159
-0.0782986 -0.0335807 1.091 115 129 158
-0.0766042 -0.0335807 1.091 116 130 159
-0.0749099 -0.0335807 1.091 114 128 157
-0.0732155 -0.0335807 1.091 114 128 157
-0.0715212 -0.0335807 1.091 115 129 158
-0.0698268 -0.0335807 1.091 115 129 158
-0.0681324 -0.0335807 1.091 115 129 158
-0.0664381 -0.0335807 1.091 115 129 158
-0.0647437 -0.0335807 1.091 115 129 158
-0.0630494 -0.0335807 1.091 115 129 158
-0.061355 -0.0335807 1.091 118 132 161
-0.0596606 -0.0335807 1.091 119 133 162
-0.0579131 -0.0335499 1.09 119 133 162
-0.0562203 -0.0335499 1.09 119 133 162
-0.0545275 -0.0335499 1.09 121 136 162
-0.0511888 -0.0335807 1.091 122 137 163
-0.0494945 -0.0335807 1.091 121 136 162
-0.0478001 -0.0335807 1.091 122 137 163
-0.0461057 -0.0335807 1.091 121 136 162
-0.0427562 -0.0336115 1.092 123 138 164
-0.0410603 -0.0336115 1.092 123 139 163
-0.0394004 -0.0336423 1.093 124 140 164
-0.0377029 -0.0336423 1.093 127 141 165
-0.0360384 -0.0336731 1.094 126 140 164
-0.0343394 -0.0336731 1.094 126 140 164
-0.0326404 -0.0336731 1.094 128 142 166
-0.0309414 -0.0336731 1.094 128 142 166
-0.0292423 -0.0336731 1.094 128 142 166
-0.0275433 -0.0336731 1.094 127 141 165
-0.0258443 -0.0336731 1.094 126 140 164
-0.0241232 -0.0336423 1.093 125 140 161
-0.0224052 -0.0336115 1.092 119 134 155
-0.0207093 -0.0336115 1.092 120 135 156
-0.018996 -0.0335807 1.091 125 140 161
-0.0172858 -0.0335499 1.09 125 140 161
-0.0155787 -0.0335192 1.089 119 134 155
-0.0138746 -0.0334884 1.088 124 139 160
-0.0121849 -0.0334884 1.088 126 141 162
