ply
format ascii 1.0
comment Created by Open3D
element vertex 1362
property double x
property double y
property double z
property uchar red
property uchar green
property uchar blue
end_header
0.193217 -0.151818 1.03 100 95 147
0.194627 -0.15167 1.029 97 86 169
0.196034 -0.151523 1.028 94 83 166
0.197631 -0.151523 1.028 88 73 197
0.199034 -0.151375 1.027 88 73 197
0.200433 -0.151228 1.026 51 27 183
0.202027 -0.151228 1.026 44 20 176
0.20362 -0.151228 1.026 50 17 199
0.205214 -0.151228 1.026 48 15 197
0.206807 -0.151228 1.026 42 9 191
0.2084 -0.151228 1.026 35 2 184
0.209994 -0.151228 1.026 35 0 182
0.211587 -0.151228 1.026 31 0 178
0.213181 -0.151228 1.026 39 4 179
0.214774 -0.151228 1.026 46 11 186
0.216367 -0.151228 1.026 49 25 181
0.218173 -0.151375 1.027 52 28 184
0.219768 -0.151375 1.027 47 19 187
0.221363 -0.151375 1.027 35 7 175
0.223175 -0.151523 1.028 39 17 166
0.224772 -0.151523 1.028 68 46 195
0.226589 -0.15167 1.029 174 149 255
0.228408 -0.151818 1.03 156 131 255
0.230008 -0.151818 1.03 106 94 195
0.231608 -0.151818 1.03 130 118 219
0.233207 -0.151818 1.03 167 146 255
0.234807 -0.151818 1.03 168 147 255
0.236407 -0.151818 1.03 170 149 255
0.238006 -0.151818 1.03 161 140 252
0.239606 -0.151818 1.03 132 110 226
0.24144 -0.151965 1.031 94 72 188
0.243041 -0.151965 1.031 64 52 153
0.244642 -0.151965 1.031 79 67 168
0.246482 -0.152112 1.032 109 96 193
0.248325 -0.15226 1.033 107 94 191
0.250413 -0.152555 1.035 59 47 127
0.252021 -0.152555 1.035 13 1 81
0.254118 -0.152849 1.037 0 2 23
0.30928 -0.175991 1.194 13 21 14
0.311134 -0.175991 1.194 12 20 13
0.313251 -0.176138 1.195 12 20 13
0.315107 -0.176138 1.195 12 21 12
0.316963 -0.176138 1.195 12 21 12
0.318818 -0.176138 1.195 12 21 12
0.320943 -0.176285 1.196 12 21 12
0.3228 -0.176285 1.196 12 21 12
0.324929 -0.176433 1.197 13 22 13
0.326788 -0.176433 1.197 14 23 14
0.328647 -0.176433 1.197 15 24 15
0.330782 -0.17658 1.198 15 24 15
0.332643 -0.17658 1.198 14 23 14
0.334503 -0.17658 1.198 11 23 13
0.336364 -0.17658 1.198 11 23 13
0.338224 -0.17658 1.198 11 23 13
0.340085 -0.17658 1.198 11 23 13
0.341945 -0.17658 1.198 10 22 12
0.343519 -0.176433 1.197 11 23 13
0.345378 -0.176433 1.197 11 23 13
0.346947 -0.176285 1.196 10 22 12
0.348512 -0.176138 1.195 10 22 12
0.350368 -0.176138 1.195 9 21 11
0.351635 -0.175843 1.193 12 21 12
0.353191 -0.175696 1.192 12 21 12
0.353553 -0.174959 1.187 11 20 11
0.354798 -0.174664 1.185 11 20 11
0.355735 -0.174222 1.182 10 19 10
0.356966 -0.173927 1.18 7 16 7
0.35819 -0.173632 1.178 7 15 8
0.359103 -0.17319 1.175 10 18 11
0.360313 -0.172895 1.173 14 22 15
0.361518 -0.1726 1.171 10 18 11
0.362405 -0.172158 1.168 12 17 13
0.363596 -0.171863 1.166 3 8 4
0.36384 -0.171126 1.161 5 3 4
0.362178 -0.169505 1.15 14 12 13
0.36257 -0.168031 1.14 95 98 101
0.363062 -0.167442 1.136 106 112 112
0.363863 -0.166999 1.133 110 116 116
0.3653 -0.166852 1.132 104 109 112
0.366733 -0.166705 1.131 40 45 48
-0.164339 -0.171071 1.173 7 15 8
-0.162933 -0.171509 1.176 7 15 8
-0.16138 -0.171801 1.178 8 16 9
-0.157989 -0.172092 1.18 8 17 8
-0.156157 -0.172092 1.18 8 17 8
-0.154586 -0.172384 1.182 8 17 8
-0.15275 -0.172384 1.182 8 17 8
-0.150914 -0.172384 1.182 11 22 8
-0.149205 -0.17253 1.183 12 23 9
-0.147492 -0.172676 1.184 14 25 9
-0.145776 -0.172821 1.185 15 26 10
-0.144057 -0.172967 1.186 17 28 12
-0.142335 -0.173113 1.187 19 30 14
-0.140492 -0.173113 1.187 19 31 12
-0.138765 -0.173259 1.188 19 31 12
-0.137035 -0.173405 1.189 19 31 12
-0.135189 -0.173405 1.189 18 30 11
-0.133454 -0.173551 1.19 18 30 11
-0.131606 -0.173551 1.19 18 30 11
-0.129758 -0.173551 1.19 15 30 10
-0.128018 -0.173696 1.191 15 30 10
-0.126168 -0.173696 1.191 17 32 12
-0.124318 -0.173696 1.191 17 32 12
-0.122571 -0.173842 1.192 17 32 12
-0.12072 -0.173842 1.192 17 32 12
-0.118869 -0.173842 1.192 17 32 12
-0.117018 -0.173842 1.192 17 32 12
-0.115167 -0.173842 1.192 18 33 13
-0.113315 -0.173842 1.192 18 33 13
-0.111464 -0.173842 1.192 17 32 12
-0.109613 -0.173842 1.192 17 32 12
-0.107762 -0.173842 1.192 16 31 11
-0.105911 -0.173842 1.192 17 32 12
-0.104059 -0.173842 1.192 17 32 12
-0.102122 -0.173696 1.191 17 32 12
-0.100273 -0.173696 1.191 17 32 12
-0.0983404 -0.173551 1.19 16 31 11
-0.0964923 -0.173551 1.19 16 31 11
-0.0945646 -0.173405 1.189 16 31 11
-0.0925621 -0.173113 1.187 16 31 11
-0.0906422 -0.172967 1.186 15 30 10
-0.0886506 -0.172676 1.184 15 30 10
-0.0868118 -0.172676 1.184 16 31 11
-0.0848295 -0.172384 1.182 16 31 11
-0.0829236 -0.172238 1.181 15 30 10
-0.0810208 -0.172092 1.18 16 31 11
-0.0791882 -0.172092 1.18 16 31 11
-0.07729 -0.171946 1.179 15 29 12
-0.075395 -0.171801 1.178 13 27 10
-0.0735655 -0.171801 1.178 13 27 10
-0.071797 -0.171946 1.179 15 29 12
-0.0699066 -0.171801 1.178 16 30 13
-0.0681349 -0.171946 1.179 16 30 13
-0.0663601 -0.172092 1.18 13 27 10
-0.0645275 -0.172092 1.18 15 29 12
-0.0627481 -0.172238 1.181 13 27 10
-0.0609655 -0.172384 1.182 13 27 10
-0.0592299 -0.172676 1.184 13 27 10
-0.0574396 -0.172821 1.185 12 26 9
-0.0556462 -0.172967 1.186 15 29 12
-0.0538496 -0.173113 1.187 15 29 12
-0.0520062 -0.173113 1.187 13 27 10
-0.0501627 -0.173113 1.187 12 26 9
-0.04836 -0.173259 1.188 12 26 9
-0.046515 -0.173259 1.188 11 25 8
-0.04467 -0.173259 1.188 14 25 9
-0.042825 -0.173259 1.188 14 25 9
-0.04098 -0.173259 1.188 15 26 10
-0.039135 -0.173259 1.188 14 25 9
-0.0372899 -0.173259 1.188 13 24 8
-0.0354449 -0.173259 1.188 13 24 8
-0.0335999 -0.173259 1.188 12 23 7
-0.0317549 -0.173259 1.188 12 23 7
-0.0298848 -0.173113 1.187 12 23 7
-0.0280413 -0.173113 1.187 13 24 8
-0.0261978 -0.173113 1.187 13 24 8
-0.0243544 -0.173113 1.187 13 24 8
-0.0225109 -0.173113 1.187 12 23 7
-0.0206501 -0.172967 1.186 12 23 7
-0.0188082 -0.172967 1.186 12 23 7
-0.016952 -0.172821 1.185 12 23 7
-0.0151116 -0.172821 1.185 12 23 7
-0.0132713 -0.172821 1.185 12 23 7
-0.0114213 -0.172676 1.184 11 25 10
-0.00956632 -0.172384 1.182 11 25 10
-0.00773063 -0.172384 1.182 11 25 10
-0.00588996 -0.172238 1.181 9 23 8
-0.00405239 -0.172092 1.18 10 24 9
-0.00221793 -0.171946 1.179 10 24 9
-0.000386575 -0.171801 1.178 10 24 9
0.00144167 -0.171655 1.177 10 24 9
0.00326404 -0.171363 1.175 9 22 9
0.00508019 -0.171071 1.173 9 22 9
0.00689602 -0.170926 1.172 9 22 9
0.00869386 -0.170488 1.169 9 22 9
0.0104914 -0.170196 1.167 9 22 9
0.0122827 -0.169905 1.165 9 22 9
0.0140678 -0.169613 1.163 9 22 9
0.0158603 -0.169467 1.162 10 23 10
0.0176497 -0.169321 1.161 13 20 11
0.0223137 -0.151966 1.042 100 101 109
0.023909 -0.15182 1.041 135 136 144
0.0254522 -0.151383 1.038 140 139 154
0.0270381 -0.151237 1.037 135 134 149
0.028621 -0.151091 1.036 132 131 146
0.0302008 -0.150945 1.035 128 127 142
0.0317774 -0.150799 1.034 130 129 144
0.0333833 -0.150799 1.034 140 139 154
0.0349891 -0.150799 1.034 131 126 142
0.0365595 -0.150654 1.033 122 117 133
0.0381638 -0.150654 1.033 125 120 136
0.0397681 -0.150654 1.033 151 146 162
0.0413724 -0.150654 1.033 155 150 166
0.0430183 -0.150799 1.034 138 133 149
0.0446241 -0.150799 1.034 143 139 150
0.04623 -0.150799 1.034 147 143 154
0.0478358 -0.150799 1.034 142 139 148
0.0494416 -0.150799 1.034 132 129 138
0.0510475 -0.150799 1.034 132 129 138
0.0526533 -0.150799 1.034 133 130 139
0.0542591 -0.150799 1.034 131 128 137
0.055865 -0.150799 1.034 146 143 152
0.0574708 -0.150799 1.034 177 178 186
0.0590767 -0.150799 1.034 190 191 199
0.0606825 -0.150799 1.034 197 198 206
0.0622883 -0.150799 1.034 180 181 189
0.0638942 -0.150799 1.034 151 147 158
0.0655 -0.150799 1.034 135 131 142
0.0671058 -0.150799 1.034 122 118 131
0.0687117 -0.150799 1.034 122 118 131
0.0703175 -0.150799 1.034 123 123 135
0.0718538 -0.150654 1.033 125 125 137
0.073387 -0.150508 1.032 116 115 130
0.0749897 -0.150508 1.032 120 119 134
0.0765182 -0.150362 1.031 129 128 143
0.0781194 -0.150362 1.031 130 129 144
0.0797206 -0.150362 1.031 119 119 131
0.0813217 -0.150362 1.031 118 118 130
0.0829229 -0.150362 1.031 134 134 146
0.0845241 -0.150362 1.031 149 149 161
0.0861253 -0.150362 1.031 149 149 161
0.0877265 -0.150362 1.031 148 148 160
0.0893276 -0.150362 1.031 143 143 155
0.0909288 -0.150362 1.031 141 141 153
0.09253 -0.150362 1.031 141 141 153
0.0941312 -0.150362 1.031 146 146 158
0.0957324 -0.150362 1.031 147 141 159
0.0973335 -0.150362 1.031 131 125 143
0.0989347 -0.150362 1.031 110 111 134
0.100536 -0.150362 1.031 105 106 129
0.102137 -0.150362 1.031 103 104 137
0.103738 -0.150362 1.031 105 106 139
0.105339 -0.150362 1.031 111 108 167
0.106941 -0.150362 1.031 117 114 173
0.108542 -0.150362 1.031 88 73 182
0.110143 -0.150362 1.031 45 30 139
0.111744 -0.150362 1.031 35 10 163
0.113345 -0.150362 1.031 37 12 165
0.114835 -0.150216 1.03 32 4 180
0.116435 -0.150216 1.03 37 9 185
0.118034 -0.150216 1.03 36 8 189
0.119634 -0.150216 1.03 29 1 182
0.121233 -0.150216 1.03 28 0 181
0.122833 -0.150216 1.03 28 0 181
0.124433 -0.150216 1.03 31 4 183
0.126032 -0.150216 1.03 36 9 188
0.127756 -0.150362 1.031 36 9 188
0.129357 -0.150362 1.031 35 8 187
0.131085 -0.150508 1.032 33 6 185
0.132559 -0.150362 1.031 32 5 184
0.134291 -0.150508 1.032 31 6 185
0.135893 -0.150508 1.032 24 0 178
0.137629 -0.150654 1.033 35 10 189
0.139099 -0.150508 1.032 38 13 192
0.140702 -0.150508 1.032 44 19 198
0.142304 -0.150508 1.032 44 19 198
0.143907 -0.150508 1.032 34 8 189
0.145369 -0.150362 1.031 34 8 189
0.146828 -0.150216 1.03 34 8 189
0.148427 -0.150216 1.03 31 5 186
0.150027 -0.150216 1.03 31 4 188
0.151479 -0.15007 1.029 30 3 187
0.153077 -0.15007 1.029 31 4 188
0.154525 -0.149924 1.028 31 4 188
0.15597 -0.149779 1.027 33 4 188
0.157565 -0.149779 1.027 31 2 186
0.15916 -0.149779 1.027 34 4 172
0.160755 -0.149779 1.027 37 7 175
0.16235 -0.149779 1.027 70 50 175
0.163944 -0.149779 1.027 88 68 193
0.165539 -0.149779 1.027 89 81 155
0.167134 -0.149779 1.027 81 73 147
0.168729 -0.149779 1.027 89 86 119
0.17049 -0.149924 1.028 87 84 117
0.172087 -0.149924 1.028 95 91 113
0.173683 -0.149924 1.028 97 93 115
0.17545 -0.15007 1.029 94 87 108
0.17722 -0.150216 1.03 88 81 102
0.178994 -0.150362 1.031 89 79 102
0.180595 -0.150362 1.031 98 88 111
0.182196 -0.150362 1.031 94 86 109
0.183797 -0.150362 1.031 88 80 103
0.185578 -0.150508 1.032 85 80 112
0.187181 -0.150508 1.032 86 81 113
0.188784 -0.150508 1.032 87 83 126
0.190202 -0.150362 1.031 100 96 139
0.191617 -0.150216 1.03 94 86 160
0.193029 -0.15007 1.029 99 91 165
0.194627 -0.15007 1.029 88 77 189
0.196034 -0.149924 1.028 85 74 186
0.197631 -0.149924 1.028 85 62 215
0.199034 -0.149779 1.027 47 24 177
0.200433 -0.149633 1.026 34 7 180
0.202027 -0.149633 1.026 39 12 185
0.20362 -0.149633 1.026 44 13 197
0.205214 -0.149633 1.026 41 10 194
0.206807 -0.149633 1.026 37 5 185
0.2084 -0.149633 1.026 30 0 178
0.209994 -0.149633 1.026 33 0 163
0.211587 -0.149633 1.026 48 15 178
0.213181 -0.149633 1.026 118 94 231
0.214774 -0.149633 1.026 154 130 255
0.216367 -0.149633 1.026 155 142 255
0.218173 -0.149779 1.027 162 149 255
0.219768 -0.149779 1.027 128 113 242
0.221363 -0.149779 1.027 56 41 170
0.223175 -0.149924 1.028 48 35 157
0.224772 -0.149924 1.028 71 58 180
0.226589 -0.15007 1.029 164 142 255
0.228187 -0.15007 1.029 138 116 239
0.230008 -0.150216 1.03 111 101 202
0.231608 -0.150216 1.03 168 158 255
0.233207 -0.150216 1.03 180 163 255
0.234807 -0.150216 1.03 170 153 255
0.236407 -0.150216 1.03 140 121 236
0.238006 -0.150216 1.03 80 61 176
0.239606 -0.150216 1.03 91 75 188
0.241205 -0.150216 1.03 120 104 217
0.243041 -0.150362 1.031 126 111 220
0.244642 -0.150362 1.031 126 111 220
0.246482 -0.150508 1.032 106 94 195
0.248565 -0.150799 1.034 69 57 158
0.250413 -0.150945 1.035 78 66 153
0.252264 -0.151091 1.036 33 21 108
0.254118 -0.151237 1.037 0 0 42
0.255975 -0.151383 1.038 0 0 50
0.311395 -0.17428 1.195 12 20 13
0.313251 -0.17428 1.195 11 19 12
0.315107 -0.17428 1.195 12 21 12
0.316963 -0.17428 1.195 12 21 12
0.319085 -0.174426 1.196 12 21 12
0.320674 -0.17428 1.195 12 21 12
0.3228 -0.174426 1.196 13 22 13
0.324658 -0.174426 1.196 13 22 13
0.326788 -0.174572 1.197 14 23 14
0.328647 -0.174572 1.197 14 23 14
0.330506 -0.174572 1.197 15 24 15
0.332365 -0.174572 1.197 15 24 15
0.334503 -0.174717 1.198 14 23 14
0.336364 -0.174717 1.198 13 22 13
0.338224 -0.174717 1.198 13 22 13
0.340085 -0.174717 1.198 13 22 13
0.34166 -0.174572 1.197 13 22 13
0.343519 -0.174572 1.197 13 22 13
0.345378 -0.174572 1.197 13 22 13
0.346947 -0.174426 1.196 12 21 12
0.348512 -0.17428 1.195 12 21 12
0.350075 -0.174134 1.194 12 21 12
0.351635 -0.173988 1.193 12 21 12
0.353191 -0.173842 1.192 12 21 12
0.353553 -0.173113 1.187 11 20 11
0.354798 -0.172821 1.185 11 20 11
0.355735 -0.172384 1.182 10 19 10
0.356966 -0.172092 1.18 8 17 8
0.357886 -0.171655 1.177 8 16 9
0.358797 -0.171217 1.174 10 18 11
0.359699 -0.17078 1.171 15 23 16
0.360592 -0.170342 1.168 8 16 9
0.361785 -0.17005 1.166 12 17 13
0.36266 -0.169613 1.163 7 12 8
0.361333 -0.168155 1.153 4 4 5
0.361549 -0.167425 1.148 13 13 14
0.362252 -0.166113 1.139 94 97 100
0.362742 -0.165529 1.135 107 111 111
0.363542 -0.165092 1.132 114 118 118
0.364977 -0.164946 1.131 105 110 113
0.366409 -0.1648 1.13 40 45 48
-0.164199 -0.169103 1.172 10 18 11
-0.162656 -0.169392 1.174 10 18 11
-0.161243 -0.169825 1.177 10 18 11
-0.159551 -0.169969 1.178 8 16 9
-0.156157 -0.170257 1.18 7 15 8
-0.152621 -0.170402 1.181 8 17 8
-0.150914 -0.170546 1.182 10 20 8
-0.149078 -0.170546 1.182 13 23 11
-0.147367 -0.17069 1.183 14 25 11
-0.145653 -0.170835 1.184 15 26 12
-0.143936 -0.170979 1.185 17 28 12
-0.142095 -0.170979 1.185 17 28 12
-0.140373 -0.171123 1.186 17 29 10
-0.138648 -0.171267 1.187 17 29 10
-0.136805 -0.171267 1.187 15 27 8
-0.135075 -0.171412 1.188 18 30 11
-0.13323 -0.171412 1.188 18 30 11
-0.131496 -0.171556 1.189 18 30 11
-0.129758 -0.1717 1.19 17 29 10
-0.12791 -0.1717 1.19 17 29 10
-0.126062 -0.1717 1.19 17 32 12
-0.124318 -0.171845 1.191 18 33 13
-0.122469 -0.171845 1.191 18 33 13
-0.120619 -0.171845 1.191 18 33 13
-0.118869 -0.171989 1.192 18 33 13
-0.117018 -0.171989 1.192 18 33 13
-0.115167 -0.171989 1.192 18 33 13
-0.113315 -0.171989 1.192 17 32 12
-0.111464 -0.171989 1.192 16 31 11
-0.109613 -0.171989 1.192 16 31 11
-0.107671 -0.171845 1.191 16 31 11
-0.105822 -0.171845 1.191 17 32 12
-0.103885 -0.1717 1.19 17 32 12
-0.102122 -0.171845 1.191 16 31 11
-0.100188 -0.1717 1.19 16 31 11
-0.0983404 -0.1717 1.19 16 31 11
-0.0964112 -0.171556 1.189 15 30 10
-0.0944056 -0.171267 1.187 16 31 11
-0.0924841 -0.171123 1.186 16 31 11
-0.0905658 -0.170979 1.185 15 30 10
-0.0885757 -0.17069 1.183 16 31 11
-0.0867385 -0.17069 1.183 16 31 11
-0.0847577 -0.170402 1.181 16 31 11
-0.0828533 -0.170257 1.18 16 31 11
-0.0809521 -0.170113 1.179 16 31 11
-0.079054 -0.169969 1.178 15 30 10
-0.0772245 -0.169969 1.178 12 26 9
-0.075331 -0.169825 1.177 12 26 9
-0.0735031 -0.169825 1.177 16 30 13
-0.0716752 -0.169825 1.177 15 29 12
-0.0699066 -0.169969 1.178 17 28 12
-0.0680771 -0.169969 1.178 17 28 12
-0.0662476 -0.169969 1.178 13 24 8
-0.0645275 -0.170257 1.18 14 25 9
-0.062695 -0.170257 1.18 13 24 8
-0.0609655 -0.170546 1.182 14 25 9
-0.0591298 -0.170546 1.182 15 26 10
-0.0574396 -0.170979 1.185 14 25 9
-0.0555992 -0.170979 1.185 15 26 10
-0.0538043 -0.171123 1.186 15 26 10
-0.0520062 -0.171267 1.187 14 25 9
-0.0501627 -0.171267 1.187 14 25 9
-0.0483193 -0.171267 1.187 14 25 9
-0.046515 -0.171412 1.188 14 25 9
-0.04467 -0.171412 1.188 14 25 9
-0.042861 -0.171556 1.189 14 25 9
-0.0410144 -0.171556 1.189 15 26 10
-0.0391679 -0.171556 1.189 13 24 8
-0.0373213 -0.171556 1.189 13 24 8
-0.0354748 -0.171556 1.189 13 24 8
-0.0335999 -0.171412 1.188 14 25 9
-0.0317817 -0.171556 1.189 13 24 8
-0.0299099 -0.171412 1.188 13 24 8
-0.0280413 -0.171267 1.187 13 24 8
-0.0261978 -0.171267 1.187 13 24 8
-0.0243544 -0.171267 1.187 13 24 8
-0.0225109 -0.171267 1.187 13 24 8
-0.0206501 -0.171123 1.186 13 24 8
-0.0187923 -0.170979 1.185 12 23 7
-0.016952 -0.170979 1.185 12 23 7
-0.0150989 -0.170835 1.184 12 23 7
-0.0132601 -0.170835 1.184 11 22 6
-0.0114117 -0.17069 1.183 11 25 10
-0.00956632 -0.170546 1.182 11 25 10
-0.00773063 -0.170546 1.182 11 25 10
-0.00588497 -0.170257 1.18 10 24 9
-0.00405239 -0.170257 1.18 10 24 9
-0.00221793 -0.170113 1.179 10 24 9
-0.000386575 -0.169969 1.178 10 24 9
0.00144167 -0.169825 1.177 10 24 9
0.00326404 -0.169536 1.175 9 22 9
0.00508452 -0.169392 1.174 9 22 9
0.00689013 -0.168959 1.171 8 21 8
0.00869386 -0.16867 1.169 9 22 9
0.0104824 -0.168237 1.166 8 21 8
0.0122616 -0.167805 1.163 9 22 9
0.0140557 -0.16766 1.162 9 22 9
0.015833 -0.167372 1.16 10 23 10
0.023909 -0.150202 1.041 132 133 141
0.0254522 -0.149769 1.038 136 135 150
0.0270642 -0.149769 1.038 134 133 148
0.028621 -0.14948 1.036 128 127 142
0.0302008 -0.149336 1.035 128 127 142
0.0317774 -0.149192 1.034 128 127 142
0.0334155 -0.149336 1.035 127 126 141
0.0349891 -0.149192 1.034 116 115 130
0.0365949 -0.149192 1.034 116 115 130
0.0382008 -0.149192 1.034 123 122 137
0.0398066 -0.149192 1.034 149 148 163
0.0414124 -0.149192 1.034 151 150 165
0.0430183 -0.149192 1.034 147 146 161
0.0446241 -0.149192 1.034 145 141 154
0.04623 -0.149192 1.034 132 128 141
0.0478358 -0.149192 1.034 129 125 136
0.0494416 -0.149192 1.034 132 128 139
0.0510475 -0.149192 1.034 133 130 139
0.0526533 -0.149192 1.034 144 141 150
0.0542591 -0.149192 1.034 158 155 164
0.055865 -0.149192 1.034 173 170 179
0.0574708 -0.149192 1.034 179 176 185
0.0590767 -0.149192 1.034 181 178 187
0.0606825 -0.149192 1.034 181 178 187
0.0622883 -0.149192 1.034 151 148 157
0.0638942 -0.149192 1.034 122 118 129
0.0655 -0.149192 1.034 119 115 126
0.0671058 -0.149192 1.034 122 117 133
0.0687117 -0.149192 1.034 126 121 137
0.0702495 -0.149047 1.033 128 123 139
0.0717842 -0.148903 1.032 126 121 137
0.073387 -0.148903 1.032 120 119 134
0.074917 -0.148759 1.031 129 128 143
0.0765182 -0.148759 1.031 139 139 151
0.0781194 -0.148759 1.031 125 125 137
0.0797206 -0.148759 1.031 118 118 130
0.0813217 -0.148759 1.031 125 125 137
0.0829229 -0.148759 1.031 140 140 152
0.0845241 -0.148759 1.031 149 149 161
0.0861253 -0.148759 1.031 143 143 155
0.0877265 -0.148759 1.031 142 142 154
0.0893276 -0.148759 1.031 142 142 154
0.091017 -0.148903 1.032 146 146 158
0.0926197 -0.148903 1.032 144 144 156
0.0942225 -0.148903 1.032 140 140 152
0.0958252 -0.148903 1.032 142 141 156
0.0973335 -0.148759 1.031 115 114 129
0.0989347 -0.148759 1.031 111 109 131
0.100536 -0.148759 1.031 112 110 132
0.102236 -0.148903 1.032 110 111 139
0.103839 -0.148903 1.032 113 114 142
0.105442 -0.148903 1.032 113 114 163
0.107044 -0.148903 1.032 117 118 167
0.108542 -0.148759 1.031 107 98 189
0.110143 -0.148759 1.031 82 73 164
0.111744 -0.148759 1.031 35 13 157
0.113345 -0.148759 1.031 34 12 156
0.114946 -0.148759 1.031 30 3 176
0.116435 -0.148615 1.03 37 10 183
0.118034 -0.148615 1.03 39 9 190
0.119634 -0.148615 1.03 38 8 189
0.121233 -0.148615 1.03 32 2 183
0.122833 -0.148615 1.03 35 5 186
0.124433 -0.148615 1.03 37 7 188
0.126032 -0.148615 1.03 38 8 189
0.127632 -0.148615 1.03 38 8 189
0.129357 -0.148759 1.031 38 8 189
0.130958 -0.148759 1.031 35 7 188
0.132559 -0.148759 1.031 35 7 188
0.134291 -0.148903 1.032 34 8 189
0.135893 -0.148903 1.032 38 12 193
0.137629 -0.149047 1.033 44 19 198
0.139234 -0.149047 1.033 44 19 198
0.140702 -0.148903 1.032 44 19 198
0.142304 -0.148903 1.032 42 17 196
0.143907 -0.148903 1.032 31 5 186
0.145369 -0.148759 1.031 34 8 189
0.14697 -0.148759 1.031 34 8 189
0.148427 -0.148615 1.03 31 5 186
0.149881 -0.14847 1.029 31 5 186
0.151479 -0.14847 1.029 26 0 181
0.152928 -0.148326 1.028 26 0 181
0.154525 -0.148326 1.028 30 4 185
0.15597 -0.148182 1.027 33 5 186
0.157565 -0.148182 1.027 36 8 189
0.15916 -0.148182 1.027 36 4 177
0.160598 -0.148037 1.026 36 4 177
0.162191 -0.148037 1.026 42 14 161
0.163785 -0.148037 1.026 76 48 195
0.165539 -0.148182 1.027 95 81 168
0.167134 -0.148182 1.027 77 63 150
0.168729 -0.148182 1.027 81 77 115
0.17049 -0.148326 1.028 88 84 122
0.172087 -0.148326 1.028 172 168 190
0.173683 -0.148326 1.028 180 176 198
0.17545 -0.14847 1.029 154 147 168
0.17722 -0.148615 1.03 87 80 101
0.17882 -0.148615 1.03 80 72 95
0.180595 -0.148759 1.031 87 79 102
0.182196 -0.148759 1.031 85 81 105
0.183797 -0.148759 1.031 85 81 105
0.185398 -0.148759 1.031 84 77 116
0.187 -0.148759 1.031 85 78 117
0.188601 -0.148759 1.031 78 71 137
0.190017 -0.148615 1.03 96 89 155
0.191617 -0.148615 1.03 95 82 185
0.193029 -0.14847 1.029 89 76 179
0.194438 -0.148326 1.028 68 51 194
0.195844 -0.148182 1.027 63 46 189
0.197439 -0.148182 1.027 55 29 198
0.199034 -0.148182 1.027 34 8 177
0.200433 -0.148037 1.026 36 1 188
0.202027 -0.148037 1.026 37 2 189
0.20362 -0.148037 1.026 37 4 186
0.205214 -0.148037 1.026 37 4 186
0.206807 -0.148037 1.026 35 3 176
0.208604 -0.148182 1.027 27 0 168
0.210198 -0.148182 1.027 60 35 174
0.211587 -0.148037 1.026 146 121 255
0.213181 -0.148037 1.026 176 159 255
0.214774 -0.148037 1.026 181 164 255
0.216367 -0.148037 1.026 181 176 255
0.218173 -0.148182 1.027 178 173 255
0.219768 -0.148182 1.027 169 158 255
0.221363 -0.148182 1.027 144 133 245
0.223175 -0.148326 1.028 62 49 173
0.224772 -0.148326 1.028 61 48 172
0.226589 -0.14847 1.029 153 132 255
0.228187 -0.14847 1.029 147 126 253
0.230008 -0.148615 1.03 133 113 231
0.231608 -0.148615 1.03 175 155 255
0.233207 -0.148615 1.03 169 151 255
0.234807 -0.148615 1.03 107 89 202
0.236407 -0.148615 1.03 65 49 155
0.238006 -0.148615 1.03 57 41 147
0.239606 -0.148615 1.03 66 51 154
0.24144 -0.148759 1.031 127 112 215
0.243041 -0.148759 1.031 164 153 251
0.244879 -0.148903 1.032 163 152 250
0.246482 -0.148903 1.032 160 149 247
0.248565 -0.149192 1.034 118 107 205
0.250655 -0.14948 1.036 88 77 168
0.252508 -0.149625 1.037 60 49 140
0.254118 -0.149625 1.037 15 3 90
0.255975 -0.149769 1.038 0 0 71
0.258084 -0.150057 1.04 6 12 26
0.313251 -0.172422 1.195 13 21 14
0.315107 -0.172422 1.195 12 20 13
0.316963 -0.172422 1.195 12 20 13
0.318818 -0.172422 1.195 12 21 12
0.320674 -0.172422 1.195 12 21 12
0.32253 -0.172422 1.195 12 21 12
0.324658 -0.172566 1.196 13 22 13
0.326515 -0.172566 1.196 14 23 14
0.328647 -0.17271 1.197 14 23 14
0.330506 -0.17271 1.197 14 23 14
0.332365 -0.17271 1.197 14 23 14
0.334224 -0.17271 1.197 14 23 14
0.336083 -0.17271 1.197 13 22 13
0.337942 -0.17271 1.197 14 23 14
0.339801 -0.17271 1.197 14 23 14
0.34166 -0.17271 1.197 14 23 14
0.343519 -0.17271 1.197 13 22 13
0.345089 -0.172566 1.196 13 22 13
0.346657 -0.172422 1.195 12 21 12
0.348512 -0.172422 1.195 12 21 12
0.350075 -0.172277 1.194 12 21 12
0.35134 -0.171989 1.192 12 21 12
0.352302 -0.171556 1.189 12 21 12
0.353553 -0.171267 1.187 12 21 12
0.354798 -0.170979 1.185 12 21 12
0.355735 -0.170546 1.182 11 20 11
0.356663 -0.170113 1.179 11 20 11
0.357278 -0.169536 1.175 10 18 11
0.358492 -0.169247 1.173 11 19 12
0.359699 -0.168959 1.171 19 26 22
0.360283 -0.168382 1.167 8 15 11
0.361164 -0.167949 1.164 12 16 15
0.361725 -0.167372 1.16 7 11 10
0.360392 -0.165929 1.15 6 5 9
0.361432 -0.164775 1.142 71 73 78
0.361934 -0.164197 1.138 95 97 102
0.362423 -0.16362 1.134 104 109 112
0.363542 -0.163332 1.132 111 116 119
0.364654 -0.163043 1.13 108 110 115
0.366409 -0.163043 1.13 43 45 50
-0.163918 -0.166995 1.17 8 17 8
-0.162517 -0.167424 1.173 8 17 8
-0.160969 -0.167709 1.175 8 17 8
-0.159415 -0.167995 1.177 8 17 8
-0.157855 -0.16828 1.179 7 16 7
-0.156157 -0.168423 1.18 8 17 8
-0.154324 -0.168423 1.18 8 18 6
-0.152491 -0.168423 1.18 10 20 8
-0.148952 -0.168565 1.181 13 23 11
-0.145407 -0.168708 1.182 14 25 11
-0.143571 -0.168708 1.182 15 26 10
-0.141976 -0.168994 1.184 17 28 12
-0.140255 -0.169136 1.185 17 29 10
-0.138415 -0.169136 1.185 17 29 10
-0.13669 -0.169279 1.186 17 29 10
-0.134848 -0.169279 1.186 17 29 10
-0.133118 -0.169422 1.187 18 30 11
-0.131275 -0.169422 1.187 18 30 11
-0.129431 -0.169422 1.187 16 31 11
-0.127695 -0.169565 1.188 16 31 11
-0.125956 -0.169707 1.189 17 32 12
-0.124214 -0.16985 1.19 18 33 13
-0.122366 -0.16985 1.19 18 33 13
-0.120518 -0.16985 1.19 18 33 13
-0.11867 -0.16985 1.19 17 32 12
-0.116821 -0.16985 1.19 16 31 11
-0.11507 -0.169993 1.191 17 32 12
-0.11322 -0.169993 1.191 17 32 12
-0.111371 -0.169993 1.191 17 32 12
-0.109521 -0.169993 1.191 17 32 12
-0.107581 -0.16985 1.19 17 32 12
-0.105733 -0.16985 1.19 16 31 11
-0.103885 -0.16985 1.19 16 31 11
-0.102037 -0.16985 1.19 16 31 11
-0.100104 -0.169707 1.189 16 31 11
-0.0980925 -0.169422 1.187 17 32 12
-0.096249 -0.169422 1.187 15 30 10
-0.094326 -0.169279 1.186 16 31 11
-0.0924061 -0.169136 1.185 15 30 10
-0.0904894 -0.168994 1.184 13 28 8
-0.0885757 -0.168851 1.183 15 30 10
-0.0866651 -0.168708 1.182 13 28 8
-0.0846859 -0.168423 1.18 15 30 10
-0.0827831 -0.16828 1.179 15 30 10
-0.0808834 -0.168137 1.178 15 30 10
-0.0789869 -0.167995 1.177 12 27 7
-0.0770934 -0.167852 1.176 12 26 9
-0.075203 -0.167709 1.175 12 26 9
-0.0733782 -0.167709 1.175 16 30 13
-0.0715534 -0.167709 1.175 16 30 13
-0.0697879 -0.167852 1.176 15 29 12
-0.0679615 -0.167852 1.176 13 27 10
-0.0662476 -0.168137 1.178 12 26 9
-0.0644182 -0.168137 1.178 12 26 9
-0.062695 -0.168423 1.18 12 26 9
-0.0608624 -0.168423 1.18 11 25 8
-0.0591298 -0.168708 1.182 12 26 9
-0.0573426 -0.168851 1.183 11 25 8
-0.0555992 -0.169136 1.185 12 26 9
-0.0538043 -0.169279 1.186 11 25 8
-0.0520062 -0.169422 1.187 11 25 8
-0.0501627 -0.169422 1.187 10 24 7
-0.0483193 -0.169422 1.187 11 25 8
-0.046515 -0.169565 1.188 12 26 9
-0.0447076 -0.169707 1.189 11 25 8
-0.0428971 -0.16985 1.19 11 25 8
-0.0410489 -0.16985 1.19 14 25 9
-0.0392008 -0.16985 1.19 12 23 7
-0.0373527 -0.16985 1.19 13 24 8
-0.0355046 -0.16985 1.19 14 25 9
-0.0336565 -0.16985 1.19 13 24 8
-0.0318084 -0.16985 1.19 12 23 7
-0.0299351 -0.169707 1.189 12 23 7
-0.0280885 -0.169707 1.189 12 23 7
-0.0262199 -0.169565 1.188 12 23 7
-0.0243544 -0.169422 1.187 13 24 8
-0.0225109 -0.169422 1.187 14 25 9
-0.0206501 -0.169279 1.186 14 25 9
-0.0188082 -0.169279 1.186 12 23 7
-0.0169377 -0.168994 1.184 11 22 6
-0.0151116 -0.169136 1.185 12 23 7
-0.0132601 -0.168994 1.184 11 22 6
-0.0114117 -0.168851 1.183 12 23 9
-0.00956632 -0.168708 1.182 13 24 10
-0.00773063 -0.168708 1.182 11 25 10
-0.00588497 -0.168423 1.18 11 25 10
-0.00405239 -0.168423 1.18 10 24 9
-0.00221605 -0.168137 1.178 10 24 9
-0.000386575 -0.168137 1.178 10 24 9
0.00144045 -0.167852 1.176 10 24 9
0.00326404 -0.167709 1.175 9 22 9
0.00507586 -0.167281 1.172 9 22 9
0.00689013 -0.167138 1.171 9 22 9
0.00868643 -0.16671 1.168 9 22 9
0.0104824 -0.166424 1.166 9 22 9
0.0122511 -0.165854 1.162 9 22 9
0.0140436 -0.165711 1.161 9 22 9
0.0223137 -0.148726 1.042 127 127 137
0.023909 -0.148583 1.041 132 132 142
0.0255257 -0.148583 1.041 132 131 146
0.0270642 -0.148155 1.038 132 131 146
0.0286486 -0.148012 1.037 126 125 140
0.0302299 -0.147869 1.036 127 126 141
0.0318082 -0.147727 1.035 122 121 136
0.0334155 -0.147727 1.035 120 119 134
0.0350229 -0.147727 1.035 120 119 134
0.0366303 -0.147727 1.035 119 118 133
0.0382377 -0.147727 1.035 135 130 146
0.0398451 -0.147727 1.035 151 146 162
0.0414525 -0.147727 1.035 149 144 160
0.0430599 -0.147727 1.035 130 125 141
0.0446241 -0.147584 1.034 124 120 133
0.04623 -0.147584 1.034 121 117 130
0.0478358 -0.147584 1.034 132 128 139
0.0494416 -0.147584 1.034 157 153 164
0.0510475 -0.147584 1.034 149 145 156
0.0526533 -0.147584 1.034 151 147 158
0.0542591 -0.147584 1.034 164 165 173
0.055865 -0.147584 1.034 169 170 178
0.0574708 -0.147584 1.034 169 170 178
0.0590767 -0.147584 1.034 171 172 180
0.0606825 -0.147584 1.034 147 148 156
0.0622883 -0.147584 1.034 127 128 136
0.0638942 -0.147584 1.034 116 116 126
0.0654367 -0.147441 1.033 118 118 128
0.0670409 -0.147441 1.033 122 122 134
0.0686452 -0.147441 1.033 126 126 138
0.0702495 -0.147441 1.033 122 122 134
0.0717842 -0.147299 1.032 118 118 130
0.073387 -0.147299 1.032 119 118 133
0.074917 -0.147156 1.031 130 129 144
0.0765182 -0.147156 1.031 133 133 145
0.0781194 -0.147156 1.031 126 126 138
0.0796432 -0.147013 1.03 140 140 152
0.0813217 -0.147156 1.031 155 155 167
0.0829229 -0.147156 1.031 152 152 164
0.0845241 -0.147156 1.031 152 152 164
0.0862088 -0.147299 1.032 147 147 159
0.0878116 -0.147299 1.032 144 144 156
0.0894143 -0.147299 1.032 149 149 161
0.091017 -0.147299 1.032 149 149 161
0.0926197 -0.147299 1.032 144 139 155
0.0942225 -0.147299 1.032 126 121 137
0.0958252 -0.147299 1.032 121 119 136
0.0974279 -0.147299 1.032 116 114 131
0.0990307 -0.147299 1.032 119 117 139
0.100633 -0.147299 1.032 121 119 141
0.102236 -0.147299 1.032 112 114 140
0.103839 -0.147299 1.032 120 122 148
0.105442 -0.147299 1.032 119 118 158
0.107044 -0.147299 1.032 121 120 160
0.108647 -0.147299 1.032 115 107 182
0.11025 -0.147299 1.032 107 99 174
0.111853 -0.147299 1.032 70 49 176
0.113345 -0.147156 1.031 35 14 141
0.114946 -0.147156 1.031 32 4 172
0.116548 -0.147156 1.031 33 5 173
0.118034 -0.147013 1.03 38 9 188
0.119634 -0.147013 1.03 39 10 189
0.121233 -0.147013 1.03 35 7 188
0.122833 -0.147013 1.03 33 5 186
0.124312 -0.14687 1.029 35 7 188
0.126032 -0.147013 1.03 35 7 188
0.127632 -0.147013 1.03 36 7 191
0.129232 -0.147013 1.03 36 7 191
0.130831 -0.147013 1.03 36 8 189
0.132559 -0.147156 1.031 36 8 189
0.134161 -0.147156 1.031 35 9 190
0.135893 -0.147299 1.032 42 16 197
0.137496 -0.147299 1.032 36 10 191
0.139099 -0.147299 1.032 29 3 184
0.140702 -0.147299 1.032 29 3 184
0.142304 -0.147299 1.032 31 5 186
0.143768 -0.147156 1.031 31 4 188
0.145369 -0.147156 1.031 31 4 188
0.14697 -0.147156 1.031 33 6 190
0.148427 -0.147013 1.03 28 1 185
0.149881 -0.14687 1.029 31 4 188
0.151479 -0.14687 1.029 35 8 192
0.153077 -0.14687 1.029 35 8 192
0.154525 -0.146728 1.028 34 7 191
0.15597 -0.146585 1.027 33 4 188
0.157565 -0.146585 1.027 36 7 191
0.159005 -0.146442 1.026 38 10 186
0.160598 -0.146442 1.026 34 6 182
0.16235 -0.146585 1.027 42 13 164
0.163785 -0.146442 1.026 50 21 172
0.165539 -0.146585 1.027 70 47 140
0.167134 -0.146585 1.027 69 46 139
0.168729 -0.146585 1.027 86 77 116
0.17049 -0.146728 1.028 157 148 187
0.172254 -0.14687 1.029 213 206 227
0.173852 -0.14687 1.029 223 216 237
0.175621 -0.147013 1.03 211 204 220
0.17722 -0.147013 1.03 151 144 160
0.17882 -0.147013 1.03 92 84 102
0.180595 -0.147156 1.031 82 74 92
0.182196 -0.147156 1.031 87 74 102
0.183797 -0.147156 1.031 91 78 106
0.185398 -0.147156 1.031 85 74 125
0.187 -0.147156 1.031 91 80 131
0.188418 -0.147013 1.03 85 70 160
0.190017 -0.147013 1.03 98 83 173
0.191431 -0.14687 1.029 77 58 194
0.192841 -0.146728 1.028 50 31 167
0.194249 -0.146585 1.027 52 27 194
0.195844 -0.146585 1.027 37 12 179
0.197439 -0.146585 1.027 37 6 190
0.199034 -0.146585 1.027 38 7 191
0.200433 -0.146442 1.026 35 5 186
0.202027 -0.146442 1.026 35 5 186
0.20362 -0.146442 1.026 37 2 177
0.205414 -0.146585 1.027 32 0 172
0.207009 -0.146585 1.027 46 19 164
0.208604 -0.146585 1.027 63 36 181
0.210198 -0.146585 1.027 144 128 234
0.211793 -0.146585 1.027 185 169 255
0.213388 -0.146585 1.027 180 168 254
0.214983 -0.146585 1.027 165 153 239
0.216578 -0.146585 1.027 176 167 252
0.218173 -0.146585 1.027 180 171 255
0.219768 -0.146585 1.027 180 172 255
0.221363 -0.146585 1.027 178 170 255
0.223175 -0.146728 1.028 141 126 250
0.224772 -0.146728 1.028 50 35 159
0.226368 -0.146728 1.028 105 92 209
0.228187 -0.14687 1.029 151 138 255
0.230008 -0.147013 1.03 168 146 255
0.231608 -0.147013 1.03 172 150 255
0.233207 -0.147013 1.03 98 84 190
0.234807 -0.147013 1.03 69 55 161
0.236407 -0.147013 1.03 74 57 166
0.238006 -0.147013 1.03 79 62 171
0.239838 -0.147156 1.031 115 97 208
0.24144 -0.147156 1.031 148 130 241
0.243041 -0.147156 1.031 159 143 255
0.244879 -0.147299 1.032 182 166 255
0.246721 -0.147441 1.033 182 164 255
0.248806 -0.147727 1.035 158 140 253
0.250413 -0.147727 1.035 120 104 210
0.252508 -0.148012 1.037 90 74 180
0.254363 -0.148155 1.038 43 27 126
0.255975 -0.148155 1.038 0 0 79
0.258084 -0.14844 1.04 2 2 38
0.314843 -0.170421 1.194 10 22 12
0.316167 -0.170135 1.192 10 22 12
0.318552 -0.170421 1.194 12 21 12
0.320406 -0.170421 1.194 13 22 13
0.32253 -0.170564 1.195 13 22 13
0.324386 -0.170564 1.195 14 23 14
0.326242 -0.170564 1.195 14 23 14
0.328098 -0.170564 1.195 13 22 13
0.329954 -0.170564 1.195 13 22 13
0.33181 -0.170564 1.195 13 22 13
0.333945 -0.170706 1.196 13 22 13
0.336083 -0.170849 1.197 13 22 13
0.337942 -0.170849 1.197 13 22 13
0.339801 -0.170849 1.197 13 22 13
0.341374 -0.170706 1.196 13 22 13
0.342945 -0.170564 1.195 13 22 13
0.344801 -0.170564 1.195 13 22 13
0.346657 -0.170564 1.195 13 22 13
0.348221 -0.170421 1.194 12 21 12
0.349782 -0.170278 1.193 12 21 12
0.35134 -0.170135 1.192 12 21 12
0.352006 -0.169565 1.188 12 21 12
0.353255 -0.169279 1.186 12 21 12
0.354498 -0.168994 1.184 12 21 12
0.355434 -0.168565 1.181 12 21 12
0.356361 -0.168137 1.178 12 21 12
0.357278 -0.167709 1.175 10 18 11
0.35788 -0.167138 1.171 7 15 8
0.358778 -0.16671 1.168 11 18 14
0.359665 -0.166282 1.165 7 14 10
0.360544 -0.165854 1.162 13 17 16
0.359854 -0.164712 1.154 8 12 11
0.360079 -0.163998 1.149 5 8 11
0.360799 -0.162713 1.14 72 74 79
0.361616 -0.162285 1.137 98 100 105
0.362423 -0.161857 1.134 109 114 117
0.363542 -0.161572 1.132 111 116 119
0.364654 -0.161286 1.13 108 110 115
0.366409 -0.161286 1.13 43 45 50
-0.163638 -0.164894 1.168 6 15 6
-0.16224 -0.165317 1.171 6 15 6
-0.160695 -0.1656 1.173 6 15 6
-0.159144 -0.165882 1.175 7 16 7
-0.157721 -0.166306 1.178 8 17 8
-0.155892 -0.166306 1.178 8 17 8
-0.154193 -0.166447 1.179 10 20 8
-0.152362 -0.166447 1.179 10 20 8
-0.150659 -0.166588 1.18 11 21 9
-0.148826 -0.166588 1.18 12 22 10
-0.146994 -0.166588 1.18 14 25 11
-0.145284 -0.166729 1.181 14 25 11
-0.14345 -0.166729 1.181 15 26 10
-0.1399 -0.16687 1.182 18 30 11
-0.136344 -0.167011 1.183 15 27 8
-0.13462 -0.167153 1.184 17 29 10
-0.132894 -0.167294 1.185 15 27 8
-0.131053 -0.167294 1.185 18 30 11
-0.129322 -0.167435 1.186 18 30 11
-0.12748 -0.167435 1.186 19 31 12
-0.125744 -0.167576 1.187 17 32 12
-0.124005 -0.167717 1.188 17 32 12
-0.122263 -0.167859 1.189 17 32 12
-0.120416 -0.167859 1.189 17 32 12
-0.11867 -0.168 1.19 16 31 11
-0.116821 -0.168 1.19 16 31 11
-0.114973 -0.168 1.19 15 30 10
-0.113125 -0.168 1.19 16 31 11
-0.111277 -0.168 1.19 16 31 11
-0.109429 -0.168 1.19 17 32 12
-0.107491 -0.167859 1.189 17 32 12
-0.105644 -0.167859 1.189 16 31 11
-0.103797 -0.167859 1.189 16 31 11
-0.101951 -0.167859 1.189 16 31 11
-0.10002 -0.167717 1.188 17 32 12
-0.0980925 -0.167576 1.187 16 31 11
-0.0961679 -0.167435 1.186 16 31 11
-0.0942465 -0.167294 1.185 15 30 10
-0.0924061 -0.167294 1.185 15 30 10
-0.0904129 -0.167011 1.183 13 28 8
-0.0885008 -0.16687 1.182 13 28 8
-0.0866651 -0.16687 1.182 15 30 10
-0.0846859 -0.166588 1.18 15 30 10
-0.0827129 -0.166306 1.178 15 30 10
-0.0808834 -0.166306 1.178 15 30 10
-0.0789869 -0.166164 1.177 13 28 8
-0.0770934 -0.166023 1.176 15 29 12
-0.075203 -0.165882 1.175 13 27 10
-0.0733782 -0.165882 1.175 15 29 12
-0.0715534 -0.165882 1.175 15 29 12
-0.0697286 -0.165882 1.175 16 30 13
-0.0679037 -0.165882 1.175 15 29 12
-0.0661914 -0.166164 1.177 13 27 10
-0.0643635 -0.166164 1.177 13 27 10
-0.0625887 -0.166306 1.178 15 26 10
-0.0608108 -0.166447 1.179 15 26 10
-0.0590798 -0.166729 1.181 14 25 9
-0.0573426 -0.167011 1.183 14 25 9
-0.0555992 -0.167294 1.185 14 25 9
-0.0538043 -0.167435 1.186 13 24 8
-0.0520062 -0.167576 1.187 14 25 9
-0.0501627 -0.167576 1.187 13 24 8
-0.0483193 -0.167576 1.187 12 23 7
-0.046515 -0.167717 1.188 13 24 8
-0.0447452 -0.168 1.19 13 24 10
-0.0428971 -0.168 1.19 13 24 10
-0.0410489 -0.168 1.19 14 25 9
-0.0392338 -0.168141 1.191 14 25 9
-0.0373527 -0.168 1.19 13 24 8
-0.0355344 -0.168141 1.191 13 24 8
-0.0336848 -0.168141 1.191 12 23 7
-0.0318351 -0.168141 1.191 12 23 7
-0.0299603 -0.168 1.19 12 23 7
-0.0281122 -0.168 1.19 13 24 8
-0.026242 -0.167859 1.189 12 23 7
-0.0243749 -0.167717 1.188 13 24 8
-0.0225109 -0.167576 1.187 14 25 9
-0.0206675 -0.167576 1.187 14 25 9
-0.0188082 -0.167435 1.186 12 23 7
-0.016952 -0.167294 1.185 12 23 7
-0.0151116 -0.167294 1.185 13 24 10
-0.0132601 -0.167153 1.184 12 23 9
-0.011402 -0.16687 1.182 11 22 8
-0.00956632 -0.16687 1.182 11 22 8
-0.00772409 -0.166729 1.181 9 23 8
-0.00588497 -0.166588 1.18 10 24 9
-0.00405239 -0.166588 1.18 11 25 10
-0.00221605 -0.166306 1.178 11 25 10
-0.000386247 -0.166164 1.177 11 25 10
0.00143922 -0.165882 1.175 10 24 9
0.00325848 -0.1656 1.173 9 22 9
0.00507586 -0.165459 1.172 9 22 9
0.00688425 -0.165176 1.17 8 21 8
0.00867899 -0.164753 1.167 9 22 9
0.0104734 -0.16447 1.165 9 22 9
0.0122511 -0.164047 1.162 9 22 9
0.0207153 -0.147247 1.043 123 126 129
0.023909 -0.146964 1.041 128 128 138
0.0255012 -0.146823 1.04 126 124 141
0.0270903 -0.146682 1.039 125 123 140
0.0286486 -0.1464 1.037 123 122 137
0.0302591 -0.1464 1.037 121 120 135
0.0318389 -0.146259 1.036 123 122 137
0.0334478 -0.146259 1.036 127 126 141
0.0350568 -0.146259 1.036 133 132 147
0.0366657 -0.146259 1.036 136 135 150
0.0382747 -0.146259 1.036 140 139 154
0.0398451 -0.146117 1.035 135 134 149
0.0414525 -0.146117 1.035 122 121 136
0.0430599 -0.146117 1.035 119 118 133
0.0446673 -0.146117 1.035 117 113 126
0.0462747 -0.146117 1.035 129 125 138
0.0478358 -0.145976 1.034 168 164 175
0.0494416 -0.145976 1.034 162 158 169
0.0510475 -0.145976 1.034 154 150 161
0.0526533 -0.145976 1.034 153 149 160
0.0542591 -0.145976 1.034 165 161 172
0.055811 -0.145835 1.033 164 160 171
0.0574152 -0.145835 1.033 159 159 169
0.0590767 -0.145976 1.034 150 150 160
0.0606825 -0.145976 1.034 144 144 154
0.0622281 -0.145835 1.033 129 129 139
0.0638324 -0.145835 1.033 116 116 128
0.0654367 -0.145835 1.033 116 116 128
0.0670409 -0.145835 1.033 123 123 135
0.0686452 -0.145835 1.033 122 122 134
0.0701815 -0.145694 1.032 121 116 132
0.0717842 -0.145694 1.032 118 113 129
0.0733159 -0.145553 1.031 127 126 141
0.074917 -0.145553 1.031 144 143 158
0.0765182 -0.145553 1.031 142 142 154
0.0780436 -0.145412 1.03 149 149 161
0.0796432 -0.145412 1.03 157 157 169
0.0813217 -0.145553 1.031 156 156 168
0.0829229 -0.145553 1.031 157 157 167
0.0845241 -0.145553 1.031 154 154 164
0.0862088 -0.145694 1.032 150 150 162
0.0878116 -0.145694 1.032 149 149 161
0.0894143 -0.145694 1.032 148 148 160
0.091017 -0.145694 1.032 143 143 155
0.0927095 -0.145835 1.033 126 121 137
0.0943138 -0.145835 1.033 122 117 133
0.0958252 -0.145694 1.032 129 124 140
0.0974279 -0.145694 1.032 130 125 141
0.0990307 -0.145694 1.032 132 129 149
0.100633 -0.145694 1.032 126 123 143
0.102335 -0.145835 1.033 106 104 128
0.103939 -0.145835 1.033 111 109 133
0.105544 -0.145835 1.033 114 114 150
0.107148 -0.145835 1.033 115 115 151
0.108647 -0.145694 1.032 115 111 174
0.11025 -0.145694 1.032 103 99 162
0.111853 -0.145694 1.032 92 76 187
0.113455 -0.145694 1.032 49 33 144
0.114946 -0.145553 1.031 30 5 163
0.116548 -0.145553 1.031 34 9 167
0.118034 -0.145412 1.03 38 9 188
0.119634 -0.145412 1.03 38 9 188
0.121116 -0.14527 1.029 35 5 186
0.122714 -0.14527 1.029 35 5 186
0.124312 -0.14527 1.029 40 9 193
0.12591 -0.14527 1.029 39 8 192
0.127508 -0.14527 1.029 38 7 191
0.129106 -0.14527 1.029 38 7 191
0.130831 -0.145412 1.03 35 6 190
0.132431 -0.145412 1.03 36 7 191
0.134031 -0.145412 1.03 37 8 192
0.135762 -0.145553 1.031 35 6 190
0.137363 -0.145553 1.031 26 0 181
0.138964 -0.145553 1.031 28 0 183
0.140565 -0.145553 1.031 33 4 188
0.142167 -0.145553 1.031 33 4 188
0.143628 -0.145412 1.03 33 4 188
0.145228 -0.145412 1.03 35 6 190
0.146828 -0.145412 1.03 35 7 188
0.148139 -0.145129 1.028 40 12 193
0.149735 -0.145129 1.028 48 22 203
0.151185 -0.144988 1.027 48 22 203
0.15278 -0.144988 1.027 46 20 201
0.154375 -0.144988 1.027 35 9 190
0.155818 -0.144847 1.026 31 5 186
0.157411 -0.144847 1.026 33 7 188
0.159005 -0.144847 1.026 35 9 185
0.160755 -0.144988 1.027 30 4 180
0.16235 -0.144988 1.027 42 13 158
0.163944 -0.144988 1.027 43 14 159
0.165539 -0.144988 1.027 42 22 113
0.167134 -0.144988 1.027 53 33 124
0.168894 -0.145129 1.028 152 139 179
0.170656 -0.14527 1.029 214 201 241
0.172254 -0.14527 1.029 231 224 240
0.173852 -0.14527 1.029 224 217 233
0.175621 -0.145412 1.03 231 225 238
0.17722 -0.145412 1.03 217 211 224
0.17882 -0.145412 1.03 169 162 178
0.180595 -0.145553 1.031 105 98 114
0.182196 -0.145553 1.031 86 77 105
0.183619 -0.145412 1.03 93 84 112
0.185219 -0.145412 1.03 104 89 150
0.186818 -0.145412 1.03 102 87 148
0.188235 -0.14527 1.029 95 71 187
0.189833 -0.14527 1.029 99 75 191
0.191245 -0.145129 1.028 54 26 187
0.192841 -0.145129 1.028 46 18 179
0.194249 -0.144988 1.027 43 15 196
0.195844 -0.144988 1.027 38 10 191
0.197247 -0.144847 1.026 37 7 193
0.19884 -0.144847 1.026 40 10 196
0.200433 -0.144847 1.026 37 4 186
0.202027 -0.144847 1.026 30 0 179
0.20362 -0.144847 1.026 34 3 166
0.205414 -0.144988 1.027 63 32 195
0.207009 -0.144988 1.027 109 86 205
0.208604 -0.144988 1.027 144 121 240
0.210403 -0.145129 1.028 169 152 240
0.211793 -0.144988 1.027 170 153 241
0.213388 -0.144988 1.027 148 134 213
0.214983 -0.144988 1.027 178 164 243
0.216578 -0.144988 1.027 189 170 255
0.218173 -0.144988 1.027 190 171 255
0.219768 -0.144988 1.027 185 172 255
0.221363 -0.144988 1.027 173 160 255
0.223175 -0.145129 1.028 145 126 255
0.224772 -0.145129 1.028 46 27 161
0.226368 -0.145129 1.028 54 32 169
0.228187 -0.14527 1.029 90 68 205
0.230008 -0.145412 1.03 116 92 227
0.231608 -0.145412 1.03 83 59 194
0.233207 -0.145412 1.03 85 67 178
0.234807 -0.145412 1.03 135 117 228
0.236636 -0.145553 1.031 173 159 255
0.238237 -0.145553 1.031 173 159 255
0.239838 -0.145553 1.031 167 156 254
0.241674 -0.145694 1.032 152 141 239
0.243276 -0.145694 1.032 123 112 210
0.244879 -0.145694 1.032 184 173 255
0.24696 -0.145976 1.034 178 157 255
0.248806 -0.146117 1.035 149 128 255
0.250655 -0.146259 1.036 102 82 205
0.252508 -0.1464 1.037 95 75 198
0.254363 -0.146541 1.038 64 45 160
0.256468 -0.146823 1.04 6 0 102
0.258084 -0.146823 1.04 0 0 63
0.259948 -0.146964 1.041 0 0 67
0.316167 -0.168282 1.192 12 21 12
0.317751 -0.168141 1.191 13 22 13
0.319869 -0.168282 1.192 13 22 13
0.321721 -0.168282 1.192 13 22 13
0.323572 -0.168282 1.192 13 22 13
0.325696 -0.168423 1.193 13 22 13
0.327823 -0.168564 1.194 13 22 13
0.329678 -0.168564 1.194 13 22 13
0.33181 -0.168706 1.195 13 22 13
0.333665 -0.168706 1.195 14 23 14
0.335521 -0.168706 1.195 14 23 14
0.337377 -0.168706 1.195 14 23 14
0.339233 -0.168706 1.195 13 22 13
0.341089 -0.168706 1.195 13 22 13
0.342945 -0.168706 1.195 13 22 13
0.344512 -0.168564 1.194 12 21 12
0.346076 -0.168423 1.193 12 21 12
0.347638 -0.168282 1.192 13 22 13
0.349489 -0.168282 1.192 12 21 12
0.351045 -0.168141 1.191 12 21 12
0.35171 -0.167576 1.187 12 21 12
0.352957 -0.167294 1.185 12 21 12
0.3539 -0.16687 1.182 12 21 12
0.355133 -0.166588 1.18 12 21 12
0.356058 -0.166164 1.177 12 21 12
0.35667 -0.1656 1.173 10 18 11
0.35788 -0.165317 1.171 8 16 9
0.358778 -0.164894 1.168 12 19 15
0.359357 -0.164329 1.164 10 17 13
0.360234 -0.163906 1.161 13 17 16
0.359542 -0.162776 1.153 7 11 10
0.359452 -0.161929 1.147 5 7 12
0.360799 -0.160941 1.14 70 72 77
0.361616 -0.160517 1.137 100 102 107
0.362423 -0.160094 1.134 111 116 119
0.363542 -0.159811 1.132 112 117 120
0.364977 -0.15967 1.131 107 109 114
0.366409 -0.159529 1.13 42 44 49
-0.163498 -0.162938 1.167 7 16 7
-0.162101 -0.163357 1.17 8 17 8
-0.160558 -0.163636 1.172 8 17 8
-0.159009 -0.163915 1.174 8 17 8
-0.157454 -0.164195 1.176 8 17 8
-0.15576 -0.164334 1.177 8 17 8
-0.154062 -0.164474 1.178 8 18 6
-0.152233 -0.164474 1.178 10 20 8
-0.150403 -0.164474 1.178 11 21 9
-0.148574 -0.164474 1.178 12 22 10
-0.146745 -0.164474 1.178 14 25 11
-0.144915 -0.164474 1.178 17 28 14
-0.143207 -0.164614 1.179 17 28 12
-0.141496 -0.164753 1.18 19 30 14
-0.139663 -0.164753 1.18 18 30 11
-0.137831 -0.164753 1.18 18 30 11
-0.136113 -0.164893 1.181 18 30 11
-0.134393 -0.165032 1.182 18 30 11
-0.132669 -0.165172 1.183 17 29 10
-0.129104 -0.165312 1.184 18 30 11
-0.127373 -0.165451 1.185 19 31 12
-0.125532 -0.165451 1.185 17 32 12
-0.123901 -0.165731 1.187 17 32 12
-0.122057 -0.165731 1.187 17 32 12
-0.120315 -0.16587 1.188 17 32 12
-0.11857 -0.16601 1.189 18 33 13
-0.116723 -0.16601 1.189 18 33 13
-0.114973 -0.166149 1.19 17 32 12
-0.113125 -0.166149 1.19 17 32 12
-0.111277 -0.166149 1.19 16 31 11
-0.109337 -0.16601 1.189 15 30 10
-0.107491 -0.16601 1.189 16 31 11
-0.105555 -0.16587 1.188 16 31 11
-0.103623 -0.165731 1.187 16 31 11
-0.101865 -0.16587 1.188 17 32 12
-0.0999359 -0.165731 1.187 17 32 12
-0.0980098 -0.165591 1.186 16 31 11
-0.0960868 -0.165451 1.185 16 31 11
-0.0942465 -0.165451 1.185 15 30 10
-0.0923282 -0.165312 1.184 15 30 10
-0.0903365 -0.165032 1.182 13 28 8
-0.0885008 -0.165032 1.182 15 30 10
-0.0865918 -0.164893 1.181 15 30 10
-0.0846859 -0.164753 1.18 15 30 10
-0.0827831 -0.164614 1.179 13 28 8
-0.0808834 -0.164474 1.178 13 28 8
-0.0789869 -0.164334 1.177 13 28 8
-0.0771589 -0.164334 1.177 15 29 12
-0.075203 -0.164055 1.175 12 26 9
-0.0733782 -0.164055 1.175 13 27 10
-0.0715534 -0.164055 1.175 15 29 12
-0.0697286 -0.164055 1.175 15 29 12
-0.0679615 -0.164195 1.176 16 30 13
-0.0661352 -0.164195 1.176 15 29 12
-0.0643635 -0.164334 1.177 15 29 12
-0.0625887 -0.164474 1.178 13 27 10
-0.0608108 -0.164614 1.179 13 27 10
-0.0590798 -0.164893 1.181 12 26 9
-0.0573426 -0.165172 1.183 11 25 8
-0.0555992 -0.165451 1.185 11 25 8
-0.0538043 -0.165591 1.186 11 25 8
-0.0520062 -0.165731 1.187 12 26 9
-0.0501627 -0.165731 1.187 12 26 9
-0.04836 -0.16587 1.188 12 26 9
-0.0465541 -0.16601 1.189 12 26 9
-0.0447452 -0.166149 1.19 11 25 10
-0.0429331 -0.166289 1.191 11 25 10
-0.0411179 -0.166429 1.192 13 27 10
-0.0392667 -0.166429 1.192 13 27 10
-0.0374155 -0.166429 1.192 11 25 8
-0.0355643 -0.166429 1.192 10 24 7
-0.0337131 -0.166429 1.192 10 24 7
-0.0318351 -0.166289 1.191 11 25 8
-0.0299855 -0.166289 1.191 13 24 8
-0.0281122 -0.166149 1.19 14 25 9
-0.0262641 -0.166149 1.19 13 24 8
-0.0243954 -0.16601 1.189 14 25 9
-0.0225109 -0.165731 1.187 14 25 9
-0.0206675 -0.165731 1.187 14 25 9
-0.0188082 -0.165591 1.186 13 24 8
-0.016952 -0.165451 1.185 13 24 8
-0.0150989 -0.165312 1.184 13 24 10
-0.0132601 -0.165312 1.184 13 24 10
-0.0114117 -0.165172 1.183 13 24 10
-0.00956632 -0.165032 1.182 13 24 10
-0.00772409 -0.164893 1.181 12 23 9
-0.00588497 -0.164753 1.18 12 23 9
-0.00404896 -0.164614 1.179 13 24 10
-0.00221417 -0.164334 1.177 13 24 10
-0.00038559 -0.164055 1.175 12 23 9
0.00143922 -0.164055 1.175 11 22 8
0.00326126 -0.163915 1.174 9 22 9
0.00507586 -0.163636 1.172 8 21 8
0.00687837 -0.163217 1.169 8 21 8
0.00867899 -0.162938 1.167 8 21 8
0.0191321 -0.145904 1.045 113 115 120
0.0207352 -0.145765 1.044 123 125 130
0.0223351 -0.145625 1.043 126 126 138
0.023932 -0.145485 1.042 126 126 138
0.0255257 -0.145346 1.041 123 123 135
0.0271164 -0.145206 1.04 123 123 135
0.0286763 -0.144927 1.038 120 119 134
0.0302591 -0.144787 1.037 132 131 146
0.0318696 -0.144787 1.037 147 146 161
0.0334801 -0.144787 1.037 150 149 164
0.0350568 -0.144648 1.036 147 146 161
0.0366657 -0.144648 1.036 141 140 155
0.0382747 -0.144648 1.036 135 134 149
0.0398836 -0.144648 1.036 129 128 143
0.0414925 -0.144648 1.036 127 126 141
0.0430599 -0.144508 1.035 127 126 141
0.0446673 -0.144508 1.035 127 127 137
0.0462747 -0.144508 1.035 152 152 162
0.0478358 -0.144368 1.034 171 167 178
0.0494416 -0.144368 1.034 165 161 172
0.0510475 -0.144368 1.034 144 144 154
0.0526533 -0.144368 1.034 143 143 153
0.0542067 -0.144229 1.033 151 151 161
0.055811 -0.144229 1.033 149 149 159
0.0574152 -0.144229 1.033 141 142 150
0.0590195 -0.144229 1.033 136 137 145
0.0606238 -0.144229 1.033 135 135 145
0.0622281 -0.144229 1.033 130 130 140
0.0638324 -0.144229 1.033 118 118 130
0.0654367 -0.144229 1.033 118 118 130
0.0670409 -0.144229 1.033 118 118 130
0.0685788 -0.144089 1.032 119 119 131
0.0701815 -0.144089 1.032 122 118 131
0.0717842 -0.144089 1.032 125 121 134
0.0733159 -0.14395 1.031 143 143 155
0.074917 -0.14395 1.031 165 165 177
0.076444 -0.14381 1.03 163 163 175
0.0780436 -0.14381 1.03 163 163 175
0.0796432 -0.14381 1.03 158 158 170
0.0813217 -0.14395 1.031 150 150 162
0.0829229 -0.14395 1.031 152 152 162
0.0845241 -0.14395 1.031 154 154 164
0.0862088 -0.144089 1.032 149 145 158
0.0878116 -0.144089 1.032 133 129 142
0.0894143 -0.144089 1.032 128 122 135
0.091017 -0.144089 1.032 126 120 133
0.0926197 -0.144089 1.032 124 120 133
0.0942225 -0.144089 1.032 123 119 132
0.0959181 -0.144229 1.033 119 118 133
0.0975223 -0.144229 1.033 120 119 134
0.0991266 -0.144229 1.033 121 120 140
