ply
format ascii 1.0
comment Created by Open3D
element vertex 1398
property double x
property double y
property double z
property uchar red
property uchar green
property uchar blue
end_header
0.26781 0.0929716 1.191 41 61 27
0.26966 0.0929716 1.191 43 63 29
0.27151 0.0929716 1.191 43 63 29
0.273359 0.0929716 1.191 43 63 29
0.274978 0.0928936 1.19 44 64 30
0.276826 0.0928936 1.19 43 63 29
0.278674 0.0928936 1.19 44 64 30
0.280522 0.0928936 1.19 45 65 31
0.28237 0.0928936 1.19 45 65 31
0.28398 0.0928155 1.189 45 65 31
0.285826 0.0928155 1.189 45 65 31
0.287673 0.0928155 1.189 44 64 30
0.289519 0.0928155 1.189 44 64 30
0.291121 0.0927374 1.188 44 64 30
0.293212 0.0928155 1.189 44 64 30
0.295307 0.0928936 1.19 44 64 30
0.297155 0.0928936 1.19 45 65 31
0.299003 0.0928936 1.19 46 64 28
0.300852 0.0928936 1.19 46 64 28
0.3027 0.0928936 1.19 46 64 28
0.304548 0.0928936 1.19 49 67 31
0.306396 0.0928936 1.19 49 68 30
0.308244 0.0928936 1.19 48 67 29
0.309831 0.0928155 1.189 49 68 30
0.311678 0.0928155 1.189 49 68 30
0.313261 0.0927374 1.188 49 68 30
0.315371 0.0928155 1.189 52 71 33
0.317218 0.0928155 1.189 50 69 31
0.319064 0.0928155 1.189 53 72 34
0.320911 0.0928155 1.189 56 75 37
0.322486 0.0927374 1.188 61 80 42
0.324331 0.0927374 1.188 63 82 44
0.32645 0.0928155 1.189 75 94 56
0.328297 0.0928155 1.189 76 95 57
0.330421 0.0928936 1.19 76 95 57
0.332269 0.0928936 1.19 71 90 52
0.334117 0.0928936 1.19 70 89 51
0.335966 0.0928936 1.19 70 89 51
0.338098 0.0929716 1.191 69 88 50
0.340233 0.0930497 1.192 69 88 50
0.342084 0.0930497 1.192 70 89 51
0.343935 0.0930497 1.192 71 89 53
0.345786 0.0930497 1.192 68 86 50
0.347346 0.0929716 1.191 70 87 54
0.348902 0.0928936 1.19 70 87 54
0.35075 0.0928936 1.19 72 88 57
0.352302 0.0928155 1.189 71 87 56
0.353851 0.0927374 1.188 74 90 59
0.355397 0.0926594 1.187 76 92 61
0.35724 0.0926594 1.187 59 68 41
0.358478 0.0925033 1.185 58 67 40
0.359407 0.0922691 1.182 113 119 96
0.360631 0.0921129 1.18 111 117 94
0.361849 0.0919568 1.178 55 58 43
0.362135 0.0915665 1.173 59 62 47
0.362095 0.0910981 1.167 46 54 47
0.362037 0.0906298 1.161 66 74 67
0.362273 0.0902395 1.156 180 189 180
0.360604 0.0893808 1.145 213 222 213
0.361432 0.0891466 1.142 198 206 199
0.362252 0.0889124 1.139 225 233 226
0.363701 0.0888343 1.138 242 246 251
0.365147 0.0887563 1.137 159 163 168
0.368204 0.0890685 1.141 105 108 116
0.371922 0.0895369 1.147 110 113 121
-0.167841 0.0953808 1.198 49 72 40
-0.165842 0.0953012 1.197 50 73 41
-0.163983 0.0953012 1.197 50 73 41
-0.161989 0.0952216 1.196 50 73 41
-0.159997 0.095142 1.195 49 73 39
-0.158009 0.0950623 1.194 49 73 39
-0.155893 0.0949031 1.192 49 73 39
-0.153913 0.0948235 1.191 49 73 39
-0.151936 0.0947439 1.19 51 76 39
-0.149835 0.0945846 1.188 51 76 39
-0.147866 0.094505 1.187 51 76 39
-0.145899 0.0944254 1.186 53 78 41
-0.143936 0.0943458 1.185 53 78 41
-0.142095 0.0943458 1.185 54 79 42
-0.140255 0.0943458 1.185 55 80 43
-0.138298 0.0942662 1.184 54 79 42
-0.136459 0.0942662 1.184 54 79 42
-0.13462 0.0942662 1.184 53 78 41
-0.132782 0.0942662 1.184 52 75 38
-0.129213 0.0943458 1.185 55 79 40
-0.127373 0.0943458 1.185 55 79 40
-0.125638 0.0944254 1.186 56 80 41
-0.123901 0.094505 1.187 56 80 41
-0.12216 0.0945846 1.188 56 80 41
-0.120416 0.0946643 1.189 55 79 40
-0.11867 0.0947439 1.19 53 77 38
-0.116821 0.0947439 1.19 55 79 40
-0.114973 0.0947439 1.19 55 79 40
-0.113125 0.0947439 1.19 55 79 40
-0.111277 0.0947439 1.19 55 79 40
-0.109429 0.0947439 1.19 53 77 38
-0.107581 0.0947439 1.19 53 77 38
-0.105733 0.0947439 1.19 52 76 37
-0.103797 0.0946643 1.189 52 75 38
-0.101951 0.0946643 1.189 51 74 37
-0.100104 0.0946643 1.189 51 74 37
-0.0982577 0.0946643 1.189 51 74 37
-0.0963301 0.0945846 1.188 51 73 39
-0.0944851 0.0945846 1.188 51 73 39
-0.0908715 0.0946643 1.189 53 75 41
-0.0890249 0.0946643 1.189 55 76 44
-0.0872517 0.0947439 1.19 52 73 41
-0.0854036 0.0947439 1.19 50 70 41
-0.0836257 0.0948235 1.191 51 71 42
-0.0818447 0.0949031 1.192 51 71 42
-0.0800606 0.0949827 1.193 48 68 39
-0.0783389 0.095142 1.195 45 65 36
-0.0764831 0.095142 1.195 48 68 39
-0.0746896 0.0952216 1.196 48 68 39
-0.0728931 0.0953012 1.197 44 64 35
-0.0710341 0.0953012 1.197 44 64 35
-0.0691751 0.0953012 1.197 44 64 35
-0.0673162 0.0953012 1.197 43 63 34
-0.0654572 0.0953012 1.197 42 62 33
-0.0635982 0.0953012 1.197 43 63 34
-0.0617392 0.0953012 1.197 44 64 35
-0.0598802 0.0953012 1.197 44 64 35
-0.0580212 0.0953012 1.197 45 65 36
-0.0561153 0.0952216 1.196 45 65 38
-0.0542579 0.0952216 1.196 44 64 37
-0.0524005 0.0952216 1.196 43 63 36
-0.0505008 0.095142 1.195 43 63 36
-0.0486449 0.095142 1.195 41 61 34
-0.046789 0.095142 1.195 42 62 35
-0.0448204 0.0949031 1.192 46 64 37
-0.0429692 0.0949031 1.192 43 61 34
-0.0411179 0.0949031 1.192 41 59 32
-0.0392008 0.0947439 1.19 38 56 29
-0.0373527 0.0947439 1.19 37 55 28
-0.0355046 0.0947439 1.19 37 55 28
-0.0336565 0.0947439 1.19 34 52 25
-0.0318084 0.0947439 1.19 34 52 25
-0.0299855 0.0948235 1.191 37 55 28
-0.0281122 0.0947439 1.19 36 54 27
-0.0262641 0.0947439 1.19 34 52 25
-0.0244159 0.0947439 1.19 36 54 27
-0.0225489 0.0946643 1.189 38 56 29
-0.0206849 0.0945846 1.188 31 49 22
-0.018824 0.094505 1.187 32 50 23
-0.0169806 0.094505 1.187 32 50 23
-0.0151371 0.094505 1.187 32 49 24
-0.0132937 0.094505 1.187 32 49 24
-0.0114502 0.094505 1.187 31 48 23
-0.00961488 0.0945846 1.188 33 50 25
-0.00778295 0.0947439 1.19 34 51 26
-0.00593983 0.0948235 1.191 32 49 24
-0.0040936 0.0949031 1.192 32 49 24
-0.00224427 0.0949827 1.193 32 49 24
-0.000392153 0.095142 1.195 32 49 24
0.00146617 0.0953012 1.197 32 49 24
0.00518847 0.0953808 1.198 33 50 25
0.00705489 0.0954604 1.199 31 48 23
0.00892441 0.09554 1.2 32 49 24
0.010797 0.0956197 1.201 32 49 24
0.0126728 0.0956993 1.202 32 49 24
0.0145395 0.0956993 1.202 33 50 25
0.0163926 0.0956197 1.201 33 50 25
0.0182578 0.0956197 1.201 33 50 25
0.0201063 0.09554 1.2 36 53 28
0.0219516 0.0954604 1.199 38 55 30
0.023774 0.0953012 1.197 38 55 30
0.0256329 0.0953012 1.197 41 59 32
0.0274689 0.0952216 1.196 34 52 25
0.0293019 0.095142 1.195 33 51 24
0.0311577 0.095142 1.195 33 51 24
0.0330136 0.095142 1.195 33 51 24
0.0348403 0.0950623 1.194 38 56 29
0.0366946 0.0950623 1.194 37 55 28
0.038549 0.0950623 1.194 36 54 27
0.0404033 0.0950623 1.194 37 55 28
0.0422222 0.0949827 1.193 37 55 28
0.044075 0.0949827 1.193 37 55 28
0.0458892 0.0949031 1.192 37 55 28
0.0477405 0.0949031 1.192 38 56 29
0.0495917 0.0949031 1.192 37 55 28
0.0513997 0.0948235 1.191 37 55 28
0.0532941 0.0949031 1.192 37 55 28
0.0550991 0.0948235 1.191 36 54 27
0.0569487 0.0948235 1.191 36 54 27
0.0587984 0.0948235 1.191 36 54 25
0.0606481 0.0948235 1.191 36 54 25
0.0625502 0.0949031 1.192 33 51 22
0.0644014 0.0949031 1.192 34 52 23
0.0662526 0.0949031 1.192 37 55 26
0.0681038 0.0949031 1.192 36 54 25
0.0699551 0.0949031 1.192 39 54 26
0.0718665 0.0949827 1.193 39 54 26
0.0737193 0.0949827 1.193 40 55 27
0.0755721 0.0949827 1.193 39 54 26
0.0774248 0.0949827 1.193 40 55 27
0.0792776 0.0949827 1.193 40 55 27
0.0811304 0.0949827 1.193 40 55 27
0.0829136 0.0949031 1.192 41 56 28
0.0847648 0.0949031 1.192 40 55 27
0.086616 0.0949031 1.192 40 55 27
0.088393 0.0948235 1.191 40 55 27
0.0901669 0.0947439 1.19 40 55 27
0.092015 0.0947439 1.19 40 55 27
0.0937842 0.0946643 1.189 41 56 28
0.0955504 0.0945846 1.188 40 55 27
0.0973134 0.094505 1.187 40 55 27
0.0991568 0.094505 1.187 39 54 26
0.101 0.094505 1.187 41 56 28
0.102757 0.0944254 1.186 41 56 28
0.104599 0.0944254 1.186 42 57 29
0.106441 0.0944254 1.186 42 57 29
0.108283 0.0944254 1.186 42 57 29
0.110218 0.094505 1.187 42 57 29
0.112061 0.094505 1.187 43 58 30
0.114096 0.0946643 1.189 43 58 30
0.11604 0.0947439 1.19 43 58 30
0.117889 0.0947439 1.19 47 62 34
0.119737 0.0947439 1.19 43 58 30
0.121687 0.0948235 1.191 43 58 30
0.12364 0.0949031 1.192 42 57 29
0.125492 0.0949031 1.192 42 57 29
0.127343 0.0949031 1.192 42 57 29
0.129302 0.0949827 1.193 42 57 29
0.131155 0.0949827 1.193 43 58 30
0.133119 0.0950623 1.194 45 60 32
0.134974 0.0950623 1.194 43 58 30
0.136943 0.095142 1.195 42 57 29
0.138799 0.095142 1.195 41 56 28
0.140654 0.095142 1.195 38 56 27
0.142391 0.0950623 1.194 40 58 29
0.144245 0.0950623 1.194 40 58 29
0.145977 0.0949827 1.193 41 59 30
0.147706 0.0949031 1.192 43 61 32
0.149557 0.0949031 1.192 41 59 30
0.151282 0.0948235 1.191 41 59 30
0.153003 0.0947439 1.19 41 59 30
0.154721 0.0946643 1.189 40 59 27
0.156567 0.0946643 1.189 41 60 28
0.158281 0.0945846 1.188 41 60 28
0.159991 0.094505 1.187 41 60 28
0.161834 0.094505 1.187 40 59 27
0.163678 0.094505 1.187 40 59 27
0.165382 0.0944254 1.186 39 58 26
0.167083 0.0943458 1.185 40 59 27
0.168923 0.0943458 1.185 39 58 26
0.170763 0.0943458 1.185 40 59 27
0.172604 0.0943458 1.185 41 60 28
0.174297 0.0942662 1.184 41 60 28
0.176136 0.0942662 1.184 41 60 28
0.177974 0.0942662 1.184 41 60 28
0.179813 0.0942662 1.184 43 62 30
0.181652 0.0942662 1.184 43 62 30
0.183646 0.0943458 1.185 41 61 27
0.185486 0.0943458 1.185 41 61 27
0.187326 0.0943458 1.185 41 61 27
0.189326 0.0944254 1.186 43 63 29
0.191168 0.0944254 1.186 44 64 30
0.193173 0.094505 1.187 41 61 27
0.195016 0.094505 1.187 37 58 21
0.19686 0.094505 1.187 43 64 27
0.198703 0.094505 1.187 46 67 30
0.200716 0.0945846 1.188 47 68 31
0.202561 0.0945846 1.188 48 69 32
0.204406 0.0945846 1.188 48 69 32
0.206251 0.0945846 1.188 50 72 33
0.208271 0.0946643 1.189 48 70 31
0.210294 0.0947439 1.19 45 67 28
0.212142 0.0947439 1.19 60 82 43
0.21399 0.0947439 1.19 55 77 38
0.215838 0.0947439 1.19 55 77 38
0.217687 0.0947439 1.19 54 76 37
0.219719 0.0948235 1.191 54 76 37
0.221569 0.0948235 1.191 55 77 38
0.223418 0.0948235 1.191 54 76 37
0.225268 0.0948235 1.191 52 74 35
0.227118 0.0948235 1.191 52 74 35
0.228967 0.0948235 1.191 53 75 36
0.231011 0.0949031 1.192 51 73 34
0.232862 0.0949031 1.192 48 69 32
0.234713 0.0949031 1.192 48 69 32
0.236565 0.0949031 1.192 48 69 32
0.238416 0.0949031 1.192 48 69 32
0.240267 0.0949031 1.192 48 69 32
0.242118 0.0949031 1.192 51 72 35
0.243969 0.0949031 1.192 46 67 30
0.245821 0.0949031 1.192 46 67 30
0.247672 0.0949031 1.192 47 68 31
0.249314 0.0948235 1.191 45 66 29
0.251374 0.0949031 1.192 44 64 30
0.253226 0.0949031 1.192 43 63 29
0.255077 0.0949031 1.192 43 63 29
0.256928 0.0949031 1.192 43 63 29
0.258779 0.0949031 1.192 41 61 27
0.26063 0.0949031 1.192 41 61 27
0.262482 0.0949031 1.192 40 60 26
0.264333 0.0949031 1.192 43 63 29
0.266184 0.0949031 1.192 45 65 31
0.268035 0.0949031 1.192 41 61 27
0.269886 0.0949031 1.192 43 63 29
0.271738 0.0949031 1.192 43 63 29
0.273589 0.0949031 1.192 43 63 29
0.27544 0.0949031 1.192 43 63 29
0.277291 0.0949031 1.192 43 63 29
0.278674 0.0947439 1.19 44 64 30
0.280522 0.0947439 1.19 44 64 30
0.28237 0.0947439 1.19 44 64 30
0.284219 0.0947439 1.19 44 64 30
0.285826 0.0946643 1.189 44 64 30
0.287673 0.0946643 1.189 44 64 30
0.289276 0.0945846 1.188 44 64 30
0.291121 0.0945846 1.188 44 64 30
0.292966 0.0945846 1.188 44 64 30
0.295059 0.0946643 1.189 44 65 28
0.296906 0.0946643 1.189 46 67 30
0.298752 0.0946643 1.189 47 68 31
0.300599 0.0946643 1.189 45 66 29
0.302191 0.0945846 1.188 44 65 28
0.304292 0.0946643 1.189 47 68 31
0.305881 0.0945846 1.188 48 70 31
0.307726 0.0945846 1.188 48 70 31
0.309571 0.0945846 1.188 48 70 31
0.311416 0.0945846 1.188 47 69 30
0.313261 0.0945846 1.188 47 69 30
0.315106 0.0945846 1.188 47 69 30
0.316951 0.0945846 1.188 49 68 30
0.319064 0.0946643 1.189 53 72 34
0.320911 0.0946643 1.189 54 73 35
0.322757 0.0946643 1.189 54 73 35
0.324604 0.0946643 1.189 57 76 38
0.32645 0.0946643 1.189 68 87 49
0.328573 0.0947439 1.19 74 93 55
0.330421 0.0947439 1.19 71 90 52
0.332269 0.0947439 1.19 71 90 52
0.334117 0.0947439 1.19 71 90 52
0.336248 0.0948235 1.191 71 90 52
0.338381 0.0949031 1.192 70 89 51
0.340233 0.0949031 1.192 70 89 51
0.342084 0.0949031 1.192 70 89 51
0.343935 0.0949031 1.192 71 90 52
0.345786 0.0949031 1.192 70 89 51
0.347638 0.0949031 1.192 71 88 55
0.349196 0.0948235 1.191 72 89 56
0.35075 0.0947439 1.19 74 90 59
0.352302 0.0946643 1.189 72 88 57
0.353851 0.0945846 1.188 72 87 59
0.355397 0.094505 1.187 77 92 64
0.35724 0.094505 1.187 59 72 44
0.358781 0.0944254 1.186 56 69 41
0.359711 0.0941866 1.183 114 122 99
0.360937 0.0940273 1.181 108 116 93
0.362156 0.0938681 1.179 56 59 44
0.362135 0.0933904 1.173 61 64 49
0.362405 0.0929923 1.168 48 56 49
0.362348 0.0925146 1.162 64 72 65
0.362273 0.0920369 1.156 178 186 179
0.360604 0.0911611 1.145 215 223 216
0.361432 0.0909223 1.142 196 207 199
0.362252 0.0906834 1.139 223 234 226
0.363701 0.0906038 1.138 242 246 251
0.365469 0.0906038 1.138 166 170 175
0.367881 0.090763 1.14 105 109 114
0.371273 0.0911611 1.145 110 114 119
-0.167701 0.0971624 1.197 50 73 41
-0.165842 0.0971624 1.197 49 72 40
-0.163983 0.0971624 1.197 49 72 40
-0.161989 0.0970812 1.196 49 72 40
-0.159997 0.097 1.195 49 73 39
-0.158009 0.0969189 1.194 48 72 38
-0.155893 0.0967565 1.192 49 73 39
-0.153913 0.0966753 1.191 48 72 38
-0.151936 0.0965942 1.19 51 75 41
-0.149961 0.096513 1.189 53 77 43
-0.147866 0.0963507 1.187 51 76 39
-0.146022 0.0963507 1.187 51 76 39
-0.144057 0.0962695 1.186 54 79 42
-0.142095 0.0961883 1.185 54 79 42
-0.140255 0.0961883 1.185 55 80 43
-0.138415 0.0961883 1.185 53 78 41
-0.136574 0.0961883 1.185 54 79 42
-0.13462 0.0961071 1.184 50 75 38
-0.132782 0.0961071 1.184 53 78 41
-0.130943 0.0961071 1.184 54 79 42
-0.127373 0.0961883 1.185 56 80 41
-0.125532 0.0961883 1.185 56 80 41
-0.123796 0.0962695 1.186 56 80 41
-0.122057 0.0963507 1.187 56 80 41
-0.120315 0.0964318 1.188 56 80 41
-0.11857 0.096513 1.189 55 79 40
-0.116821 0.0965942 1.19 55 79 40
-0.114973 0.0965942 1.19 55 79 40
-0.113125 0.0965942 1.19 55 79 40
-0.111277 0.0965942 1.19 55 79 40
-0.109429 0.0965942 1.19 53 77 38
-0.107581 0.0965942 1.19 52 76 37
-0.105644 0.096513 1.189 51 75 36
-0.103797 0.096513 1.189 51 74 37
-0.101951 0.096513 1.189 51 74 37
-0.100104 0.096513 1.189 52 75 38
-0.0982577 0.096513 1.189 51 74 37
-0.0963301 0.0964318 1.188 52 74 40
-0.0944851 0.0964318 1.188 52 74 40
-0.0908715 0.096513 1.189 55 77 43
-0.0890249 0.096513 1.189 53 74 42
-0.0872517 0.0965942 1.19 52 73 41
-0.0854036 0.0965942 1.19 50 70 41
-0.0836257 0.0966753 1.191 49 69 40
-0.0818447 0.0967565 1.192 51 71 42
-0.0800606 0.0968377 1.193 51 71 42
-0.0783389 0.097 1.195 51 71 42
-0.0764831 0.097 1.195 57 77 48
-0.0746896 0.0970812 1.196 52 72 43
-0.0728931 0.0971624 1.197 45 65 36
-0.0710341 0.0971624 1.197 45 65 36
-0.0691751 0.0971624 1.197 45 65 36
-0.0673162 0.0971624 1.197 45 65 36
-0.0654572 0.0971624 1.197 44 64 35
-0.0635982 0.0971624 1.197 44 64 35
-0.0617392 0.0971624 1.197 46 66 37
-0.0598802 0.0971624 1.197 45 65 36
-0.0580212 0.0971624 1.197 44 64 35
-0.0561623 0.0971624 1.197 45 65 38
-0.0543033 0.0971624 1.197 44 64 37
-0.0524443 0.0971624 1.197 44 64 37
-0.0505853 0.0971624 1.197 45 65 38
-0.0486856 0.0970812 1.196 44 64 37
-0.046789 0.097 1.195 44 64 37
-0.044858 0.0968377 1.193 45 63 36
-0.0430052 0.0968377 1.193 51 69 42
-0.0411179 0.0967565 1.192 43 61 34
-0.0392667 0.0967565 1.192 36 54 27
-0.0373841 0.0966753 1.191 38 56 29
-0.0355344 0.0966753 1.191 40 58 31
-0.0336848 0.0966753 1.191 36 54 27
-0.0318351 0.0966753 1.191 31 49 22
-0.0299855 0.0966753 1.191 36 54 27
-0.0281122 0.0965942 1.19 36 54 27
-0.0262641 0.0965942 1.19 36 54 27
-0.0244159 0.0965942 1.19 36 54 27
-0.0225489 0.096513 1.189 37 55 28
-0.0206849 0.0964318 1.188 29 47 20
-0.018824 0.0963507 1.187 32 50 23
-0.0169806 0.0963507 1.187 32 50 23
-0.0151244 0.0962695 1.186 32 49 24
-0.0132937 0.0963507 1.187 31 48 23
-0.0114502 0.0963507 1.187 32 49 24
-0.00961488 0.0964318 1.188 32 49 24
-0.00777641 0.096513 1.189 33 50 25
-0.00593484 0.0965942 1.19 32 49 24
-0.0040936 0.0967565 1.192 33 50 25
-0.00224615 0.0969189 1.194 32 49 24
-0.000392153 0.097 1.195 32 49 24
0.00146617 0.0971624 1.197 32 49 24
0.0051928 0.0973247 1.199 33 50 25
0.00706077 0.0974059 1.2 33 50 25
0.00892441 0.0974059 1.2 34 51 26
0.010797 0.0974871 1.201 33 50 25
0.0126622 0.0974871 1.201 31 48 23
0.0145395 0.0975682 1.202 32 49 24
0.0163926 0.0974871 1.201 32 49 24
0.0182426 0.0974059 1.2 33 50 25
0.0200895 0.0973247 1.199 36 53 28
0.0219333 0.0972435 1.198 37 54 29
0.023774 0.0971624 1.197 36 53 28
0.0256115 0.0970812 1.196 38 53 27
0.027446 0.097 1.195 36 51 25
0.0292773 0.0969189 1.194 36 51 25
0.0311317 0.0969189 1.194 36 51 25
0.032986 0.0969189 1.194 36 51 25
0.0348111 0.0968377 1.193 41 56 30
0.0366946 0.0969189 1.194 38 53 27
0.0385167 0.0968377 1.193 36 51 25
0.0403694 0.0968377 1.193 39 54 28
0.0422222 0.0968377 1.193 39 54 28
0.044075 0.0968377 1.193 39 54 28
0.0459277 0.0968377 1.193 40 55 29
0.0477805 0.0968377 1.193 40 55 29
0.0495917 0.0967565 1.192 39 54 28
0.0514429 0.0967565 1.192 39 54 28
0.0532941 0.0967565 1.192 38 53 27
0.0551453 0.0967565 1.192 39 54 26
0.0569487 0.0966753 1.191 40 55 27
0.0587984 0.0966753 1.191 39 54 26
0.0606481 0.0966753 1.191 38 53 25
0.0624977 0.0966753 1.191 36 51 23
0.0643474 0.0966753 1.191 36 51 23
0.0662526 0.0967565 1.192 36 51 23
0.0681038 0.0967565 1.192 38 53 25
0.0699551 0.0967565 1.192 39 54 26
0.0718063 0.0967565 1.192 40 55 27
0.0735957 0.0966753 1.191 40 55 27
0.0754454 0.0966753 1.191 38 53 25
0.077295 0.0966753 1.191 39 54 26
0.0791447 0.0966753 1.191 40 55 27
0.0809944 0.0966753 1.191 40 55 27
0.0827745 0.0965942 1.19 42 57 29
0.0846226 0.0965942 1.19 41 56 28
0.0864707 0.0965942 1.19 40 55 27
0.0883188 0.0965942 1.19 40 55 27
0.0900911 0.096513 1.189 40 55 27
0.0919377 0.096513 1.189 40 55 27
0.0936265 0.0963507 1.187 40 55 27
0.0953895 0.0962695 1.186 39 54 26
0.0972314 0.0962695 1.186 39 54 26
0.0989898 0.0961883 1.185 39 54 26
0.10083 0.0961883 1.185 40 55 27
0.10267 0.0961883 1.185 40 55 27
0.104423 0.0961071 1.184 42 57 29
0.106261 0.0961071 1.184 42 57 29
0.108192 0.0961883 1.185 42 57 29
0.110032 0.0961883 1.185 42 57 29
0.112061 0.0963507 1.187 42 57 29
0.113904 0.0963507 1.187 42 57 29
0.115748 0.0963507 1.187 41 56 28
0.117789 0.096513 1.189 43 58 30
0.119636 0.096513 1.189 43 58 30
0.121585 0.0965942 1.19 43 58 30
0.123433 0.0965942 1.19 43 58 30
0.125386 0.0966753 1.191 42 57 29
0.127343 0.0967565 1.192 42 57 29
0.129194 0.0967565 1.192 40 58 29
0.131045 0.0967565 1.192 41 59 30
0.133008 0.0968377 1.193 43 61 32
0.134861 0.0968377 1.193 43 61 32
0.136828 0.0969189 1.194 41 59 30
0.138682 0.0969189 1.194 40 58 29
0.140537 0.0969189 1.194 40 58 29
0.14251 0.097 1.195 40 58 29
0.144125 0.0968377 1.193 40 58 29
0.145977 0.0968377 1.193 41 59 30
0.147706 0.0967565 1.192 43 61 32
0.149557 0.0967565 1.192 43 61 32
0.151282 0.0966753 1.191 43 61 32
0.153003 0.0965942 1.19 43 61 32
0.154851 0.0965942 1.19 43 61 32
0.156567 0.096513 1.189 44 62 33
0.158281 0.0964318 1.188 43 62 30
0.160126 0.0964318 1.188 43 62 30
0.161834 0.0963507 1.187 41 60 28
0.163678 0.0963507 1.187 40 59 27
0.165382 0.0962695 1.186 40 60 26
0.167083 0.0961883 1.185 39 59 25
0.168923 0.0961883 1.185 40 60 26
0.170619 0.0961071 1.184 39 59 25
0.172458 0.0961071 1.184 41 61 27
0.17415 0.096026 1.183 41 61 27
0.175987 0.096026 1.183 46 66 32
0.177824 0.096026 1.183 52 72 38
0.179813 0.0961071 1.184 50 70 36
0.181652 0.0961071 1.184 45 65 31
0.183491 0.0961071 1.184 43 63 29
0.185486 0.0961883 1.185 41 61 27
0.187326 0.0961883 1.185 44 64 30
0.189167 0.0961883 1.185 45 65 31
0.191007 0.0961883 1.185 43 63 29
0.19301 0.0962695 1.186 40 60 26
0.195016 0.0963507 1.187 47 68 31
0.19686 0.0963507 1.187 53 74 37
0.198703 0.0963507 1.187 47 68 31
0.200716 0.0964318 1.188 47 68 31
0.202561 0.0964318 1.188 48 70 31
0.204578 0.096513 1.189 50 72 33
0.206424 0.096513 1.189 50 72 33
0.208446 0.0965942 1.19 50 72 33
0.210294 0.0965942 1.19 47 69 30
0.212142 0.0965942 1.19 58 80 41
0.21399 0.0965942 1.19 55 77 38
0.215838 0.0965942 1.19 53 75 36
0.217687 0.0965942 1.19 53 75 36
0.219535 0.0965942 1.19 53 75 36
0.221383 0.0965942 1.19 53 75 36
0.223231 0.0965942 1.19 53 75 36
0.225079 0.0965942 1.19 53 75 36
0.227118 0.0966753 1.191 53 75 36
0.228967 0.0966753 1.191 52 74 35
0.230817 0.0966753 1.191 51 73 34
0.232862 0.0967565 1.192 50 71 34
0.234713 0.0967565 1.192 48 69 32
0.236565 0.0967565 1.192 48 69 32
0.238416 0.0967565 1.192 48 69 32
0.240267 0.0967565 1.192 48 69 32
0.242118 0.0967565 1.192 50 71 34
0.243969 0.0967565 1.192 47 68 31
0.245821 0.0967565 1.192 46 67 30
0.247672 0.0967565 1.192 46 67 30
0.249523 0.0967565 1.192 46 67 30
0.251585 0.0968377 1.193 44 65 28
0.253438 0.0968377 1.193 43 64 27
0.255077 0.0967565 1.192 43 64 27
0.257143 0.0968377 1.193 43 64 27
0.259213 0.0969189 1.194 43 64 27
0.260849 0.0968377 1.193 44 65 28
0.262922 0.0969189 1.194 43 64 27
0.264555 0.0968377 1.193 45 66 29
0.266407 0.0968377 1.193 44 65 28
0.268035 0.0967565 1.192 41 62 25
0.269886 0.0967565 1.192 43 64 27
0.271738 0.0967565 1.192 44 65 28
0.273589 0.0967565 1.192 44 64 30
0.27544 0.0967565 1.192 44 64 30
0.277291 0.0967565 1.192 44 64 30
0.278908 0.0966753 1.191 44 64 30
0.280522 0.0965942 1.19 44 64 30
0.28237 0.0965942 1.19 43 63 29
0.284219 0.0965942 1.19 45 65 31
0.285826 0.096513 1.189 44 64 30
0.287431 0.0964318 1.188 44 64 30
0.289276 0.0964318 1.188 44 64 30
0.291121 0.0964318 1.188 45 65 31
0.292966 0.0964318 1.188 45 65 31
0.294811 0.0964318 1.188 46 67 30
0.296656 0.0964318 1.188 47 68 31
0.298501 0.0964318 1.188 47 68 31
0.300346 0.0964318 1.188 44 65 28
0.302191 0.0964318 1.188 45 67 28
0.304036 0.0964318 1.188 46 68 29
0.305881 0.0964318 1.188 47 69 30
0.307726 0.0964318 1.188 46 68 29
0.309571 0.0964318 1.188 47 69 30
0.311416 0.0964318 1.188 48 70 31
0.313261 0.0964318 1.188 47 69 30
0.315371 0.096513 1.189 46 68 29
0.317218 0.096513 1.189 50 69 31
0.319064 0.096513 1.189 54 73 35
0.321181 0.0965942 1.19 50 69 31
0.322757 0.096513 1.189 53 72 34
0.324877 0.0965942 1.19 61 78 40
0.326725 0.0965942 1.19 68 85 47
0.328573 0.0965942 1.19 71 90 52
0.330421 0.0965942 1.19 70 89 51
0.332269 0.0965942 1.19 71 90 52
0.334117 0.0965942 1.19 72 91 53
0.336248 0.0966753 1.191 72 91 53
0.338098 0.0966753 1.191 71 90 52
0.340233 0.0967565 1.192 70 89 51
0.342084 0.0967565 1.192 69 88 50
0.343935 0.0967565 1.192 70 89 51
0.345786 0.0967565 1.192 69 88 50
0.347638 0.0967565 1.192 72 89 56
0.349196 0.0966753 1.191 74 91 58
0.35075 0.0965942 1.19 74 90 59
0.352599 0.0965942 1.19 74 90 59
0.353851 0.0964318 1.188 72 88 57
0.355397 0.0963507 1.187 77 93 62
0.35724 0.0963507 1.187 64 73 46
0.358781 0.0962695 1.186 60 69 42
0.359711 0.096026 1.183 117 123 100
0.360937 0.0958636 1.181 106 112 89
0.362156 0.0957013 1.179 57 60 45
0.362444 0.0952954 1.174 63 66 51
0.362405 0.0948084 1.168 51 57 50
0.362348 0.0943214 1.162 65 71 64
0.360604 0.0929415 1.145 217 225 218
0.361432 0.0926979 1.142 192 200 193
0.362252 0.0924544 1.139 226 234 227
0.363701 0.0923733 1.138 244 248 253
0.365147 0.0922921 1.137 168 172 177
0.367236 0.0923733 1.138 105 108 116
0.370949 0.0928603 1.144 109 112 120
-0.167701 0.0990236 1.197 49 73 39
-0.165842 0.0990236 1.197 49 73 39
-0.163846 0.0989408 1.196 49 72 40
-0.161989 0.0989408 1.196 49 72 40
-0.159997 0.0988581 1.195 49 72 40
-0.158009 0.0987754 1.194 49 72 40
-0.155893 0.0986099 1.192 49 73 39
-0.154042 0.0986099 1.192 49 73 39
-0.151936 0.0984445 1.19 51 76 39
-0.149961 0.0983618 1.189 53 78 41
-0.14799 0.098279 1.188 51 76 39
-0.146022 0.0981963 1.187 51 76 39
-0.144179 0.0981963 1.187 57 82 45
-0.142215 0.0981136 1.186 55 80 43
-0.140373 0.0981136 1.186 55 80 43
-0.138415 0.0980309 1.185 54 79 42
-0.136574 0.0980309 1.185 55 80 43
-0.134734 0.0980309 1.185 53 78 41
-0.132782 0.0979481 1.184 54 79 42
-0.130943 0.0979481 1.184 54 79 42
-0.129104 0.0979481 1.184 55 78 41
-0.125532 0.0980309 1.185 56 80 41
-0.123796 0.0981136 1.186 56 80 41
-0.122057 0.0981963 1.187 57 81 42
-0.120214 0.0981963 1.187 56 80 41
-0.11847 0.098279 1.188 53 77 38
-0.116723 0.0983618 1.189 53 77 38
-0.114973 0.0984445 1.19 53 77 38
-0.113125 0.0984445 1.19 53 77 38
-0.111277 0.0984445 1.19 53 77 38
-0.109429 0.0984445 1.19 53 77 38
-0.107581 0.0984445 1.19 52 76 37
-0.105644 0.0983618 1.189 52 76 37
-0.103797 0.0983618 1.189 52 75 38
-0.101951 0.0983618 1.189 52 75 38
-0.100104 0.0983618 1.189 52 75 38
-0.0981751 0.098279 1.188 53 76 39
-0.0963301 0.098279 1.188 55 77 43
-0.0944851 0.098279 1.188 53 75 41
-0.0908715 0.0983618 1.189 53 75 41
-0.0890249 0.0983618 1.189 52 73 41
-0.0872517 0.0984445 1.19 52 73 41
-0.0854036 0.0984445 1.19 51 72 40
-0.0836257 0.0985272 1.191 51 72 40
-0.0818447 0.0986099 1.192 51 72 40
-0.0800606 0.0986927 1.193 52 73 41
-0.0783389 0.0988581 1.195 52 73 41
-0.0764831 0.0988581 1.195 52 73 41
-0.0747521 0.0990236 1.197 51 71 42
-0.0728931 0.0990236 1.197 49 69 40
-0.0710341 0.0990236 1.197 48 68 39
-0.0691751 0.0990236 1.197 46 66 37
-0.0673162 0.0990236 1.197 48 68 39
-0.0654572 0.0990236 1.197 46 66 37
-0.0635982 0.0990236 1.197 45 65 36
-0.0617392 0.0990236 1.197 46 66 37
-0.0598802 0.0990236 1.197 46 66 37
-0.0580212 0.0990236 1.197 45 65 36
-0.0561623 0.0990236 1.197 45 65 36
-0.0543033 0.0990236 1.197 45 65 36
-0.0524443 0.0990236 1.197 45 65 38
-0.0505853 0.0990236 1.197 45 65 38
-0.0487263 0.0990236 1.197 44 64 37
-0.0468282 0.0989408 1.196 44 64 37
-0.0449332 0.0988581 1.195 44 62 35
-0.0430052 0.0986927 1.193 44 62 35
-0.0411524 0.0986927 1.193 40 58 31
-0.0392667 0.0986099 1.192 38 56 29
-0.0374155 0.0986099 1.192 40 58 31
-0.0355344 0.0985272 1.191 40 58 31
-0.0336848 0.0985272 1.191 43 61 34
-0.0318351 0.0985272 1.191 39 57 30
-0.0299855 0.0985272 1.191 38 56 29
-0.0281122 0.0984445 1.19 38 56 29
-0.0262641 0.0984445 1.19 38 56 29
-0.0244159 0.0984445 1.19 38 56 29
-0.0225489 0.0983618 1.189 38 56 29
-0.0206849 0.098279 1.188 33 51 24
-0.018824 0.0981963 1.187 29 47 20
-0.0169806 0.0981963 1.187 34 52 25
-0.0151116 0.0980309 1.185 36 54 27
-0.0132825 0.0981136 1.186 36 54 27
-0.0114502 0.0981963 1.187 40 57 32
-0.00960679 0.0981963 1.187 33 50 25
-0.00777641 0.0983618 1.189 32 49 24
-0.00593484 0.0984445 1.19 33 50 25
-0.00409017 0.0985272 1.191 34 51 26
-0.00224239 0.0986099 1.192 33 50 25
-0.000392153 0.0988581 1.195 34 51 26
0.00146495 0.0989408 1.196 33 50 25
0.00518847 0.0991063 1.198 33 50 25
0.00705489 0.099189 1.199 34 51 26
0.00892441 0.0992717 1.2 34 51 26
0.010797 0.0993545 1.201 34 51 26
0.0126517 0.0992717 1.2 33 50 25
0.0145274 0.0993545 1.201 32 49 24
0.016379 0.0992717 1.2 33 50 25
0.0182274 0.099189 1.199 33 50 25
0.0200727 0.0991063 1.198 34 51 26
0.021915 0.0990236 1.197 38 55 30
0.0237541 0.0989408 1.196 36 53 28
0.0255901 0.0988581 1.195 36 53 28
0.027446 0.0988581 1.195 34 51 26
0.0292528 0.0986927 1.193 33 51 24
0.0311056 0.0986927 1.193 34 52 25
0.0329584 0.0986927 1.193 34 52 25
0.0348111 0.0986927 1.193 39 57 30
0.0366639 0.0986927 1.193 34 52 25
0.0385167 0.0986927 1.193 36 54 27
0.0404033 0.0987754 1.194 37 55 28
0.0422576 0.0987754 1.194 37 55 28
0.0441119 0.0987754 1.194 36 54 27
0.0459662 0.0987754 1.194 36 54 27
0.0477805 0.0986927 1.193 36 54 27
0.0495917 0.0986099 1.192 37 55 28
0.0514429 0.0986099 1.192 37 55 28
0.0532941 0.0986099 1.192 36 54 27
0.0551453 0.0986099 1.192 37 55 28
0.0569965 0.0986099 1.192 37 55 28
0.0588478 0.0986099 1.192 37 55 28
0.060699 0.0986099 1.192 37 55 28
0.0625502 0.0986099 1.192 34 52 23
0.0643474 0.0985272 1.191 36 54 25
0.0661415 0.0984445 1.19 38 53 25
0.0679896 0.0984445 1.19 39 54 26
0.0698377 0.0984445 1.19 40 55 27
0.0716858 0.0984445 1.19 40 55 27
0.0735339 0.0984445 1.19 40 55 27
0.0753187 0.0983618 1.189 39 54 26
0.0771652 0.0983618 1.189 39 54 26
0.0790118 0.0983618 1.189 41 56 28
0.0807903 0.098279 1.188 41 56 28
0.0826353 0.098279 1.188 42 57 29
0.0844803 0.098279 1.188 42 57 29
0.0863254 0.098279 1.188 42 57 29
0.0881704 0.098279 1.188 43 58 30
0.0899396 0.0981963 1.187 41 56 28
0.091783 0.0981963 1.187 40 55 27
0.0934687 0.0980309 1.185 41 56 28
0.0953091 0.0980309 1.185 41 56 28
0.0970675 0.0979481 1.184 41 56 28
0.0989062 0.0979481 1.184 41 56 28
0.10066 0.0978654 1.183 40 55 27
0.102411 0.0977827 1.182 40 55 27
0.104246 0.0977827 1.182 41 56 28
0.106082 0.0977827 1.182 42 57 29
0.107918 0.0977827 1.182 43 58 30
0.109846 0.0978654 1.183 43 58 30
0.111872 0.0980309 1.185 42 57 29
0.113713 0.0980309 1.185 41 56 28
0.11565 0.0981136 1.186 41 56 28
0.117591 0.0981963 1.187 41 56 28
0.119435 0.0981963 1.187 43 58 30
0.12138 0.098279 1.188 45 60 32
0.123329 0.0983618 1.189 43 58 30
0.125281 0.0984445 1.19 43 58 30
0.127236 0.0985272 1.191 42 57 29
0.129086 0.0985272 1.191 42 57 29
0.131045 0.0986099 1.192 43 58 30
0.132896 0.0986099 1.192 45 60 32
0.134748 0.0986099 1.192 45 60 32
0.136713 0.0986927 1.193 43 58 30
0.138682 0.0987754 1.194 43 58 30
0.140537 0.0987754 1.194 45 60 32
0.142391 0.0987754 1.194 43 58 30
0.144245 0.0987754 1.194 41 59 30
0.145977 0.0986927 1.193 41 59 30
0.147706 0.0986099 1.192 41 59 30
0.149432 0.0985272 1.191 43 61 32
0.151282 0.0985272 1.191 44 62 33
0.153131 0.0985272 1.191 44 62 33
0.154851 0.0984445 1.19 44 63 31
0.156699 0.0984445 1.19 43 62 30
0.158414 0.0983618 1.189 41 60 28
0.160126 0.098279 1.188 41 60 28
0.161971 0.098279 1.188 43 59 28
0.163678 0.0981963 1.187 43 59 28
0.165521 0.0981963 1.187 43 59 28
0.167224 0.0981136 1.186 43 59 28
0.168923 0.0980309 1.185 43 59 28
0.170763 0.0980309 1.185 42 58 27
0.172458 0.0979481 1.184 45 62 29
0.174297 0.0979481 1.184 48 65 32
0.175987 0.0978654 1.183 52 69 36
0.177674 0.0977827 1.182 53 70 37
0.179509 0.0977827 1.182 53 70 37
0.181345 0.0977827 1.182 46 63 30
0.183181 0.0977827 1.182 43 63 29
0.185173 0.0978654 1.183 41 61 27
0.18701 0.0978654 1.183 45 65 31
0.189007 0.0979481 1.184 44 64 30
0.190846 0.0979481 1.184 41 61 27
0.192847 0.0980309 1.185 41 61 27
0.194688 0.0980309 1.185 53 73 39
0.19686 0.0981963 1.187 52 72 38
0.198703 0.0981963 1.187 47 68 31
0.200716 0.098279 1.188 47 68 31
0.202561 0.098279 1.188 47 68 31
0.204578 0.0983618 1.189 48 69 32
0.206598 0.0984445 1.19 50 71 34
0.208446 0.0984445 1.19 50 71 34
0.210294 0.0984445 1.19 48 70 31
0.212142 0.0984445 1.19 52 74 35
0.21399 0.0984445 1.19 51 73 34
0.215838 0.0984445 1.19 51 73 34
0.217687 0.0984445 1.19 52 74 35
0.219535 0.0984445 1.19 51 73 34
0.221383 0.0984445 1.19 52 74 35
0.223231 0.0984445 1.19 53 75 36
0.225079 0.0984445 1.19 53 75 36
0.226927 0.0984445 1.19 53 75 36
0.228967 0.0985272 1.191 51 73 34
0.230817 0.0985272 1.191 51 73 34
0.232667 0.0985272 1.191 51 72 35
0.234713 0.0986099 1.192 50 71 34
0.236565 0.0986099 1.192 47 68 31
0.238416 0.0986099 1.192 47 68 31
0.240267 0.0986099 1.192 45 66 29
0.242118 0.0986099 1.192 47 68 31
0.243969 0.0986099 1.192 47 68 31
0.246027 0.0986927 1.193 46 67 30
0.24788 0.0986927 1.193 45 66 29
0.249732 0.0986927 1.193 45 66 29
0.251585 0.0986927 1.193 44 65 28
0.253438 0.0986927 1.193 44 65 28
0.255505 0.0987754 1.194 44 65 28
0.257359 0.0987754 1.194 44 65 28
0.259213 0.0987754 1.194 43 64 27
0.261068 0.0987754 1.194 43 64 27
0.263142 0.0988581 1.195 41 62 25
0.264776 0.0987754 1.194 43 64 27
0.266631 0.0987754 1.194 41 62 25
0.26826 0.0986927 1.193 43 64 27
0.270339 0.0987754 1.194 44 65 28
0.271966 0.0986927 1.193 44 65 28
0.273589 0.0986099 1.192 44 64 30
0.27544 0.0986099 1.192 44 64 30
0.277291 0.0986099 1.192 44 64 30
0.278908 0.0985272 1.191 44 64 30
0.280758 0.0985272 1.191 43 63 29
0.28237 0.0984445 1.19 44 64 30
0.284219 0.0984445 1.19 45 65 31
0.285826 0.0983618 1.189 46 66 32
0.287673 0.0983618 1.189 48 68 34
0.289032 0.0981963 1.187 48 68 34
0.290876 0.0981963 1.187 48 68 34
0.292719 0.0981963 1.187 47 67 33
0.294563 0.0981963 1.187 46 67 30
0.296406 0.0981963 1.187 46 67 30
0.298501 0.098279 1.188 46 67 30
0.300093 0.0981963 1.187 46 67 30
0.301937 0.0981963 1.187 47 69 30
0.30378 0.0981963 1.187 48 70 31
0.305881 0.098279 1.188 48 70 31
0.307467 0.0981963 1.187 47 69 30
0.30931 0.0981963 1.187 46 68 29
0.311416 0.098279 1.188 47 69 30
0.313261 0.098279 1.188 48 70 31
0.315371 0.0983618 1.189 48 70 31
0.317218 0.0983618 1.189 50 72 33
0.319064 0.0983618 1.189 50 72 33
0.321181 0.0984445 1.19 49 66 28
0.323029 0.0984445 1.19 57 74 36
0.324877 0.0984445 1.19 66 85 47
0.326725 0.0984445 1.19 67 86 48
0.328573 0.0984445 1.19 69 88 48
0.330421 0.0984445 1.19 70 89 49
0.332269 0.0984445 1.19 70 89 49
0.334117 0.0984445 1.19 72 91 51
0.335966 0.0984445 1.19 74 93 53
0.338098 0.0985272 1.191 74 93 53
0.340233 0.0986099 1.192 74 93 53
0.342084 0.0986099 1.192 71 90 50
0.343935 0.0986099 1.192 71 90 52
0.345786 0.0986099 1.192 71 90 52
0.347346 0.0985272 1.191 72 89 56
0.349196 0.0985272 1.191 72 89 56
0.35075 0.0984445 1.19 71 87 56
0.352302 0.0983618 1.189 70 86 55
0.354149 0.0983618 1.189 70 86 55
0.355696 0.098279 1.188 77 93 62
0.35724 0.0981963 1.187 64 73 46
0.358781 0.0981136 1.186 60 69 42
0.360319 0.0980309 1.185 117 125 102
0.361242 0.0977827 1.182 107 115 92
0.362464 0.0976172 1.18 56 59 44
0.362753 0.0972036 1.175 63 66 51
0.362716 0.0967072 1.169 54 59 55
0.36266 0.0962109 1.163 65 70 66
0.360919 0.0948045 1.146 217 225 218
0.361432 0.0944736 1.142 188 195 191
0.36257 0.0943082 1.14 226 233 229
0.363382 0.09406 1.137 244 247 255
0.365147 0.09406 1.137 168 171 179
0.366913 0.09406 1.137 105 109 114
0.3703 0.0944736 1.142 109 113 118
-0.167701 0.100885 1.197 49 72 40
-0.165842 0.100885 1.197 48 71 39
-0.163846 0.1008 1.196 49 72 40
-0.161989 0.1008 1.196 49 72 40
-0.159997 0.100716 1.195 49 72 40
-0.158009 0.100632 1.194 49 72 40
-0.155893 0.100463 1.192 49 73 39
-0.154042 0.100463 1.192 49 73 39
-0.152063 0.100379 1.191 51 76 39
-0.150087 0.100295 1.19 53 78 41
-0.148115 0.100211 1.189 53 78 41
-0.146145 0.100126 1.188 53 78 41
-0.144179 0.100042 1.187 57 82 45
-0.142335 0.100042 1.187 54 79 42
-0.140492 0.100042 1.187 55 80 43
-0.138532 0.0999577 1.186 53 78 41
-0.136574 0.0998734 1.185 54 79 42
-0.134734 0.0998734 1.185 51 76 39
-0.132782 0.0997891 1.184 54 79 42
-0.130943 0.0997891 1.184 54 79 42
-0.129104 0.0997891 1.184 53 79 40
-0.127265 0.0997891 1.184 54 80 41
-0.123692 0.0998734 1.185 55 79 40
-0.121954 0.0999577 1.186 57 81 42
-0.120214 0.100042 1.187 56 80 41
-0.11837 0.100042 1.187 53 77 38
-0.116625 0.100126 1.188 56 80 41
-0.114877 0.100211 1.189 56 80 41
-0.11303 0.100211 1.189 56 80 41
-0.111277 0.100295 1.19 53 77 38
-0.109429 0.100295 1.19 53 77 38
-0.107491 0.100211 1.189 52 75 38
-0.105644 0.100211 1.189 51 74 37
-0.103797 0.100211 1.189 52 75 38
-0.101865 0.100126 1.188 52 75 38
-0.10002 0.100126 1.188 53 75 41
-0.0981751 0.100126 1.188 56 78 44
-0.0963301 0.100126 1.188 56 78 44
-0.0944851 0.100126 1.188 55 77 43
-0.0908715 0.100211 1.189 55 77 43
-0.0890998 0.100295 1.19 55 76 44
-0.0872517 0.100295 1.19 55 76 44
-0.0854036 0.100295 1.19 53 74 42
-0.0836959 0.100463 1.192 55 76 44
-0.0818447 0.100463 1.192 52 73 41
-0.0800606 0.100548 1.193 52 73 41
-0.0783389 0.100716 1.195 51 72 40
-0.0764831 0.100716 1.195 51 72 40
-0.0747521 0.100885 1.197 51 72 40
-0.0728931 0.100885 1.197 50 71 39
-0.0710341 0.100885 1.197 49 70 38
-0.0691751 0.100885 1.197 45 66 34
-0.0673162 0.100885 1.197 48 69 37
-0.0655119 0.100969 1.198 45 66 34
-0.0636513 0.100969 1.198 46 67 35
-0.0617908 0.100969 1.198 48 69 37
-0.0598802 0.100885 1.197 46 66 37
-0.0580212 0.100885 1.197 45 65 36
-0.0561623 0.100885 1.197 45 65 36
-0.0543033 0.100885 1.197 45 65 36
-0.0524443 0.100885 1.197 45 65 38
-0.0505853 0.100885 1.197 44 64 37
-0.0487263 0.100885 1.197 44 64 37
-0.0468282 0.1008 1.196 44 64 37
-0.0449332 0.100716 1.195 42 62 35
-0.0430412 0.100632 1.194 37 57 30
-0.0411524 0.100548 1.193 36 56 29
-0.0392667 0.100463 1.192 38 58 31
-0.0374155 0.100463 1.192 38 58 31
-0.0355643 0.100463 1.192 39 59 32
-0.0336848 0.100379 1.191 41 61 34
-0.0318351 0.100379 1.191 44 64 37
-0.0299855 0.100379 1.191 39 57 30
-0.0281122 0.100295 1.19 39 57 30
-0.0262641 0.100295 1.19 38 56 29
-0.0244159 0.100295 1.19 37 55 28
-0.0225489 0.100211 1.189 38 56 29
-0.0206675 0.100042 1.187 37 55 28
-0.0188082 0.0999577 1.186 36 54 27
-0.0169663 0.0999577 1.186 37 55 28
-0.0151116 0.0998734 1.185 37 55 28
-0.0132825 0.0999577 1.186 37 55 28
-0.0114502 0.100042 1.187 39 56 31
-0.00960679 0.100042 1.187 33 50 25
-0.00776987 0.100126 1.188 32 49 24
-0.00592986 0.100211 1.189 33 50 25
-0.00408673 0.100295 1.19 34 51 26
-0.00224239 0.100463 1.192 34 51 26
-0.000391825 0.100632 1.194 34 51 26
0.00146495 0.1008 1.196 32 49 24
0.00332515 0.100885 1.197 33 50 25
0.007049 0.100969 1.198 34 51 26
0.00891697 0.101053 1.199 33 50 25
0.0107881 0.101138 1.2 34 51 26
0.0126517 0.101138 1.2 34 51 26
0.0145153 0.101138 1.2 33 50 25
0.0163517 0.100969 1.198 33 50 25
0.0182122 0.100969 1.198 34 51 26
0.020056 0.100885 1.197 34 51 26
0.0218967 0.1008 1.196 34 51 26
0.0237342 0.100716 1.195 33 50 25
0.0255901 0.100716 1.195 34 51 26
0.027423 0.100632 1.194 33 50 25
0.0292528 0.100548 1.193 33 51 24
0.0311056 0.100548 1.193 34 52 25
0.0329584 0.100548 1.193 37 55 28
0.0348111 0.100548 1.193 39 57 30
0.0366639 0.100548 1.193 37 55 28
0.0385167 0.100548 1.193 37 55 28
0.0403694 0.100548 1.193 37 55 28
0.0422576 0.100632 1.194 37 55 28
0.0441119 0.100632 1.194 36 54 27
0.0459662 0.100632 1.194 38 56 29
0.0478206 0.100632 1.194 37 55 28
0.0496749 0.100632 1.194 37 55 28
0.0514861 0.100548 1.193 37 55 28
0.0532941 0.100463 1.192 37 55 28
0.0551453 0.100463 1.192 36 54 25
0.0570444 0.100548 1.193 36 54 25
0.0588478 0.100463 1.192 36 54 25
0.060699 0.100463 1.192 36 54 25
0.0625502 0.100463 1.192 38 53 25
0.0643474 0.100379 1.191 38 53 25
0.066197 0.100379 1.191 39 54 26
0.0679896 0.100295 1.19 39 54 26
0.0698377 0.100295 1.19 40 55 27
0.0716256 0.100211 1.189 40 55 27
0.0734103 0.100126 1.188 40 55 27
0.0752553 0.100126 1.188 40 55 27
0.0771003 0.100126 1.188 40 55 27
0.0788789 0.100042 1.187 41 56 28
0.0807223 0.100042 1.187 41 56 28
0.0825658 0.100042 1.187 41 56 28
0.0844092 0.100042 1.187 42 57 29
0.0862527 0.100042 1.187 43 58 30
0.0880961 0.100042 1.187 43 58 30
0.0897881 0.0998734 1.185 42 57 29
0.0916284 0.0998734 1.185 42 57 29
0.0933899 0.0997891 1.184 42 57 29
0.0950678 0.0996205 1.182 42 57 29
0.0969035 0.0996205 1.182 41 56 28
0.0986556 0.0995363 1.181 42 57 29
0.100405 0.099452 1.18 40 55 27
0.102237 0.099452 1.18 41 56 28
0.10407 0.099452 1.18 41 56 28
0.105902 0.099452 1.18 43 58 30
0.107735 0.099452 1.18 45 60 32
0.10966 0.0995363 1.181 45 60 32
0.111589 0.0996205 1.182 43 58 30
0.113521 0.0997048 1.183 42 57 29
0.115455 0.0997891 1.184 42 57 29
0.117393 0.0998734 1.185 42 57 29
0.119234 0.0998734 1.185 45 60 32
0.121278 0.100042 1.187 45 60 32
0.123122 0.100042 1.187 42 57 29
0.12507 0.100126 1.188 43 58 30
0.127022 0.100211 1.189 42 57 29
0.128977 0.100295 1.19 40 58 29
0.130935 0.100379 1.191 43 61 32
0.132896 0.100463 1.192 41 59 30
0.134748 0.100463 1.192 43 61 32
0.136713 0.100548 1.193 43 61 32
0.138682 0.100632 1.194 44 62 33
0.140537 0.100632 1.194 44 62 33
0.142391 0.100632 1.194 44 62 33
0.144245 0.100632 1.194 43 61 32
0.145977 0.100548 1.193 44 62 33
0.147706 0.100463 1.192 43 61 32
0.149557 0.100463 1.192 43 61 32
0.151409 0.100463 1.192 44 62 33
0.15326 0.100463 1.192 43 61 32
0.154981 0.100379 1.191 41 59 30
0.156699 0.100295 1.19 41 59 30
0.158547 0.100295 1.19 40 59 27
0.16026 0.100211 1.189 40 59 27
0.162107 0.100211 1.189 40 59 27
0.163678 0.100042 1.187 41 60 28
0.165521 0.100042 1.187 43 60 27
0.167224 0.0999577 1.186 43 60 27
0.168923 0.0998734 1.185 42 59 26
0.170763 0.0998734 1.185 41 58 25
0.172458 0.0997891 1.184 41 58 25
0.174297 0.0997891 1.184 42 59 26
0.175987 0.0997048 1.183 42 59 26
0.177674 0.0996205 1.182 41 58 25
0.179509 0.0996205 1.182 43 60 27
0.181345 0.0996205 1.182 45 62 29
0.183181 0.0996205 1.182 41 61 27
0.185016 0.0996205 1.182 40 60 26
0.18701 0.0997048 1.183 43 63 29
0.188847 0.0997048 1.183 44 64 30
0.190846 0.0997891 1.184 43 63 29
0.192847 0.0998734 1.185 43 63 29
0.194688 0.0998734 1.185 45 65 31
0.19686 0.100042 1.187 44 64 30
0.198871 0.100126 1.188 45 66 29
0.200885 0.100211 1.189 45 66 29
0.202731 0.100211 1.189 45 66 29
0.20475 0.100295 1.19 38 59 22
0.206598 0.100295 1.19 47 68 31
0.208621 0.100379 1.191 48 69 32
0.210471 0.100379 1.191 48 70 31
0.21232 0.100379 1.191 48 70 31
0.21399 0.100295 1.19 47 69 30
0.215838 0.100295 1.19 50 72 33
0.217687 0.100295 1.19 50 72 33
0.219535 0.100295 1.19 48 70 31
0.221383 0.100295 1.19 50 72 33
0.223231 0.100295 1.19 51 73 34
0.225079 0.100295 1.19 52 74 35
0.226927 0.100295 1.19 52 74 35
0.228775 0.100295 1.19 51 73 34
0.230817 0.100379 1.191 51 73 34
0.232667 0.100379 1.191 53 71 35
0.234713 0.100463 1.192 52 70 34
0.236565 0.100463 1.192 47 65 29
0.238416 0.100463 1.192 48 66 30
0.240267 0.100463 1.192 47 65 29
0.242321 0.100548 1.193 49 67 31
0.244174 0.100548 1.193 48 66 30
0.246027 0.100548 1.193 47 65 29
0.24788 0.100548 1.193 47 65 29
0.249942 0.100632 1.194 48 66 30
0.251585 0.100548 1.193 48 66 30
0.25365 0.100632 1.194 48 66 30
0.255505 0.100632 1.194 47 65 29
0.257359 0.100632 1.194 46 64 28
0.259213 0.100632 1.194 45 63 27
0.261286 0.100716 1.195 43 61 25
0.263142 0.100716 1.195 43 61 25
0.264776 0.100632 1.194 45 63 27
0.266631 0.100632 1.194 43 64 27
0.268035 0.100463 1.192 44 65 28
0.269886 0.100463 1.192 44 65 28
0.271738 0.100463 1.192 44 65 28
0.273589 0.100463 1.192 44 65 28
0.27544 0.100463 1.192 44 65 28
0.277291 0.100463 1.192 43 64 27
0.278908 0.100379 1.191 43 64 27
0.280522 0.100295 1.19 44 65 28
0.28237 0.100295 1.19 44 65 28
0.284219 0.100295 1.19 45 66 29
0.285826 0.100211 1.189 46 67 30
0.287431 0.100126 1.188 45 66 29
0.289032 0.100042 1.187 45 66 29
0.290876 0.100042 1.187 46 67 30
0.292719 0.100042 1.187 43 64 27
0.294563 0.100042 1.187 44 65 28
0.296406 0.100042 1.187 44 65 28
0.29825 0.100042 1.187 46 67 30
0.300093 0.100042 1.187 46 67 30
0.301937 0.100042 1.187 47 69 30
0.30378 0.100042 1.187 48 70 31
0.305623 0.100042 1.187 48 70 31
0.307726 0.100126 1.188 47 69 30
0.30931 0.100042 1.187 47 69 30
0.311416 0.100126 1.188 47 69 30
0.313525 0.100211 1.189 47 69 30
0.315636 0.100295 1.19 47 69 30
0.317484 0.100295 1.19 48 70 31
0.319333 0.100295 1.19 45 67 28
0.321181 0.100295 1.19 50 69 31
0.3233 0.100379 1.191 57 76 38
0.32515 0.100379 1.191 66 85 47
0.326725 0.100295 1.19 67 86 48
0.328573 0.100295 1.19 68 87 47
0.330421 0.100295 1.19 70 89 49
0.332269 0.100295 1.19 70 89 49
0.334117 0.100295 1.19 70 89 49
0.335966 0.100295 1.19 72 91 51
0.337814 0.100295 1.19 71 90 50
0.339947 0.100379 1.191 72 91 51
0.341797 0.100379 1.191 71 90 50
0.343647 0.100379 1.191 72 91 53
0.345496 0.100379 1.191 72 91 53
0.347346 0.100379 1.191 74 91 58
0.348902 0.100295 1.19 74 91 58
0.35075 0.100295 1.19 72 88 57
0.352302 0.100211 1.189 72 88 57
0.354149 0.100211 1.189 71 87 56
0.355397 0.100042 1.187 72 88 57
0.35724 0.100042 1.187 63 70 43
0.358781 0.0999577 1.186 63 70 43
0.359711 0.0997048 1.183 123 129 106
0.360937 0.0995363 1.181 112 118 95
0.362464 0.099452 1.18 59 62 49
0.362753 0.0990306 1.175 64 67 54
0.362716 0.0985249 1.169 54 59 55
0.362972 0.0981035 1.164 66 71 67
0.360919 0.0965864 1.146 216 224 217
0.361432 0.0962493 1.142 185 192 188
0.361934 0.0959122 1.138 230 237 233
0.363382 0.0958279 1.137 245 248 255
0.364826 0.0957436 1.136 168 171 179
0.366591 0.0957436 1.136 102 108 115
0.369328 0.0959964 1.139 109 115 122
-0.167701 0.102746 1.197 49 73 39
-0.165842 0.102746 1.197 50 74 40
-0.163846 0.10266 1.196 50 73 41
-0.161989 0.10266 1.196 50 73 41
-0.159997 0.102574 1.195 49 72 40
-0.158009 0.102488 1.194 50 73 41
-0.156024 0.102403 1.193 53 77 43
-0.154042 0.102317 1.192 53 77 43
-0.152191 0.102317 1.192 53 78 41
-0.150214 0.102231 1.191 54 79 42
-0.148239 0.102145 1.19 53 78 41
-0.146391 0.102145 1.19 54 79 42
-0.1443 0.101973 1.188 57 82 45
-0.142455 0.101973 1.188 55 80 43
-0.140492 0.101888 1.187 55 80 43
-0.138648 0.101888 1.187 55 80 43
-0.13669 0.101802 1.186 56 81 44
-0.134734 0.101716 1.185 55 80 43
-0.132782 0.10163 1.184 55 80 43
-0.130943 0.10163 1.184 54 79 42
-0.129104 0.10163 1.184 53 78 41
-0.127265 0.10163 1.184 54 79 42
-0.123692 0.101716 1.185 57 81 42
-0.120113 0.101802 1.186 57 81 42
-0.11837 0.101888 1.187 55 79 40
-0.116527 0.101888 1.187 56 80 41
-0.11478 0.101973 1.188 57 81 42
-0.11303 0.102059 1.189 56 80 41
-0.111184 0.102059 1.189 53 77 38
-0.109337 0.102059 1.189 55 79 40
-0.107491 0.102059 1.189 55 78 41
-0.105555 0.101973 1.188 52 75 38
-0.10371 0.101973 1.188 52 75 38
-0.101865 0.101973 1.188 53 76 39
-0.10002 0.101973 1.188 52 74 40
-0.0981751 0.101973 1.188 55 77 43
-0.0963301 0.101973 1.188 56 78 44
-0.0944851 0.101973 1.188 56 78 44
-0.0908715 0.102059 1.189 56 77 45
-0.0890998 0.102145 1.19 55 76 44
-0.0872517 0.102145 1.19 53 74 42
-0.0854754 0.102231 1.191 52 73 41
-0.0836959 0.102317 1.192 53 74 42
-0.0818447 0.102317 1.192 52 73 41
-0.0801277 0.102488 1.194 51 72 40
-0.0783389 0.102574 1.195 51 72 40
-0.0764831 0.102574 1.195 50 71 39
-0.0746896 0.10266 1.196 50 71 39
-0.0728931 0.102746 1.197 50 71 39
-0.0710341 0.102746 1.197 49 70 38
-0.0691751 0.102746 1.197 49 70 38
-0.0673162 0.102746 1.197 50 71 39
-0.0654572 0.102746 1.197 49 70 38
-0.0636513 0.102832 1.198 49 70 38
-0.0617908 0.102832 1.198 49 70 38
-0.0598802 0.102746 1.197 45 66 34
-0.0580212 0.102746 1.197 39 60 28
-0.0561623 0.102746 1.197 44 64 35
-0.0543033 0.102746 1.197 45 65 36
-0.0524443 0.102746 1.197 46 66 37
-0.0505853 0.102746 1.197 44 64 35
-0.0487263 0.102746 1.197 44 64 37
-0.0468282 0.10266 1.196 44 64 37
-0.0449332 0.102574 1.195 44 64 37
-0.0430773 0.102574 1.195 44 64 37
-0.0412214 0.102574 1.195 48 68 41
-0.0392667 0.102317 1.192 46 66 39
-0.0374155 0.102317 1.192 44 64 37
-0.0355643 0.102317 1.192 41 61 34
-0.0336848 0.102231 1.191 42 62 35
-0.0318351 0.102231 1.191 39 59 32
-0.0299855 0.102231 1.191 39 57 30
-0.0281122 0.102145 1.19 40 58 31
-0.0262641 0.102145 1.19 39 57 30
-0.0243954 0.102059 1.189 38 56 29
-0.0225299 0.101973 1.188 38 56 29
-0.0206675 0.101888 1.187 38 56 29
-0.0188082 0.101802 1.186 38 56 29
-0.0169663 0.101802 1.186 36 54 27
-0.0151116 0.101716 1.185 34 52 25
-0.0132713 0.101716 1.185 32 50 23
-0.0114406 0.101802 1.186 26 43 18
-0.00960679 0.101888 1.187 31 48 23
-0.00776333 0.101888 1.187 31 48 23
-0.00592487 0.101973 1.188 32 49 24
-0.00408673 0.102145 1.19 34 51 26
-0.00224239 0.102317 1.192 33 50 25
-0.000391497 0.102403 1.193 33 50 25
0.00146372 0.102574 1.195 33 50 25
0.00332515 0.102746 1.197 34 51 26
0.00518414 0.102746 1.197 34 51 26
0.007049 0.102832 1.198 36 53 28
0.00890954 0.102832 1.198 36 53 28
0.0107701 0.102832 1.198 37 54 29
0.0126306 0.102832 1.198 36 53 28
0.0144911 0.102832 1.198 36 53 28
0.016338 0.102746 1.197 34 51 26
0.018197 0.102746 1.197 34 51 26
0.0200392 0.10266 1.196 34 51 26
0.0218784 0.102574 1.195 34 51 26
0.0237342 0.102574 1.195 33 50 25
0.0255901 0.102574 1.195 37 54 29
0.0274 0.102403 1.193 36 53 28
0.0292283 0.102317 1.192 34 52 25
0.0310795 0.102317 1.192 36 54 27
0.0329584 0.102403 1.193 38 56 29
0.0348111 0.102403 1.193 37 55 28
0.0366639 0.102403 1.193 34 52 25
0.038549 0.102488 1.194 36 54 27
0.0404033 0.102488 1.194 34 52 25
0.0422576 0.102488 1.194 34 52 25
0.0441119 0.102488 1.194 34 52 25
0.0460047 0.102574 1.195 38 56 29
0.0478206 0.102488 1.194 37 55 28
0.0496749 0.102488 1.194 37 55 28
0.0515292 0.102488 1.194 37 55 28
0.0533835 0.102488 1.194 37 55 28
0.0551453 0.102317 1.192 36 54 27
0.0570444 0.102403 1.193 36 54 27
0.0588971 0.102403 1.193 37 55 28
0.060699 0.102317 1.192 36 54 27
0.0625502 0.102317 1.192 38 53 25
0.0643474 0.102231 1.191 38 53 25
0.066197 0.102231 1.191 36 51 23
0.0679896 0.102145 1.19 39 54 26
0.0698377 0.102145 1.19 40 55 27
0.0716256 0.102059 1.189 40 55 27
0.0734103 0.101973 1.188 40 55 27
0.075192 0.101888 1.187 40 55 27
0.0770354 0.101888 1.187 41 56 28
0.0788789 0.101888 1.187 41 56 28
0.0806543 0.101802 1.186 41 56 28
0.0824962 0.101802 1.186 41 56 28
0.0843381 0.101802 1.186 42 57 29
0.0861074 0.101716 1.185 43 58 30
0.0879477 0.101716 1.185 43 58 30
0.0897123 0.10163 1.184 43 58 30
0.0914737 0.101544 1.183 43 58 30
0.0932321 0.101458 1.182 42 57 29
0.0949874 0.101373 1.181 41 56 28
0.0967395 0.101287 1.18 41 56 28
0.0985721 0.101287 1.18 42 57 29
0.100405 0.101287 1.18 41 56 28
0.102151 0.101201 1.179 43 58 30
0.103982 0.101201 1.179 43 58 30
0.105723 0.101115 1.178 45 60 32
0.107644 0.101201 1.179 45 60 32
0.109568 0.101287 1.18 45 60 32
