ply
format ascii 1.0
comment Created by Open3D
element vertex 1351
property double x
property double y
property double z
property uchar red
property uchar green
property uchar blue
end_header
0.318818 -0.0386399 1.195 29 47 20
0.320674 -0.0386399 1.195 29 47 20
0.32253 -0.0386399 1.195 29 47 20
0.324386 -0.0386399 1.195 29 47 20
0.326242 -0.0386399 1.195 30 48 21
0.328098 -0.0386399 1.195 31 49 22
0.329954 -0.0386399 1.195 32 50 23
0.33181 -0.0386399 1.195 32 50 23
0.333665 -0.0386399 1.195 37 55 28
0.335521 -0.0386399 1.195 36 54 27
0.337377 -0.0386399 1.195 35 55 28
0.339233 -0.0386399 1.195 34 54 27
0.341089 -0.0386399 1.195 32 52 25
0.342658 -0.0386076 1.194 32 52 25
0.344224 -0.0385752 1.193 35 55 28
0.346076 -0.0385752 1.193 32 52 25
0.347638 -0.0385429 1.192 37 53 31
0.349196 -0.0385106 1.191 51 67 45
0.35075 -0.0384782 1.19 65 79 62
0.352302 -0.0384459 1.189 58 72 55
0.353255 -0.0383489 1.186 63 74 60
0.354798 -0.0383166 1.185 91 102 88
0.356337 -0.0382842 1.184 81 89 77
0.357571 -0.0382196 1.182 24 32 20
0.359407 -0.0382196 1.182 26 28 22
0.360631 -0.0381549 1.18 37 39 33
0.362156 -0.0381225 1.179 33 31 31
0.363679 -0.0380902 1.178 31 29 29
0.364267 -0.0379609 1.174 63 66 69
0.363908 -0.0377345 1.167 66 69 72
0.36384 -0.0375405 1.161 68 74 81
0.361432 -0.0369262 1.142 129 136 145
0.361616 -0.0367645 1.137 142 149 158
0.361784 -0.0366028 1.132 147 156 165
0.363542 -0.0366028 1.132 139 148 157
0.367559 -0.0368292 1.139 82 91 102
0.371273 -0.0370232 1.145 84 93 104
-0.16546 -0.0363509 1.181 4 20 3
-0.163764 -0.0363817 1.182 10 26 9
-0.162339 -0.036474 1.185 14 31 11
-0.160634 -0.0365048 1.186 14 31 11
-0.158926 -0.0365356 1.187 15 32 12
-0.157215 -0.0365664 1.188 16 33 13
-0.155501 -0.0365971 1.189 16 34 12
-0.153784 -0.0366279 1.19 18 36 14
-0.151936 -0.0366279 1.19 27 44 19
-0.150087 -0.0366279 1.19 34 51 26
-0.148115 -0.0365971 1.189 38 56 29
-0.146268 -0.0365971 1.189 39 57 30
-0.1443 -0.0365664 1.188 36 57 25
-0.142335 -0.0365356 1.187 36 57 25
-0.140373 -0.0365048 1.186 37 58 26
-0.138415 -0.036474 1.185 38 59 27
-0.136574 -0.036474 1.185 35 56 24
-0.134507 -0.0364125 1.183 37 58 26
-0.132669 -0.0364125 1.183 37 58 26
-0.130832 -0.0364125 1.183 37 58 26
-0.128995 -0.0364125 1.183 35 56 24
-0.127158 -0.0364125 1.183 36 57 25
-0.12532 -0.0364125 1.183 34 55 23
-0.123483 -0.0364125 1.183 29 50 18
-0.121749 -0.0364432 1.184 31 52 20
-0.120011 -0.036474 1.185 31 52 20
-0.118171 -0.036474 1.185 32 53 21
-0.114587 -0.0365048 1.186 34 55 23
-0.11284 -0.0365356 1.187 32 53 21
-0.110997 -0.0365356 1.187 32 53 21
-0.109245 -0.0365664 1.188 32 53 21
-0.107581 -0.0366279 1.19 34 55 23
-0.105733 -0.0366279 1.19 34 55 23
-0.104059 -0.0366895 1.192 32 53 21
-0.102208 -0.0366895 1.192 34 55 23
-0.100357 -0.0366895 1.192 31 52 20
-0.0985883 -0.0367203 1.193 28 49 17
-0.0968166 -0.036751 1.194 29 50 18
-0.0949623 -0.036751 1.194 28 49 17
-0.093108 -0.036751 1.194 20 40 11
-0.0913301 -0.0367818 1.195 18 38 9
-0.0894742 -0.0367818 1.195 22 42 13
-0.0876183 -0.0367818 1.195 24 44 15
-0.0857624 -0.0367818 1.195 27 47 18
-0.0839066 -0.0367818 1.195 27 47 18
-0.0821193 -0.0368126 1.196 28 49 17
-0.0802619 -0.0368126 1.196 27 48 16
-0.0784045 -0.0368126 1.196 28 49 17
-0.0765471 -0.0368126 1.196 28 49 17
-0.0746896 -0.0368126 1.196 27 48 16
-0.0727713 -0.0367818 1.195 27 48 16
-0.0709154 -0.0367818 1.195 28 49 17
-0.0690596 -0.0367818 1.195 28 49 17
-0.0671474 -0.036751 1.194 29 50 18
-0.0652931 -0.036751 1.194 28 49 17
-0.0633857 -0.0367203 1.193 29 50 18
-0.0615329 -0.0367203 1.193 28 49 17
-0.0596801 -0.0367203 1.193 29 50 18
-0.0578274 -0.0367203 1.193 30 51 19
-0.0560215 -0.036751 1.194 29 50 18
-0.0541672 -0.036751 1.194 28 49 17
-0.0523129 -0.036751 1.194 28 49 17
-0.0504585 -0.036751 1.194 29 50 18
-0.0485635 -0.0367203 1.193 28 49 17
-0.0467107 -0.0367203 1.193 27 48 16
-0.0448204 -0.0366895 1.192 27 49 15
-0.0429331 -0.0366587 1.191 28 50 16
-0.0410144 -0.0365971 1.189 29 51 17
-0.039102 -0.0365356 1.187 29 51 17
-0.0371958 -0.036474 1.185 30 52 18
-0.0352958 -0.0364125 1.183 30 52 18
-0.0334302 -0.0363817 1.182 30 52 18
-0.0315946 -0.0363817 1.182 30 52 18
-0.0297589 -0.0363817 1.182 30 52 18
-0.0279704 -0.0364432 1.184 29 51 17
-0.0261537 -0.036474 1.185 30 52 18
-0.0243134 -0.036474 1.185 29 51 17
-0.0225109 -0.0365356 1.187 29 51 17
-0.0206849 -0.0365664 1.188 29 51 17
-0.0188716 -0.0366279 1.19 30 52 18
-0.0170235 -0.0366279 1.19 30 52 18
-0.0152009 -0.0366895 1.192 29 51 17
-0.0133497 -0.0366895 1.192 28 50 16
-0.0114985 -0.0366895 1.192 31 53 19
-0.00964725 -0.0366895 1.192 34 56 22
-0.00779604 -0.0366895 1.192 34 57 20
-0.00594482 -0.0366895 1.192 32 55 18
-0.0040936 -0.0366895 1.192 35 58 21
-0.00224239 -0.0366895 1.192 35 58 21
-0.000390841 -0.0366587 1.191 37 60 23
0.00145882 -0.0366587 1.191 39 62 25
0.00330571 -0.0366279 1.19 39 62 25
0.00515382 -0.0366279 1.19 39 62 25
0.00700193 -0.0366279 1.19 37 60 23
0.00885004 -0.0366279 1.19 36 59 22
0.0106982 -0.0366279 1.19 37 60 23
0.0125463 -0.0366279 1.19 35 58 21
0.0143944 -0.0366279 1.19 38 61 24
0.0162425 -0.0366279 1.19 38 61 24
0.0180906 -0.0366279 1.19 39 63 24
0.0199387 -0.0366279 1.19 38 62 23
0.0217685 -0.0365971 1.189 38 62 23
0.0236151 -0.0365971 1.189 39 63 24
0.0254402 -0.0365664 1.188 37 61 22
0.0272622 -0.0365356 1.187 38 62 23
0.0291057 -0.0365356 1.187 38 62 23
0.0309491 -0.0365356 1.187 39 63 24
0.0327926 -0.0365356 1.187 38 62 21
0.0346069 -0.0365048 1.186 38 62 21
0.0364488 -0.0365048 1.186 39 63 22
0.0382907 -0.0365048 1.186 41 65 24
0.0401664 -0.0365356 1.187 41 66 22
0.0420099 -0.0365356 1.187 42 67 23
0.0438903 -0.0365664 1.188 41 66 22
0.0457353 -0.0365664 1.188 41 66 22
0.0476203 -0.0365971 1.189 42 67 23
0.0494669 -0.0365971 1.189 42 67 23
0.0513566 -0.0366279 1.19 42 67 23
0.0532047 -0.0366279 1.19 43 68 24
0.0550528 -0.0366279 1.19 44 69 25
0.0569009 -0.0366279 1.19 44 69 25
0.058749 -0.0366279 1.19 43 68 24
0.0605971 -0.0366279 1.19 43 68 24
0.0624452 -0.0366279 1.19 42 67 23
0.0642934 -0.0366279 1.19 45 70 26
0.0661415 -0.0366279 1.19 46 71 27
0.0679896 -0.0366279 1.19 46 71 27
0.0698377 -0.0366279 1.19 45 70 26
0.0716858 -0.0366279 1.19 44 69 25
0.0735339 -0.0366279 1.19 43 68 24
0.075382 -0.0366279 1.19 43 68 24
0.0772301 -0.0366279 1.19 46 69 25
0.0790782 -0.0366279 1.19 47 70 26
0.0809264 -0.0366279 1.19 47 70 26
0.0827745 -0.0366279 1.19 47 70 26
0.0846226 -0.0366279 1.19 46 70 24
0.0864707 -0.0366279 1.19 46 70 24
0.0883188 -0.0366279 1.19 47 71 25
0.0901669 -0.0366279 1.19 48 72 26
0.0919377 -0.0365971 1.189 48 72 26
0.0937842 -0.0365971 1.189 50 74 28
0.0956308 -0.0365971 1.189 48 72 26
0.0973954 -0.0365664 1.188 50 74 28
0.0992404 -0.0365664 1.188 50 74 28
0.101 -0.0365356 1.187 50 74 28
0.102844 -0.0365356 1.187 52 76 30
0.104687 -0.0365356 1.187 50 74 28
0.106531 -0.0365356 1.187 51 75 29
0.108374 -0.0365356 1.187 51 75 29
0.11031 -0.0365664 1.188 50 76 30
0.112155 -0.0365664 1.188 51 77 31
0.114 -0.0365664 1.188 53 79 33
0.115943 -0.0365971 1.189 55 81 35
0.117889 -0.0366279 1.19 53 79 33
0.119737 -0.0366279 1.19 53 79 33
0.121687 -0.0366587 1.191 53 79 33
0.123537 -0.0366587 1.191 52 78 32
0.125386 -0.0366587 1.191 52 78 32
0.127236 -0.0366587 1.191 53 79 33
0.129086 -0.0366587 1.191 52 78 32
0.130935 -0.0366587 1.191 50 76 30
0.132785 -0.0366587 1.191 51 77 31
0.134635 -0.0366587 1.191 52 78 32
0.136484 -0.0366587 1.191 52 78 32
0.138334 -0.0366587 1.191 53 79 33
0.140184 -0.0366587 1.191 51 78 29
0.142033 -0.0366587 1.191 49 76 27
0.143883 -0.0366587 1.191 49 76 27
0.145733 -0.0366587 1.191 48 75 26
0.147582 -0.0366587 1.191 49 76 27
0.149432 -0.0366587 1.191 51 78 29
0.151409 -0.0366895 1.192 51 78 29
0.15326 -0.0366895 1.192 52 79 30
0.155111 -0.0366895 1.192 52 79 30
0.156962 -0.0366895 1.192 53 80 31
0.158813 -0.0366895 1.192 53 80 31
0.160665 -0.0366895 1.192 53 80 31
0.162516 -0.0366895 1.192 53 80 31
0.164367 -0.0366895 1.192 53 80 31
0.166218 -0.0366895 1.192 55 82 33
0.16807 -0.0366895 1.192 56 83 34
0.169921 -0.0366895 1.192 55 82 33
0.171772 -0.0366895 1.192 53 80 31
0.173623 -0.0366895 1.192 53 80 31
0.175474 -0.0366895 1.192 52 79 30
0.177326 -0.0366895 1.192 54 79 30
0.179177 -0.0366895 1.192 53 78 29
0.18118 -0.0367203 1.193 52 77 28
0.183033 -0.0367203 1.193 45 70 21
0.184885 -0.0367203 1.193 52 77 28
0.186738 -0.0367203 1.193 57 82 33
0.188591 -0.0367203 1.193 55 80 31
0.190444 -0.0367203 1.193 57 82 33
0.192297 -0.0367203 1.193 55 80 31
0.193987 -0.0366895 1.192 54 79 30
0.195838 -0.0366895 1.192 54 79 30
0.197689 -0.0366895 1.192 53 78 29
0.199373 -0.0366587 1.191 54 79 30
0.201222 -0.0366587 1.191 55 80 31
0.202902 -0.0366279 1.19 55 80 31
0.20475 -0.0366279 1.19 54 79 30
0.206598 -0.0366279 1.19 55 80 31
0.208446 -0.0366279 1.19 55 80 31
0.210294 -0.0366279 1.19 57 81 35
0.212142 -0.0366279 1.19 58 82 36
0.21399 -0.0366279 1.19 58 82 36
0.215838 -0.0366279 1.19 58 82 36
0.217869 -0.0366587 1.191 58 81 37
0.219719 -0.0366587 1.191 57 80 36
0.221755 -0.0366895 1.192 57 80 36
0.223606 -0.0366895 1.192 58 81 37
0.225646 -0.0367203 1.193 53 75 34
0.227499 -0.0367203 1.193 53 75 34
0.229544 -0.036751 1.194 52 74 35
0.231592 -0.0367818 1.195 50 72 33
0.233448 -0.0367818 1.195 50 71 34
0.235304 -0.0367818 1.195 48 69 32
0.23716 -0.0367818 1.195 48 69 32
0.239016 -0.0367818 1.195 48 69 32
0.240872 -0.0367818 1.195 46 66 32
0.242728 -0.0367818 1.195 43 63 29
0.244583 -0.0367818 1.195 36 53 20
0.246439 -0.0367818 1.195 35 52 19
0.248295 -0.0367818 1.195 29 44 16
0.250151 -0.0367818 1.195 22 37 9
0.252007 -0.0367818 1.195 25 43 14
0.25365 -0.036751 1.194 24 42 13
0.255291 -0.0367203 1.193 26 44 17
0.256928 -0.0366895 1.192 25 43 16
0.258779 -0.0366895 1.192 25 43 16
0.260412 -0.0366587 1.191 25 43 16
0.262041 -0.0366279 1.19 26 43 18
0.263668 -0.0365971 1.189 25 42 17
0.265291 -0.0365664 1.188 26 43 18
0.266911 -0.0365356 1.187 26 43 18
0.268754 -0.0365356 1.187 26 44 17
0.27037 -0.0365048 1.186 27 45 18
0.271982 -0.036474 1.185 27 45 18
0.273823 -0.036474 1.185 29 47 20
0.275663 -0.036474 1.185 26 44 17
0.277737 -0.0365048 1.186 25 43 16
0.279815 -0.0365356 1.187 26 44 15
0.281659 -0.0365356 1.187 27 45 16
0.283741 -0.0365664 1.188 27 45 16
0.285826 -0.0365971 1.189 29 47 18
0.287915 -0.0366279 1.19 26 44 15
0.290006 -0.0366587 1.191 25 43 14
0.292101 -0.0366895 1.192 24 42 15
0.293952 -0.0366895 1.192 25 43 16
0.295803 -0.0366895 1.192 26 44 17
0.297655 -0.0366895 1.192 26 44 17
0.299757 -0.0367203 1.193 26 44 17
0.30161 -0.0367203 1.193 29 47 20
0.303463 -0.0367203 1.193 29 47 20
0.305315 -0.0367203 1.193 29 47 20
0.307168 -0.0367203 1.193 26 44 17
0.309021 -0.0367203 1.193 26 44 17
0.310874 -0.0367203 1.193 25 43 16
0.312989 -0.036751 1.194 25 43 16
0.314843 -0.036751 1.194 27 45 18
0.316963 -0.0367818 1.195 29 47 20
0.318552 -0.036751 1.194 29 47 20
0.320406 -0.036751 1.194 29 47 20
0.32226 -0.036751 1.194 29 47 20
0.324115 -0.036751 1.194 30 48 21
0.325696 -0.0367203 1.193 30 48 21
0.327549 -0.0367203 1.193 30 48 21
0.329401 -0.0367203 1.193 32 50 23
0.331254 -0.0367203 1.193 33 51 24
0.333107 -0.0367203 1.193 34 52 25
0.335241 -0.036751 1.194 37 55 28
0.337095 -0.036751 1.194 37 55 28
0.339233 -0.0367818 1.195 37 55 28
0.341089 -0.0367818 1.195 33 51 24
0.342945 -0.0367818 1.195 32 50 23
0.344512 -0.036751 1.194 36 54 27
0.346076 -0.0367203 1.193 34 52 25
0.347929 -0.0367203 1.193 33 49 27
0.349489 -0.0366895 1.192 51 67 45
0.351045 -0.0366587 1.191 45 60 40
0.352599 -0.0366279 1.19 30 45 25
0.354149 -0.0365971 1.189 50 64 49
0.355097 -0.0365048 1.186 84 98 83
0.356638 -0.036474 1.185 72 80 68
0.358176 -0.0364432 1.184 30 38 26
0.359711 -0.0364125 1.183 26 29 21
0.361242 -0.0363817 1.182 37 40 32
0.362464 -0.0363201 1.18 32 31 28
0.364296 -0.0363201 1.18 31 30 27
0.365198 -0.0362278 1.177 56 59 62
0.364843 -0.0360123 1.17 65 68 71
0.364466 -0.0357969 1.163 70 76 83
0.362065 -0.0352121 1.144 128 136 143
0.361934 -0.0350274 1.138 138 146 153
0.362423 -0.0349043 1.134 149 158 167
0.363863 -0.0348735 1.133 141 150 159
0.367881 -0.0350889 1.14 82 91 102
0.371597 -0.0352736 1.146 84 93 104
-0.165319 -0.0344854 1.18 0 13 0
-0.163764 -0.0345438 1.182 5 19 4
-0.162339 -0.0346315 1.185 9 25 10
-0.16077 -0.0346899 1.187 10 26 11
-0.15906 -0.0347192 1.188 11 27 10
-0.157348 -0.0347484 1.189 8 24 7
-0.155632 -0.0347776 1.19 6 23 3
-0.153784 -0.0347776 1.19 6 23 3
-0.151936 -0.0347776 1.19 12 25 4
-0.150087 -0.0347776 1.19 27 40 19
-0.148239 -0.0347776 1.19 33 51 24
-0.146391 -0.0347776 1.19 36 54 27
-0.144422 -0.0347484 1.189 36 54 25
-0.142455 -0.0347192 1.188 32 50 21
-0.140492 -0.0346899 1.187 31 49 20
-0.138648 -0.0346899 1.187 36 54 25
-0.13669 -0.0346607 1.186 38 57 25
-0.134734 -0.0346315 1.185 39 58 26
-0.132894 -0.0346315 1.185 39 58 26
-0.130943 -0.0346023 1.184 36 55 23
-0.129104 -0.0346023 1.184 34 53 21
-0.127265 -0.0346023 1.184 34 53 21
-0.125426 -0.0346023 1.184 33 52 20
-0.123588 -0.0346023 1.184 32 51 19
-0.120011 -0.0346315 1.185 33 52 20
-0.118171 -0.0346315 1.185 36 55 23
-0.114587 -0.0346607 1.186 37 56 24
-0.11284 -0.0346899 1.187 34 53 21
-0.110997 -0.0346899 1.187 34 53 21
-0.109245 -0.0347192 1.188 34 53 21
-0.107491 -0.0347484 1.189 32 53 21
-0.105733 -0.0347776 1.19 31 52 20
-0.103885 -0.0347776 1.19 24 45 13
-0.102122 -0.0348068 1.191 27 48 16
-0.100273 -0.0348068 1.191 30 51 19
-0.0985056 -0.0348361 1.192 29 50 18
-0.0966544 -0.0348361 1.192 27 47 18
-0.0948827 -0.0348653 1.193 28 48 19
-0.09303 -0.0348653 1.193 21 41 12
-0.0911772 -0.0348653 1.193 22 42 13
-0.0893993 -0.0348945 1.194 22 42 13
-0.087545 -0.0348945 1.194 23 43 14
-0.0857624 -0.0349237 1.195 24 44 15
-0.0839066 -0.0349237 1.195 25 45 16
-0.0820507 -0.0349237 1.195 27 48 16
-0.0802619 -0.034953 1.196 27 48 16
-0.0784045 -0.034953 1.196 27 48 16
-0.0765471 -0.034953 1.196 27 48 16
-0.0746896 -0.034953 1.196 27 48 16
-0.0727713 -0.0349237 1.195 27 48 16
-0.0709154 -0.0349237 1.195 28 49 17
-0.0690596 -0.0349237 1.195 28 49 17
-0.0671474 -0.0348945 1.194 28 49 17
-0.0652931 -0.0348945 1.194 28 49 17
-0.0634388 -0.0348945 1.194 27 48 16
-0.0615845 -0.0348945 1.194 27 48 16
-0.0597302 -0.0348945 1.194 28 49 17
-0.0578758 -0.0348945 1.194 28 49 17
-0.0560215 -0.0348945 1.194 27 48 16
-0.0542125 -0.0349237 1.195 28 49 17
-0.0523567 -0.0349237 1.195 27 48 16
-0.0505008 -0.0349237 1.195 28 49 17
-0.0486042 -0.0348945 1.194 28 49 17
-0.0466716 -0.0348361 1.192 27 48 16
-0.0448204 -0.0348361 1.192 28 50 16
-0.0428971 -0.0347776 1.19 28 50 16
-0.0410144 -0.0347484 1.189 28 50 16
-0.039102 -0.0346899 1.187 28 50 16
-0.0371958 -0.0346315 1.185 28 50 16
-0.0352659 -0.0345438 1.182 29 51 17
-0.0334302 -0.0345438 1.182 30 52 18
-0.0315678 -0.0345146 1.181 30 52 18
-0.0297589 -0.0345438 1.182 31 53 19
-0.0279232 -0.0345438 1.182 30 52 18
-0.0261096 -0.034573 1.183 32 54 20
-0.0242928 -0.0346023 1.184 32 54 20
-0.022492 -0.0346607 1.186 32 54 20
-0.0206675 -0.0346899 1.187 31 53 19
-0.0188558 -0.0347484 1.189 30 52 18
-0.0170235 -0.0347776 1.19 30 52 18
-0.0151754 -0.0347776 1.19 30 52 18
-0.0133497 -0.0348361 1.192 30 52 18
-0.0114985 -0.0348361 1.192 30 52 18
-0.00964725 -0.0348361 1.192 31 53 19
-0.00780258 -0.0348653 1.193 31 54 17
-0.00594981 -0.0348653 1.193 34 57 20
-0.00409704 -0.0348653 1.193 36 59 22
-0.00224239 -0.0348361 1.192 36 59 22
-0.000391169 -0.0348361 1.192 36 59 22
0.00145882 -0.0348068 1.191 37 60 23
0.00330849 -0.0348068 1.191 37 60 23
0.00515815 -0.0348068 1.191 38 61 24
0.00700193 -0.0347776 1.19 37 60 23
0.00885004 -0.0347776 1.19 37 60 23
0.0106982 -0.0347776 1.19 38 61 24
0.0125463 -0.0347776 1.19 37 60 23
0.0143944 -0.0347776 1.19 39 62 25
0.0162425 -0.0347776 1.19 38 61 24
0.0180754 -0.0347484 1.189 39 63 24
0.0199052 -0.0347192 1.188 38 62 23
0.0217319 -0.0346899 1.187 38 62 23
0.0235753 -0.0346899 1.187 38 62 23
0.0254188 -0.0346899 1.187 36 60 21
0.0272393 -0.0346607 1.186 37 61 22
0.0290567 -0.0346315 1.185 38 62 23
0.030897 -0.0346315 1.185 38 62 23
0.0327373 -0.0346315 1.185 38 62 21
0.0345777 -0.0346315 1.185 38 62 21
0.036418 -0.0346315 1.185 38 62 21
0.0382584 -0.0346315 1.185 39 63 22
0.0400987 -0.0346315 1.185 39 63 22
0.0419391 -0.0346315 1.185 41 65 24
0.0438533 -0.0346899 1.187 42 66 25
0.0456968 -0.0346899 1.187 41 65 24
0.0475803 -0.0347192 1.188 42 66 25
0.0494669 -0.0347484 1.189 42 66 25
0.0513134 -0.0347484 1.189 42 67 23
0.0532047 -0.0347776 1.19 43 68 24
0.0550528 -0.0347776 1.19 42 67 23
0.0569009 -0.0347776 1.19 43 68 24
0.058749 -0.0347776 1.19 44 69 25
0.0605971 -0.0347776 1.19 43 68 24
0.0624452 -0.0347776 1.19 42 67 23
0.0642393 -0.0347484 1.189 44 69 25
0.0660859 -0.0347484 1.189 45 70 26
0.0679324 -0.0347484 1.189 45 70 26
0.069779 -0.0347484 1.189 44 69 25
0.0716256 -0.0347484 1.189 45 70 26
0.0734721 -0.0347484 1.189 45 70 26
0.0752553 -0.0347192 1.188 44 69 25
0.0771003 -0.0347192 1.188 45 68 24
0.0789453 -0.0347192 1.188 46 69 25
0.0807903 -0.0347192 1.188 46 69 25
0.0826353 -0.0347192 1.188 47 70 26
0.0844803 -0.0347192 1.188 48 72 26
0.0863254 -0.0347192 1.188 48 72 26
0.0881704 -0.0347192 1.188 50 74 28
0.0900154 -0.0347192 1.188 47 71 25
0.0918604 -0.0347192 1.188 48 73 24
0.0937054 -0.0347192 1.188 48 73 24
0.0955504 -0.0347192 1.188 47 72 23
0.0973134 -0.0346899 1.187 50 75 26
0.0991568 -0.0346899 1.187 52 77 28
0.101 -0.0346899 1.187 52 77 28
0.102844 -0.0346899 1.187 53 77 31
0.104687 -0.0346899 1.187 53 77 31
0.106531 -0.0346899 1.187 53 77 31
0.108374 -0.0346899 1.187 52 76 30
0.110218 -0.0346899 1.187 52 76 30
0.112061 -0.0346899 1.187 54 78 32
0.114 -0.0347192 1.188 55 79 33
0.115943 -0.0347484 1.189 55 79 33
0.117789 -0.0347484 1.189 53 77 31
0.119737 -0.0347776 1.19 54 78 32
0.121585 -0.0347776 1.19 54 78 32
0.123433 -0.0347776 1.19 54 78 32
0.125281 -0.0347776 1.19 55 79 33
0.127129 -0.0347776 1.19 55 79 33
0.128977 -0.0347776 1.19 57 81 35
0.130825 -0.0347776 1.19 55 79 33
0.132673 -0.0347776 1.19 54 78 32
0.134522 -0.0347776 1.19 54 78 32
0.13637 -0.0347776 1.19 55 79 33
0.138218 -0.0347776 1.19 54 78 32
0.140066 -0.0347776 1.19 54 78 32
0.141914 -0.0347776 1.19 53 77 31
0.143762 -0.0347776 1.19 53 78 29
0.14561 -0.0347776 1.19 52 77 28
0.147458 -0.0347776 1.19 50 75 26
0.149306 -0.0347776 1.19 52 77 28
0.151155 -0.0347776 1.19 52 77 28
0.153003 -0.0347776 1.19 53 78 29
0.154981 -0.0348068 1.191 53 78 29
0.156831 -0.0348068 1.191 54 79 30
0.15868 -0.0348068 1.191 54 79 30
0.16053 -0.0348068 1.191 54 79 30
0.16238 -0.0348068 1.191 55 79 33
0.164229 -0.0348068 1.191 55 79 33
0.166079 -0.0348068 1.191 57 81 35
0.167929 -0.0348068 1.191 58 82 36
0.169778 -0.0348068 1.191 58 82 36
0.171628 -0.0348068 1.191 57 81 35
0.173623 -0.0348361 1.192 55 79 33
0.175474 -0.0348361 1.192 55 79 33
0.177326 -0.0348361 1.192 55 79 33
0.179177 -0.0348361 1.192 53 77 31
0.181028 -0.0348361 1.192 52 76 30
0.183033 -0.0348653 1.193 46 70 24
0.184885 -0.0348653 1.193 45 69 23
0.186738 -0.0348653 1.193 58 82 36
0.188591 -0.0348653 1.193 55 79 33
0.190444 -0.0348653 1.193 57 81 35
0.192297 -0.0348653 1.193 55 79 33
0.193987 -0.0348361 1.192 55 79 33
0.195838 -0.0348361 1.192 55 80 31
0.197689 -0.0348361 1.192 54 79 30
0.199373 -0.0348068 1.191 54 79 30
0.201054 -0.0347776 1.19 55 80 31
0.202902 -0.0347776 1.19 55 80 31
0.20475 -0.0347776 1.19 55 80 31
0.206598 -0.0347776 1.19 55 80 31
0.208271 -0.0347484 1.189 55 80 31
0.210117 -0.0347484 1.189 57 81 35
0.212142 -0.0347776 1.19 57 81 35
0.21399 -0.0347776 1.19 57 81 35
0.215838 -0.0347776 1.19 58 82 36
0.217687 -0.0347776 1.19 58 81 37
0.219719 -0.0348068 1.191 58 81 37
0.221755 -0.0348361 1.192 57 80 36
0.223606 -0.0348361 1.192 59 82 38
0.225457 -0.0348361 1.192 51 73 32
0.227499 -0.0348653 1.193 53 75 34
0.229544 -0.0348945 1.194 53 75 36
0.231592 -0.0349237 1.195 53 75 36
0.233448 -0.0349237 1.195 52 73 36
0.235304 -0.0349237 1.195 48 69 32
0.23716 -0.0349237 1.195 48 69 32
0.239016 -0.0349237 1.195 53 74 37
0.240872 -0.0349237 1.195 50 70 36
0.242728 -0.0349237 1.195 41 61 27
0.244583 -0.0349237 1.195 37 57 23
0.246439 -0.0349237 1.195 33 53 19
0.248295 -0.0349237 1.195 31 46 18
0.249942 -0.0348945 1.194 24 39 11
0.251796 -0.0348945 1.194 25 43 16
0.253438 -0.0348653 1.193 24 42 15
0.255077 -0.0348361 1.192 25 43 16
0.256928 -0.0348361 1.192 25 43 16
0.258562 -0.0348068 1.191 25 42 17
0.260193 -0.0347776 1.19 27 44 19
0.261821 -0.0347484 1.189 29 46 21
0.263224 -0.0346899 1.187 27 44 19
0.265067 -0.0346899 1.187 27 44 19
0.266911 -0.0346899 1.187 27 44 19
0.268528 -0.0346607 1.186 27 44 19
0.270142 -0.0346315 1.185 27 44 19
0.271982 -0.0346315 1.185 26 44 17
0.273823 -0.0346315 1.185 27 45 18
0.275896 -0.0346607 1.186 29 44 18
0.277972 -0.0346899 1.187 28 43 17
0.279815 -0.0346899 1.187 27 42 16
0.281896 -0.0347192 1.188 29 44 18
0.28398 -0.0347484 1.189 29 44 18
0.286067 -0.0347776 1.19 32 47 21
0.288157 -0.0348068 1.191 27 42 16
0.29025 -0.0348361 1.192 28 43 17
0.292591 -0.0348945 1.194 31 46 20
0.294445 -0.0348945 1.194 28 43 17
0.296548 -0.0349237 1.195 28 43 17
0.298404 -0.0349237 1.195 28 43 17
0.30026 -0.0349237 1.195 27 45 18
0.302116 -0.0349237 1.195 29 47 20
0.303717 -0.0348945 1.194 27 45 18
0.305571 -0.0348945 1.194 27 45 18
0.307426 -0.0348945 1.194 25 43 16
0.30928 -0.0348945 1.194 25 43 16
0.310874 -0.0348653 1.193 26 44 17
0.312727 -0.0348653 1.193 27 45 18
0.314579 -0.0348653 1.193 29 47 20
0.316432 -0.0348653 1.193 29 47 20
0.318285 -0.0348653 1.193 29 47 20
0.319869 -0.0348361 1.192 30 48 21
0.321721 -0.0348361 1.192 29 47 20
0.323572 -0.0348361 1.192 30 48 21
0.325423 -0.0348361 1.192 30 48 21
0.327274 -0.0348361 1.192 31 49 22
0.329125 -0.0348361 1.192 31 49 22
0.330977 -0.0348361 1.192 32 50 23
0.333107 -0.0348653 1.193 33 51 24
0.33496 -0.0348653 1.193 36 54 27
0.337095 -0.0348945 1.194 37 55 28
0.339233 -0.0349237 1.195 36 54 27
0.341089 -0.0349237 1.195 27 45 18
0.342945 -0.0349237 1.195 34 52 25
0.344801 -0.0349237 1.195 37 55 28
0.346657 -0.0349237 1.195 36 54 27
0.348221 -0.0348945 1.194 31 48 23
0.349782 -0.0348653 1.193 32 49 24
0.35134 -0.0348361 1.192 33 49 27
0.352895 -0.0348068 1.191 32 48 26
0.354447 -0.0347776 1.19 40 51 35
0.355995 -0.0347484 1.189 61 72 56
0.356939 -0.0346607 1.186 55 63 51
0.358478 -0.0346315 1.185 43 51 39
0.360015 -0.0346023 1.184 26 28 22
0.361548 -0.034573 1.183 34 36 30
0.362771 -0.0345146 1.181 31 30 27
0.364605 -0.0345146 1.181 33 32 29
0.365508 -0.0344269 1.178 41 44 47
0.365155 -0.0342223 1.171 42 45 48
0.36478 -0.0340178 1.164 73 80 84
0.362382 -0.0334625 1.145 133 141 148
0.361934 -0.0332579 1.138 141 149 156
0.362423 -0.033141 1.134 149 158 167
0.364505 -0.0331702 1.135 141 150 159
0.367881 -0.0333164 1.14 82 91 102
0.371922 -0.0335209 1.147 86 95 106
-0.16546 -0.0326783 1.181 2 16 1
-0.163764 -0.0327059 1.182 4 18 3
-0.162339 -0.032789 1.185 7 23 8
-0.16077 -0.0328443 1.187 3 19 4
-0.159194 -0.0328996 1.189 4 20 3
-0.15748 -0.0329273 1.19 0 16 0
-0.155632 -0.0329273 1.19 3 17 0
-0.153913 -0.032955 1.191 5 19 2
-0.152063 -0.032955 1.191 10 22 3
-0.15034 -0.0329826 1.192 17 29 10
-0.148364 -0.032955 1.191 14 28 4
-0.146514 -0.032955 1.191 15 29 5
-0.144543 -0.0329273 1.19 27 45 18
-0.142695 -0.0329273 1.19 34 52 25
-0.140729 -0.0328996 1.189 31 49 20
-0.138648 -0.0328443 1.187 30 48 19
-0.136805 -0.0328443 1.187 31 49 20
-0.134848 -0.0328166 1.186 31 49 20
-0.132894 -0.032789 1.185 33 52 20
-0.131053 -0.032789 1.185 31 50 18
-0.129213 -0.032789 1.185 32 51 19
-0.127373 -0.032789 1.185 36 55 23
-0.125532 -0.032789 1.185 32 51 19
-0.123692 -0.032789 1.185 32 51 19
-0.121852 -0.032789 1.185 32 51 19
-0.120011 -0.032789 1.185 32 51 19
-0.118171 -0.032789 1.185 40 59 27
-0.116331 -0.032789 1.185 37 56 24
-0.112745 -0.0328166 1.186 34 53 21
-0.110997 -0.0328443 1.187 32 53 21
-0.109153 -0.0328443 1.187 31 52 20
-0.10731 -0.0328443 1.187 31 52 20
-0.105555 -0.032872 1.188 31 52 20
-0.103885 -0.0329273 1.19 24 45 13
-0.102037 -0.0329273 1.19 28 49 17
-0.100188 -0.0329273 1.19 29 49 20
-0.098423 -0.032955 1.191 28 48 19
-0.0965733 -0.032955 1.191 27 47 18
-0.0948032 -0.0329826 1.192 27 47 18
-0.092952 -0.0329826 1.192 20 40 11
-0.0911008 -0.0329826 1.192 22 42 13
-0.0893244 -0.0330103 1.193 24 44 15
-0.0874717 -0.0330103 1.193 27 47 18
-0.0856907 -0.033038 1.194 25 45 16
-0.0839066 -0.0330657 1.195 25 45 16
-0.0820507 -0.0330657 1.195 27 47 18
-0.0801948 -0.0330657 1.195 27 47 18
-0.0784045 -0.0330933 1.196 25 45 16
-0.0765471 -0.0330933 1.196 25 45 16
-0.0746896 -0.0330933 1.196 25 46 14
-0.0728322 -0.0330933 1.196 27 48 16
-0.0709748 -0.0330933 1.196 27 48 16
-0.0690596 -0.0330657 1.195 27 48 16
-0.0672037 -0.0330657 1.195 27 48 16
-0.0653478 -0.0330657 1.195 28 49 17
-0.0634388 -0.033038 1.194 27 48 16
-0.0615845 -0.033038 1.194 27 48 16
-0.0597302 -0.033038 1.194 27 48 16
-0.0578758 -0.033038 1.194 25 46 14
-0.0560215 -0.033038 1.194 27 48 16
-0.0542125 -0.0330657 1.195 28 49 17
-0.0523567 -0.0330657 1.195 27 48 16
-0.0505008 -0.0330657 1.195 24 45 13
-0.0486042 -0.033038 1.194 23 44 12
-0.0467107 -0.0330103 1.193 28 49 17
-0.0448204 -0.0329826 1.192 28 49 17
-0.0429331 -0.032955 1.191 28 49 17
-0.0410144 -0.0328996 1.189 29 50 18
-0.039102 -0.0328443 1.187 29 50 18
-0.0371958 -0.032789 1.185 28 49 17
-0.0352659 -0.0327059 1.182 28 49 17
-0.0334302 -0.0327059 1.182 30 51 19
-0.0315678 -0.0326783 1.181 30 51 19
-0.0297337 -0.0326783 1.181 30 51 19
-0.0279232 -0.0327059 1.182 29 50 18
-0.0260875 -0.0327059 1.182 30 51 19
-0.0242928 -0.0327613 1.184 30 51 19
-0.022473 -0.032789 1.185 31 52 20
-0.0206675 -0.0328443 1.187 32 53 21
-0.0188399 -0.032872 1.188 31 52 20
-0.0170235 -0.0329273 1.19 30 51 19
-0.0151754 -0.0329273 1.19 30 51 19
-0.0133497 -0.0329826 1.192 30 51 19
-0.0114985 -0.0329826 1.192 30 52 18
-0.00965535 -0.0330103 1.193 30 52 18
-0.00780258 -0.0330103 1.193 31 53 19
-0.00594981 -0.0330103 1.193 35 57 23
-0.00409704 -0.0330103 1.193 35 58 21
-0.00224239 -0.0329826 1.192 35 58 21
-0.000391497 -0.0330103 1.193 36 59 22
0.00146005 -0.0329826 1.192 36 59 22
0.00331126 -0.0329826 1.192 37 60 23
0.00516248 -0.0329826 1.192 37 60 23
0.0070137 -0.0329826 1.192 37 60 23
0.00885748 -0.032955 1.191 36 59 22
0.0107071 -0.032955 1.191 38 61 24
0.0125463 -0.0329273 1.19 37 60 23
0.0143944 -0.0329273 1.19 37 60 23
0.0162288 -0.0328996 1.189 36 59 22
0.0180602 -0.032872 1.188 37 61 22
0.0198884 -0.0328443 1.187 38 62 23
0.0217319 -0.0328443 1.187 37 61 22
0.0235555 -0.0328166 1.186 37 61 22
0.025376 -0.032789 1.185 36 60 21
0.0272163 -0.032789 1.185 36 60 21
0.0290567 -0.032789 1.185 37 61 22
0.0308709 -0.0327613 1.184 39 63 24
0.0327097 -0.0327613 1.184 38 62 23
0.0345485 -0.0327613 1.184 38 62 23
0.0363566 -0.0327336 1.183 38 62 21
0.0381938 -0.0327336 1.183 38 62 21
0.0400649 -0.0327613 1.184 39 63 22
0.0419391 -0.032789 1.185 39 63 22
0.0438164 -0.0328166 1.186 39 63 22
0.0456583 -0.0328166 1.186 38 62 21
0.0475803 -0.032872 1.188 39 63 22
0.0494253 -0.032872 1.188 39 63 22
0.0512703 -0.032872 1.188 42 66 25
0.05316 -0.0328996 1.189 43 67 26
0.0550065 -0.0328996 1.189 42 66 25
0.0568531 -0.0328996 1.189 41 65 24
0.0586997 -0.0328996 1.189 43 68 24
0.0605462 -0.0328996 1.189 43 68 24
0.0623928 -0.0328996 1.189 43 68 24
0.0641853 -0.032872 1.188 44 69 25
0.0660303 -0.032872 1.188 45 70 26
0.0678753 -0.032872 1.188 45 70 26
0.0697203 -0.032872 1.188 45 70 26
0.0715653 -0.032872 1.188 45 70 26
0.0734103 -0.032872 1.188 45 70 26
0.075192 -0.0328443 1.187 46 71 27
0.0770354 -0.0328443 1.187 46 71 27
0.0788789 -0.0328443 1.187 45 70 26
0.0807223 -0.0328443 1.187 45 71 25
0.0825658 -0.0328443 1.187 45 71 25
0.0844092 -0.0328443 1.187 46 72 26
0.0862527 -0.0328443 1.187 46 72 26
0.0880961 -0.0328443 1.187 46 73 24
0.0899396 -0.0328443 1.187 45 72 23
0.091783 -0.0328443 1.187 46 73 24
0.0936265 -0.0328443 1.187 46 73 24
0.0954699 -0.0328443 1.187 45 72 23
0.0973134 -0.0328443 1.187 46 73 24
0.0990733 -0.0328166 1.186 49 76 27
0.100915 -0.0328166 1.186 49 76 27
0.102757 -0.0328166 1.186 50 76 30
0.104599 -0.0328166 1.186 51 77 31
0.106441 -0.0328166 1.186 51 77 31
0.108374 -0.0328443 1.187 52 78 32
0.110218 -0.0328443 1.187 51 77 31
0.112061 -0.0328443 1.187 52 78 32
0.113904 -0.0328443 1.187 52 78 32
0.115748 -0.0328443 1.187 52 78 32
0.117789 -0.0328996 1.189 52 78 32
0.119636 -0.0328996 1.189 53 79 33
0.121585 -0.0329273 1.19 53 79 33
0.123433 -0.0329273 1.19 52 78 32
0.125281 -0.0329273 1.19 53 79 33
0.127129 -0.0329273 1.19 55 81 35
0.128977 -0.0329273 1.19 55 81 35
0.130825 -0.0329273 1.19 55 81 35
0.132673 -0.0329273 1.19 55 79 33
0.134522 -0.0329273 1.19 53 77 31
0.13637 -0.0329273 1.19 54 78 32
0.138218 -0.0329273 1.19 53 77 31
0.140066 -0.0329273 1.19 52 78 32
0.141914 -0.0329273 1.19 52 78 32
0.143762 -0.0329273 1.19 52 79 30
0.14561 -0.0329273 1.19 51 78 29
0.147458 -0.0329273 1.19 50 77 28
0.149306 -0.0329273 1.19 53 80 31
0.151155 -0.0329273 1.19 53 80 31
0.153003 -0.0329273 1.19 53 80 31
0.154851 -0.0329273 1.19 52 79 30
0.156699 -0.0329273 1.19 51 78 29
0.158547 -0.0329273 1.19 51 78 29
0.160395 -0.0329273 1.19 51 78 29
0.162243 -0.0329273 1.19 53 80 31
0.164091 -0.0329273 1.19 53 80 31
0.165939 -0.0329273 1.19 55 82 33
0.167788 -0.0329273 1.19 55 82 33
0.169636 -0.0329273 1.19 55 82 33
0.171484 -0.0329273 1.19 53 80 31
0.173478 -0.032955 1.191 53 80 31
0.175327 -0.032955 1.191 53 80 31
0.177177 -0.032955 1.191 53 80 31
0.179177 -0.0329826 1.192 50 77 28
0.181028 -0.0329826 1.192 50 76 30
0.182879 -0.0329826 1.192 52 78 32
0.184885 -0.0330103 1.193 53 79 33
0.186738 -0.0330103 1.193 55 81 35
0.188591 -0.0330103 1.193 55 81 35
0.190444 -0.0330103 1.193 55 81 35
0.192297 -0.0330103 1.193 53 79 33
0.194149 -0.0330103 1.193 55 81 35
0.195838 -0.0329826 1.192 52 78 32
0.197689 -0.0329826 1.192 51 77 31
0.199373 -0.032955 1.191 54 78 32
0.201054 -0.0329273 1.19 55 79 33
0.202902 -0.0329273 1.19 55 79 33
0.20475 -0.0329273 1.19 55 79 33
0.206598 -0.0329273 1.19 55 79 33
0.208271 -0.0328996 1.189 55 79 33
0.210294 -0.0329273 1.19 55 79 33
0.212142 -0.0329273 1.19 55 79 33
0.21399 -0.0329273 1.19 57 81 35
0.215838 -0.0329273 1.19 58 82 36
0.217687 -0.0329273 1.19 59 82 38
0.219719 -0.032955 1.191 57 80 36
0.221755 -0.0329826 1.192 58 81 37
0.223606 -0.0329826 1.192 58 81 37
0.225646 -0.0330103 1.193 55 77 36
0.227499 -0.0330103 1.193 54 76 35
0.229736 -0.0330657 1.195 54 76 37
0.231592 -0.0330657 1.195 58 80 41
0.233448 -0.0330657 1.195 52 73 36
0.235304 -0.0330657 1.195 46 67 30
0.23716 -0.0330657 1.195 48 69 32
0.239016 -0.0330657 1.195 51 72 35
0.240872 -0.0330657 1.195 47 67 33
0.242728 -0.0330657 1.195 39 59 25
0.244583 -0.0330657 1.195 36 53 20
0.246439 -0.0330657 1.195 38 55 22
0.248087 -0.033038 1.194 33 48 20
0.249942 -0.033038 1.194 26 41 13
0.251585 -0.0330103 1.193 28 43 15
0.253226 -0.0329826 1.192 26 41 13
0.255077 -0.0329826 1.192 25 43 16
0.256712 -0.032955 1.191 25 43 16
0.258345 -0.0329273 1.19 26 44 17
0.259974 -0.0328996 1.189 29 47 20
0.261601 -0.032872 1.188 29 46 21
0.263224 -0.0328443 1.187 27 44 19
0.264844 -0.0328166 1.186 29 46 21
0.266461 -0.032789 1.185 29 46 21
0.268302 -0.032789 1.185 29 46 21
0.270142 -0.032789 1.185 29 46 21
0.271982 -0.032789 1.185 27 45 18
0.273823 -0.032789 1.185 29 47 20
0.275896 -0.0328166 1.186 29 47 20
0.277972 -0.0328443 1.187 26 44 17
0.280051 -0.032872 1.188 25 43 16
0.28237 -0.0329273 1.19 27 45 18
0.284219 -0.0329273 1.19 29 47 20
0.286547 -0.0329826 1.192 31 49 22
0.288883 -0.033038 1.194 29 47 20
0.29098 -0.0330657 1.195 31 49 22
0.293081 -0.0330933 1.196 29 47 20
0.294939 -0.0330933 1.196 27 45 18
0.297044 -0.033121 1.197 26 44 17
0.298903 -0.033121 1.197 26 44 17
0.300511 -0.0330933 1.196 27 45 18
0.302368 -0.0330933 1.196 29 47 20
0.303971 -0.0330657 1.195 27 45 18
0.305827 -0.0330657 1.195 25 43 16
0.307426 -0.033038 1.194 25 43 16
0.309021 -0.0330103 1.193 25 43 16
0.310613 -0.0329826 1.192 27 45 18
0.312464 -0.0329826 1.192 27 45 18
0.314316 -0.0329826 1.192 29 47 20
0.316167 -0.0329826 1.192 26 44 17
0.317751 -0.032955 1.191 27 45 18
0.319601 -0.032955 1.191 30 48 21
0.321181 -0.0329273 1.19 30 48 21
0.323029 -0.0329273 1.19 30 48 21
0.324877 -0.0329273 1.19 30 48 21
0.327 -0.032955 1.191 32 50 23
0.328849 -0.032955 1.191 32 50 23
0.330977 -0.0329826 1.192 33 51 24
0.332828 -0.0329826 1.192 33 51 24
0.335241 -0.033038 1.194 34 52 25
0.337377 -0.0330657 1.195 37 55 28
0.339233 -0.0330657 1.195 37 55 28
0.341089 -0.0330657 1.195 37 55 28
0.343232 -0.0330933 1.196 38 56 29
0.345089 -0.0330933 1.196 37 55 28
0.346657 -0.0330657 1.195 37 55 28
0.348512 -0.0330657 1.195 37 55 28
0.350075 -0.033038 1.194 39 57 30
0.351635 -0.0330103 1.193 34 51 26
0.353191 -0.0329826 1.192 34 51 26
0.355042 -0.0329826 1.192 38 53 33
0.356295 -0.0329273 1.19 44 59 39
0.357842 -0.0328996 1.189 69 80 66
0.359386 -0.032872 1.188 67 78 64
0.360623 -0.0328166 1.186 25 28 20
0.362159 -0.032789 1.185 30 33 25
0.363385 -0.0327336 1.183 31 31 25
0.364914 -0.0327059 1.182 36 36 30
0.366129 -0.0326506 1.18 37 41 41
0.365779 -0.0324569 1.173 33 37 37
0.365093 -0.0322356 1.165 73 80 84
0.362493 -0.0318482 1.151 131 138 142
0.362382 -0.0316822 1.145 129 137 144
0.36257 -0.0315438 1.14 141 149 156
0.363062 -0.0314331 1.136 141 151 158
0.364826 -0.0314331 1.136 140 150 157
0.368204 -0.0315715 1.141 82 91 100
0.372246 -0.0317652 1.148 87 96 105
-0.16546 -0.030842 1.181 4 17 4
-0.163903 -0.0308942 1.183 5 18 5
-0.162476 -0.0309725 1.186 9 22 9
-0.16077 -0.0309987 1.187 6 19 6
-0.159194 -0.0310509 1.189 6 19 6
-0.157612 -0.0311031 1.191 6 19 6
-0.155893 -0.0311292 1.192 5 19 4
-0.154042 -0.0311292 1.192 6 20 5
-0.152191 -0.0311292 1.192 7 18 2
-0.15034 -0.0311292 1.192 13 24 8
-0.148488 -0.0311292 1.192 13 26 5
-0.146637 -0.0311292 1.192 17 30 9
-0.144665 -0.0311031 1.191 26 40 16
-0.142695 -0.031077 1.19 34 48 24
-0.140729 -0.0310509 1.189 36 51 25
-0.138765 -0.0310248 1.188 34 49 23
-0.136805 -0.0309987 1.187 34 49 23
-0.134961 -0.0309987 1.187 32 47 21
-0.133006 -0.0309725 1.186 32 47 19
-0.131053 -0.0309464 1.185 32 47 19
-0.129213 -0.0309464 1.185 36 51 23
-0.127373 -0.0309464 1.185 36 51 23
-0.125532 -0.0309464 1.185 33 48 20
-0.123692 -0.0309464 1.185 35 50 22
-0.121852 -0.0309464 1.185 34 49 21
-0.120011 -0.0309464 1.185 33 48 20
-0.118171 -0.0309464 1.185 40 55 27
-0.116331 -0.0309464 1.185 38 53 25
-0.112745 -0.0309725 1.186 33 51 22
-0.110903 -0.0309725 1.186 33 51 22
-0.10731 -0.0309987 1.187 32 50 21
-0.105466 -0.0309987 1.187 32 50 21
-0.10371 -0.0310248 1.188 27 47 18
-0.101951 -0.0310509 1.189 27 47 18
-0.100188 -0.031077 1.19 28 48 19
-0.0983404 -0.031077 1.19 27 47 18
-0.0964923 -0.031077 1.19 28 48 19
-0.0947237 -0.0311031 1.191 27 47 18
-0.092874 -0.0311031 1.191 24 44 15
-0.0910244 -0.0311031 1.191 24 44 15
-0.0892496 -0.0311292 1.192 25 45 16
-0.0873983 -0.0311292 1.192 27 47 18
-0.0856189 -0.0311553 1.193 27 47 18
-0.0838363 -0.0311815 1.194 27 47 18
-0.0820507 -0.0312076 1.195 27 47 18
-0.0801948 -0.0312076 1.195 27 47 18
-0.0783389 -0.0312076 1.195 25 46 14
-0.0765471 -0.0312337 1.196 24 45 13
-0.0746896 -0.0312337 1.196 25 46 14
-0.0728322 -0.0312337 1.196 25 46 14
-0.0709748 -0.0312337 1.196 25 46 14
-0.0690596 -0.0312076 1.195 25 46 14
-0.0672037 -0.0312076 1.195 25 46 14
-0.0653478 -0.0312076 1.195 27 48 16
-0.0634919 -0.0312076 1.195 22 42 13
-0.0615845 -0.0311815 1.194 27 47 18
-0.0597802 -0.0312076 1.195 25 45 16
-0.0579243 -0.0312076 1.195 25 45 16
-0.0560684 -0.0312076 1.195 28 48 19
-0.0542125 -0.0312076 1.195 27 47 18
-0.0523567 -0.0312076 1.195 25 46 14
-0.0505008 -0.0312076 1.195 24 45 13
-0.0486042 -0.0311815 1.194 17 38 6
-0.0467107 -0.0311553 1.193 30 51 19
-0.0448204 -0.0311292 1.192 29 50 18
-0.0429331 -0.0311031 1.191 28 49 17
-0.0410489 -0.031077 1.19 29 50 18
-0.039102 -0.0309987 1.187 29 50 18
-0.0371958 -0.0309464 1.185 29 50 18
-0.0352958 -0.0308942 1.183 29 50 18
-0.0334585 -0.0308942 1.183 30 51 19
-0.0315946 -0.0308681 1.182 30 51 19
-0.0297589 -0.0308681 1.182 30 51 19
-0.0279232 -0.0308681 1.182 30 51 19
-0.0260875 -0.0308681 1.182 29 50 18
-0.0242723 -0.0308942 1.183 29 50 18
-0.022473 -0.0309464 1.185 28 49 17
-0.0206675 -0.0309987 1.187 31 52 20
-0.0188399 -0.0310248 1.188 32 53 21
-0.0170235 -0.031077 1.19 30 51 19
-0.0151881 -0.0311031 1.191 29 50 18
-0.0133497 -0.0311292 1.192 30 51 19
-0.0114985 -0.0311292 1.192 30 51 19
-0.00965535 -0.0311553 1.193 30 51 19
-0.00780912 -0.0311815 1.194 30 52 18
-0.00595479 -0.0311815 1.194 35 57 23
-0.00410047 -0.0311815 1.194 35 58 21
-0.00224615 -0.0311815 1.194 35 58 21
-0.000391497 -0.0311553 1.193 36 59 22
0.00146127 -0.0311553 1.193 36 59 22
0.00331404 -0.0311553 1.193 37 60 23
0.00516248 -0.0311292 1.192 37 60 23
0.0070137 -0.0311292 1.192 37 60 23
0.00886491 -0.0311292 1.192 37 60 23
0.0107161 -0.0311292 1.192 38 61 24
0.0125463 -0.031077 1.19 37 60 23
0.0143944 -0.031077 1.19 37 60 23
0.0162152 -0.0310248 1.188 35 58 21
0.018045 -0.0309987 1.187 35 58 21
0.0198717 -0.0309725 1.186 37 60 23
0.0217136 -0.0309725 1.186 36 60 21
0.0235356 -0.0309464 1.185 37 61 22
0.0253545 -0.0309203 1.184 37 61 22
0.0271933 -0.0309203 1.184 37 61 22
0.0290076 -0.0308942 1.183 36 60 21
0.0308449 -0.0308942 1.183 37 61 22
0.0326545 -0.0308681 1.182 37 61 22
0.0344902 -0.0308681 1.182 37 61 22
0.0363258 -0.0308681 1.182 37 61 22
0.0381615 -0.0308681 1.182 38 62 23
0.0400649 -0.0309203 1.184 39 63 24
0.0419037 -0.0309203 1.184 39 63 24
0.0437794 -0.0309464 1.185 38 62 23
0.0456583 -0.0309725 1.186 38 62 23
0.0475402 -0.0309987 1.187 38 62 21
0.0493837 -0.0309987 1.187 39 63 22
0.0512703 -0.0310248 1.188 41 65 24
0.0531153 -0.0310248 1.188 42 66 25
0.0550065 -0.0310509 1.189 41 65 24
0.0568531 -0.0310509 1.189 42 66 25
0.0586997 -0.0310509 1.189 42 67 23
0.0604953 -0.0310248 1.188 43 68 24
0.0623403 -0.0310248 1.188 44 69 25
0.0641853 -0.0310248 1.188 45 70 26
0.0659747 -0.0309987 1.187 46 71 27
0.0678182 -0.0309987 1.187 46 71 27
0.0696616 -0.0309987 1.187 46 71 27
0.0715051 -0.0309987 1.187 46 71 27
0.0733485 -0.0309987 1.187 45 70 26
0.075192 -0.0309987 1.187 45 70 26
0.0769705 -0.0309725 1.186 44 69 25
0.0788124 -0.0309725 1.186 45 70 26
0.0806543 -0.0309725 1.186 45 71 25
0.0824962 -0.0309725 1.186 45 71 25
0.0843381 -0.0309725 1.186 44 70 24
0.08618 -0.0309725 1.186 45 71 25
0.0880219 -0.0309725 1.186 46 72 26
0.0898638 -0.0309725 1.186 45 71 25
0.0917057 -0.0309725 1.186 45 72 23
0.0935476 -0.0309725 1.186 45 72 23
0.0953895 -0.0309725 1.186 45 72 23
0.0971494 -0.0309464 1.185 46 73 24
0.0989898 -0.0309464 1.185 49 76 27
0.10083 -0.0309464 1.185 48 75 26
0.10267 -0.0309464 1.185 46 72 26
0.104511 -0.0309464 1.185 45 71 25
0.106351 -0.0309464 1.185 49 75 29
0.108283 -0.0309725 1.186 52 78 32
0.110125 -0.0309725 1.186 51 77 31
0.112061 -0.0309987 1.187 51 77 31
0.113904 -0.0309987 1.187 51 77 31
0.115748 -0.0309987 1.187 52 78 32
0.117591 -0.0309987 1.187 53 79 33
0.119535 -0.0310248 1.188 53 79 33
0.12138 -0.0310248 1.188 53 79 33
0.123225 -0.0310248 1.188 53 79 33
0.12507 -0.0310248 1.188 53 79 33
0.126915 -0.0310248 1.188 52 78 32
0.12876 -0.0310248 1.188 55 79 33
0.130715 -0.0310509 1.189 57 81 35
0.132562 -0.0310509 1.189 58 82 36
0.134409 -0.0310509 1.189 58 82 36
0.136255 -0.0310509 1.189 57 81 35
0.138102 -0.0310509 1.189 53 77 31
0.139948 -0.0310509 1.189 55 79 33
0.141795 -0.0310509 1.189 54 78 32
0.14352 -0.0310248 1.188 53 77 31
0.145365 -0.0310248 1.188 53 77 31
0.147211 -0.0310248 1.188 52 76 30
0.149181 -0.0310509 1.189 54 78 32
0.151028 -0.0310509 1.189 54 78 32
0.152874 -0.0310509 1.189 54 78 32
0.154721 -0.0310509 1.189 55 79 33
0.156567 -0.0310509 1.189 54 78 32
0.158414 -0.0310509 1.189 54 78 32
0.16026 -0.0310509 1.189 54 78 32
0.162107 -0.0310509 1.189 55 79 33
0.163953 -0.0310509 1.189 55 79 33
0.165661 -0.0310248 1.188 57 81 35
0.167506 -0.0310248 1.188 57 81 35
0.169493 -0.0310509 1.189 57 81 35
0.171484 -0.031077 1.19 57 81 35
0.173332 -0.031077 1.19 55 79 33
0.17518 -0.031077 1.19 57 81 35
0.177177 -0.0311031 1.191 57 81 35
0.179027 -0.0311031 1.191 57 81 35
0.181028 -0.0311292 1.192 60 84 38
0.182879 -0.0311292 1.192 62 86 40
0.184885 -0.0311553 1.193 59 83 37
0.186738 -0.0311553 1.193 59 83 37
0.188591 -0.0311553 1.193 59 83 37
0.190284 -0.0311292 1.192 58 82 36
0.192297 -0.0311553 1.193 55 79 33
0.193987 -0.0311292 1.192 55 79 33
0.195838 -0.0311292 1.192 53 77 31
0.197689 -0.0311292 1.192 53 77 31
0.199373 -0.0311031 1.191 55 80 31
0.201054 -0.031077 1.19 57 82 33
0.202902 -0.031077 1.19 57 82 33
0.20475 -0.031077 1.19 58 83 34
0.206598 -0.031077 1.19 58 83 34
0.208446 -0.031077 1.19 57 82 33
0.210117 -0.0310509 1.189 57 82 33
0.212142 -0.031077 1.19 57 82 33
0.21399 -0.031077 1.19 58 82 36
0.215838 -0.031077 1.19 61 85 39
0.217869 -0.0311031 1.191 61 84 40
0.219904 -0.0311292 1.192 57 80 36
0.221755 -0.0311292 1.192 58 81 37
0.223794 -0.0311553 1.193 58 81 37
0.225836 -0.0311815 1.194 58 80 39
0.227881 -0.0312076 1.195 58 80 39
0.229736 -0.0312076 1.195 54 76 37
0.231592 -0.0312076 1.195 54 76 37
0.233448 -0.0312076 1.195 50 70 36
0.235501 -0.0312337 1.196 45 65 31
0.237358 -0.0312337 1.196 44 64 30
0.239016 -0.0312076 1.195 44 64 30
0.241073 -0.0312337 1.196 40 60 26
0.242728 -0.0312076 1.195 36 56 22
0.244583 -0.0312076 1.195 32 52 18
0.246439 -0.0312076 1.195 34 54 20
0.248087 -0.0311815 1.194 33 48 20
0.249942 -0.0311815 1.194 27 42 14
0.251374 -0.0311292 1.192 29 44 16
0.253226 -0.0311292 1.192 27 42 14
0.254863 -0.0311031 1.191 25 43 16
0.256497 -0.031077 1.19 25 43 16
0.258345 -0.031077 1.19 27 45 18
0.259756 -0.0310248 1.188 29 47 20
0.261381 -0.0309987 1.187 27 45 18
0.263224 -0.0309987 1.187 29 47 20
0.264621 -0.0309464 1.185 29 47 20
0.266461 -0.0309464 1.185 29 47 20
0.268302 -0.0309464 1.185 29 47 20
0.270142 -0.0309464 1.185 27 45 18
0.271982 -0.0309464 1.185 26 44 17
0.274054 -0.0309725 1.186 27 45 18
0.276128 -0.0309987 1.187 29 47 20
0.27844 -0.0310509 1.189 27 45 18
0.280522 -0.031077 1.19 25 43 16
0.28237 -0.031077 1.19 27 45 18
0.284696 -0.0311292 1.192 29 47 20
0.287028 -0.0311815 1.194 30 48 21
0.289124 -0.0312076 1.195 29 47 20
0.291224 -0.0312337 1.196 30 48 21
0.293326 -0.0312598 1.197 26 44 17
0.295185 -0.0312598 1.197 26 44 17
0.297044 -0.0312598 1.197 26 44 17
0.299153 -0.0312859 1.198 26 44 17
0.300762 -0.0312598 1.197 25 43 16
0.302621 -0.0312598 1.197 27 45 18
0.303971 -0.0312076 1.195 27 45 18
0.305827 -0.0312076 1.195 26 44 17
0.307426 -0.0311815 1.194 27 45 18
0.309021 -0.0311553 1.193 27 45 18
0.310613 -0.0311292 1.192 27 45 18
0.312464 -0.0311292 1.192 27 45 18
0.314052 -0.0311031 1.191 27 45 18
0.315636 -0.031077 1.19 26 44 17
0.317484 -0.031077 1.19 26 44 17
0.319333 -0.031077 1.19 27 45 18
0.321181 -0.031077 1.19 29 47 20
0.323029 -0.031077 1.19 30 48 21
0.324877 -0.031077 1.19 31 49 22
0.326725 -0.031077 1.19 32 50 23
0.328849 -0.0311031 1.191 31 49 22
0.330699 -0.0311031 1.191 33 51 24
0.332828 -0.0311292 1.192 36 54 27
0.33496 -0.0311553 1.193 36 54 27
0.337377 -0.0312076 1.195 37 55 28
0.339517 -0.0312337 1.196 37 55 28
0.34166 -0.0312598 1.197 38 56 27
0.343519 -0.0312598 1.197 37 55 26
0.345378 -0.0312598 1.197 37 55 26
0.347237 -0.0312598 1.197 37 55 26
0.349096 -0.0312598 1.197 37 55 28
0.350662 -0.0312337 1.196 39 57 30
0.352224 -0.0312076 1.195 39 55 33
0.353784 -0.0311815 1.194 34 50 28
0.35534 -0.0311553 1.193 63 75 56
0.356894 -0.0311292 1.192 77 89 70
0.358444 -0.0311031 1.191 84 93 77
0.359991 -0.031077 1.19 57 66 50
0.361839 -0.031077 1.19 25 29 18
0.363076 -0.0310248 1.188 29 33 22
0.364 -0.0309464 1.185 29 32 24
0.36584 -0.0309464 1.185 33 36 28
0.366439 -0.030842 1.181 37 41 41
0.36609 -0.0306592 1.174 40 44 44
0.362493 -0.0300585 1.151 131 138 142
0.362382 -0.0299018 1.145 120 129 133
0.36257 -0.0297712 1.14 108 117 121
0.363062 -0.0296668 1.136 129 140 144
0.365147 -0.0296929 1.137 138 149 153
0.368527 -0.0298235 1.142 80 89 98
0.37257 -0.0300063 1.149 86 95 104
-0.1656 -0.0290302 1.182 4 17 4
-0.164041 -0.0290793 1.184 4 17 4
-0.162476 -0.0291285 1.186 6 19 6
-0.160905 -0.0291776 1.188 5 18 5
-0.159328 -0.0292267 1.19 6 19 6
-0.157612 -0.0292513 1.191 5 18 5
-0.155893 -0.0292758 1.192 6 20 5
-0.154042 -0.0292758 1.192 8 22 7
-0.152191 -0.0292758 1.192 8 19 5
-0.15034 -0.0292758 1.192 11 22 8
-0.148488 -0.0292758 1.192 15 27 8
-0.146637 -0.0292758 1.192 18 30 11
-0.144665 -0.0292513 1.191 15 29 5
-0.142695 -0.0292267 1.19 12 26 2
-0.140847 -0.0292267 1.19 19 33 9
-0.138765 -0.0291776 1.188 25 39 15
-0.13692 -0.0291776 1.188 25 40 14
-0.134961 -0.029153 1.187 25 40 14
-0.133006 -0.0291285 1.186 25 40 14
-0.131164 -0.0291285 1.186 26 41 15
-0.129322 -0.0291285 1.186 29 44 18
-0.12748 -0.0291285 1.186 31 46 20
-0.125638 -0.0291285 1.186 29 44 18
-0.123692 -0.0291039 1.185 32 47 21
-0.121852 -0.0291039 1.185 32 47 21
-0.120011 -0.0291039 1.185 28 43 17
-0.118171 -0.0291039 1.185 33 48 20
-0.116331 -0.0291039 1.185 31 46 18
-0.11449 -0.0291039 1.185 34 52 23
-0.11265 -0.0291039 1.185 37 55 26
-0.11081 -0.0291039 1.185 32 50 21
-0.109061 -0.0291285 1.186 32 50 21
-0.107219 -0.0291285 1.186 30 50 21
-0.103623 -0.029153 1.187 28 48 21
-0.10002 -0.0291776 1.188 25 45 18
-0.0982577 -0.0292021 1.189 23 43 16
-0.0964923 -0.0292267 1.19 25 45 18
-0.0946442 -0.0292267 1.19 27 47 20
-0.092796 -0.0292267 1.19 27 47 20
-0.0910244 -0.0292513 1.191 27 47 20
-0.0891747 -0.0292513 1.191 27 47 20
-0.0873983 -0.0292758 1.192 27 47 20
-0.0856189 -0.0293004 1.193 27 47 18
-0.0837661 -0.0293004 1.193 25 45 16
-0.081982 -0.0293249 1.194 27 47 18
-0.0801948 -0.0293495 1.195 27 47 18
-0.0783389 -0.0293495 1.195 24 44 15
-0.0765471 -0.0293741 1.196 24 44 15
-0.0746896 -0.0293741 1.196 24 44 15
-0.0728322 -0.0293741 1.196 24 44 15
-0.0709748 -0.0293741 1.196 24 44 15
-0.0690596 -0.0293495 1.195 24 44 15
-0.0672037 -0.0293495 1.195 23 43 14
-0.0652931 -0.0293249 1.194 27 47 18
-0.0634388 -0.0293249 1.194 20 40 11
-0.0615845 -0.0293249 1.194 22 42 13
-0.0597802 -0.0293495 1.195 23 43 14
-0.0579243 -0.0293495 1.195 27 47 18
-0.0560684 -0.0293495 1.195 27 47 18
-0.0542125 -0.0293495 1.195 27 47 18
-0.0523567 -0.0293495 1.195 24 44 15
-0.0505008 -0.0293495 1.195 24 44 15
-0.0486042 -0.0293249 1.194 21 42 10
-0.0467107 -0.0293004 1.193 29 50 18
-0.0448204 -0.0292758 1.192 31 52 20
-0.0429692 -0.0292758 1.192 28 49 17
-0.0410489 -0.0292267 1.19 29 50 18
-0.0391679 -0.0292021 1.189 30 51 19
-0.0372586 -0.029153 1.187 29 50 18
-0.0353554 -0.0291039 1.185 29 50 18
-0.0334868 -0.0290793 1.184 29 50 18
-0.0316213 -0.0290548 1.183 29 50 18
-0.0297589 -0.0290302 1.182 29 50 18
-0.0279468 -0.0290548 1.183 30 51 19
-0.0261096 -0.0290548 1.183 29 50 18
-0.0242723 -0.0290548 1.183 27 48 16
-0.022473 -0.0291039 1.185 27 48 16
-0.0206675 -0.029153 1.187 27 48 16
-0.0188399 -0.0291776 1.188 29 50 18
-0.0170235 -0.0292267 1.19 28 49 17
-0.0151881 -0.0292513 1.191 29 50 18
-0.0133497 -0.0292758 1.192 29 50 18
-0.0115081 -0.0293004 1.193 30 51 19
-0.00966344 -0.0293249 1.194 30 51 19
-0.00781566 -0.0293495 1.195 30 51 19
-0.00595978 -0.0293495 1.195 31 52 20
-0.00410047 -0.0293249 1.194 36 56 22
-0.00224803 -0.0293495 1.195 36 56 22
-0.000391825 -0.0293249 1.194 37 58 21
0.0014625 -0.0293249 1.194 37 58 21
0.00331682 -0.0293249 1.194 38 59 22
0.00516681 -0.0293004 1.193 39 60 23
0.00701958 -0.0293004 1.193 39 60 23
0.00886491 -0.0292758 1.192 38 59 22
0.0107071 -0.0292513 1.191 39 60 23
0.0125463 -0.0292267 1.19 38 59 22
0.0143944 -0.0292267 1.19 39 60 23
0.0162015 -0.029153 1.187 37 58 21
0.018045 -0.029153 1.187 38 59 22
0.0198549 -0.0291039 1.185 40 61 24
0.0216953 -0.0291039 1.185 40 62 23
0.0235158 -0.0290793 1.184 43 65 26
0.0253331 -0.0290548 1.183 39 63 24
0.0271474 -0.0290302 1.182 39 63 24
0.0289831 -0.0290302 1.182 37 61 22
0.0308188 -0.0290302 1.182 37 61 22
0.0326545 -0.0290302 1.182 37 61 22
0.0344902 -0.0290302 1.182 37 61 22
0.0363258 -0.0290302 1.182 38 62 23
0.0381615 -0.0290302 1.182 39 63 24
0.0399972 -0.0290302 1.182 39 63 24
0.0418683 -0.0290548 1.183 38 62 23
0.0437794 -0.0291039 1.185 39 63 24
0.0456198 -0.0291039 1.185 41 65 26
0.0475002 -0.0291285 1.186 41 65 26
0.0493837 -0.029153 1.187 39 63 24
0.0512271 -0.029153 1.187 41 65 26
0.0531153 -0.0291776 1.188 41 65 26
0.0549603 -0.0291776 1.188 41 65 24
0.0568531 -0.0292021 1.189 42 66 25
0.0586997 -0.0292021 1.189 44 68 27
0.0604953 -0.0291776 1.188 45 69 28
0.0623403 -0.0291776 1.188 45 69 28
