ply
format ascii 1.0
comment Created by Open3D
element vertex 1341
property double x
property double y
property double z
property uchar red
property uchar green
property uchar blue
end_header
0.336813 -0.053415 1.193 29 51 22
0.338665 -0.053415 1.193 29 51 22
0.340518 -0.053415 1.193 32 54 25
0.342084 -0.0533702 1.192 32 54 25
0.343935 -0.0533702 1.192 29 51 22
0.345786 -0.0533702 1.192 29 51 22
0.347638 -0.0533702 1.192 28 50 23
0.349196 -0.0533255 1.191 25 47 20
0.35075 -0.0532807 1.19 31 42 26
0.352302 -0.0532359 1.189 32 43 27
0.353255 -0.0531016 1.186 84 92 80
0.354498 -0.053012 1.184 127 135 123
0.355735 -0.0529225 1.182 144 147 139
0.356966 -0.0528329 1.18 124 127 119
0.358494 -0.0527882 1.179 55 55 49
0.36002 -0.0527434 1.178 33 33 27
0.361542 -0.0526986 1.177 27 28 25
0.362753 -0.0526091 1.175 50 51 48
0.363647 -0.0524748 1.172 99 105 105
0.363596 -0.0522061 1.166 91 97 97
0.363526 -0.0519375 1.16 74 81 85
0.363438 -0.0516688 1.154 117 124 128
0.362065 -0.0512211 1.144 126 133 144
0.362252 -0.0509972 1.139 136 143 154
0.362423 -0.0507734 1.134 143 150 161
0.363542 -0.0506838 1.132 138 145 156
0.366591 -0.0508629 1.136 81 88 97
0.369652 -0.051042 1.14 82 89 98
-0.16658 -0.0513872 1.189 7 17 5
-0.164872 -0.0514304 1.19 10 20 8
-0.163024 -0.0514304 1.19 8 18 6
-0.161176 -0.0514304 1.19 10 20 8
-0.159328 -0.0514304 1.19 10 20 8
-0.15748 -0.0514304 1.19 8 18 6
-0.155763 -0.0514736 1.191 8 21 8
-0.154042 -0.0515168 1.192 8 21 8
-0.152191 -0.0515168 1.192 10 23 10
-0.15034 -0.0515168 1.192 11 24 11
-0.148488 -0.0515168 1.192 11 24 11
-0.146637 -0.0515168 1.192 11 24 11
-0.144786 -0.0515168 1.192 12 26 11
-0.142935 -0.0515168 1.192 13 27 12
-0.141084 -0.0515168 1.192 15 29 12
-0.139116 -0.0514736 1.191 16 30 13
-0.137266 -0.0514736 1.191 15 29 12
-0.135303 -0.0514304 1.19 16 30 13
-0.133342 -0.0513872 1.189 13 27 10
-0.131385 -0.0513439 1.188 11 25 8
-0.12954 -0.0513439 1.188 11 25 8
-0.127588 -0.0513007 1.187 11 25 8
-0.125744 -0.0513007 1.187 11 25 8
-0.123796 -0.0512575 1.186 10 24 7
-0.121954 -0.0512575 1.186 10 24 7
-0.120011 -0.0512143 1.185 9 23 6
-0.118171 -0.0512143 1.185 11 22 6
-0.116331 -0.0512143 1.185 12 23 7
-0.11449 -0.0512143 1.185 11 22 8
-0.112555 -0.0511711 1.184 11 22 8
-0.110716 -0.0511711 1.184 12 23 9
-0.108693 -0.0510846 1.182 12 23 9
-0.106767 -0.0510414 1.181 12 23 9
-0.104844 -0.0509982 1.18 11 22 8
-0.102663 -0.0508253 1.176 13 24 10
-0.100579 -0.0506957 1.173 12 23 9
-0.0983363 -0.0504796 1.168 12 23 9
-0.0961918 -0.0503067 1.164 12 23 9
-0.0887411 -0.049183 1.138 11 21 9
-0.0865152 -0.0489237 1.132 12 22 10
-0.0843828 -0.0487076 1.127 11 21 9
-0.0819726 -0.0483186 1.118 5 15 3
-0.0800928 -0.0482322 1.116 5 14 5
-0.0782894 -0.048189 1.115 4 13 4
-0.0764204 -0.0481025 1.113 5 11 4
-0.0746919 -0.0481025 1.113 5 11 4
-0.0729634 -0.0481025 1.113 3 12 3
-0.0712348 -0.0481025 1.113 7 16 7
-0.0695688 -0.0481458 1.114 8 17 8
-0.0678387 -0.0481458 1.114 8 17 8
-0.066168 -0.048189 1.115 7 16 7
-0.0644363 -0.048189 1.115 6 15 6
-0.0627609 -0.0482322 1.116 1 8 4
-0.0609731 -0.048189 1.115 0 4 0
-0.0592414 -0.048189 1.115 0 0 14
-0.0575098 -0.048189 1.115 25 33 47
-0.0557782 -0.048189 1.115 65 84 107
-0.0539981 -0.0481458 1.114 95 114 137
-0.052268 -0.0481458 1.114 104 127 156
-0.0504925 -0.0481025 1.113 106 129 158
-0.048764 -0.0481025 1.113 106 131 160
-0.0469932 -0.0480593 1.112 104 129 158
-0.0452662 -0.0480593 1.112 100 128 156
-0.0435001 -0.0480161 1.111 100 128 156
-0.0417747 -0.0480161 1.111 101 131 159
-0.0400132 -0.0479729 1.11 102 132 160
-0.0382894 -0.0479729 1.11 100 133 160
-0.0365325 -0.0479297 1.109 101 134 161
-0.0348102 -0.0479297 1.109 100 135 162
-0.0330879 -0.0479297 1.109 103 138 165
-0.0313656 -0.0479297 1.109 108 148 174
-0.0296433 -0.0479297 1.109 118 158 184
-0.0279461 -0.0479729 1.11 117 165 193
-0.0262223 -0.0479729 1.11 84 132 160
-0.0244984 -0.0479729 1.11 0 53 78
-0.0227745 -0.0479729 1.11 0 29 54
-0.0210507 -0.0479729 1.11 28 107 132
-0.0193268 -0.0479729 1.11 90 169 194
-0.0176029 -0.0479729 1.11 87 178 201
-0.0158791 -0.0479729 1.11 85 176 199
-0.0141552 -0.0479729 1.11 78 172 194
-0.0124313 -0.0479729 1.11 78 172 194
-0.0107075 -0.0479729 1.11 54 147 171
-0.0089836 -0.0479729 1.11 33 126 150
-0.00725973 -0.0479729 1.11 18 109 132
-0.00553586 -0.0479729 1.11 55 146 169
-0.003812 -0.0479729 1.11 103 193 218
-0.00208813 -0.0479729 1.11 101 191 216
-0.00036426 -0.0479729 1.11 64 151 172
0.00135961 -0.0479729 1.11 0 78 99
0.00308348 -0.0479729 1.11 0 83 104
0.00480734 -0.0479729 1.11 10 97 118
0.00653121 -0.0479729 1.11 63 150 173
0.00825508 -0.0479729 1.11 103 190 213
0.00997895 -0.0479729 1.11 105 206 232
0.0117028 -0.0479729 1.11 99 200 226
0.0134267 -0.0479729 1.11 103 207 232
0.0151506 -0.0479729 1.11 109 213 238
0.0168744 -0.0479729 1.11 103 211 236
0.0185983 -0.0479729 1.11 105 213 238
0.0203038 -0.0479297 1.109 78 184 209
0.0220262 -0.0479297 1.109 0 102 127
0.0237485 -0.0479297 1.109 19 122 143
0.0254708 -0.0479297 1.109 68 171 192
0.0272176 -0.0479729 1.11 28 131 152
0.0289415 -0.0479729 1.11 1 104 125
0.030693 -0.0480161 1.111 9 105 120
0.0324184 -0.0480161 1.111 69 165 180
0.0342053 -0.0481025 1.113 89 188 205
0.0359338 -0.0481025 1.113 99 198 215
0.0376962 -0.0481458 1.114 82 180 200
0.0394263 -0.0481458 1.114 28 126 146
0.0411933 -0.048189 1.115 30 127 151
0.0429249 -0.048189 1.115 29 126 150
0.0446566 -0.048189 1.115 38 137 168
0.0464298 -0.0482322 1.116 67 166 197
0.0482061 -0.0482754 1.117 95 194 225
0.0500303 -0.0483618 1.119 96 195 226
0.0518144 -0.0484051 1.12 87 186 212
0.0536016 -0.0484483 1.121 94 193 219
0.0554907 -0.0485779 1.124 151 233 255
0.0574909 -0.048794 1.129 164 246 255
0.0612678 -0.0490101 1.134 36 94 106
0.0634736 -0.0493559 1.142 46 80 71
0.067901 -0.0500042 1.157 59 86 56
0.0701196 -0.0503067 1.164 61 88 58
0.0741784 -0.0506092 1.171 49 78 38
0.0763864 -0.0508685 1.177 55 84 42
0.0784137 -0.0509982 1.18 53 82 40
0.0803823 -0.0510846 1.182 55 81 40
0.0823571 -0.0511711 1.184 58 84 43
0.084267 -0.0512143 1.185 58 84 43
0.08618 -0.0512575 1.186 58 84 43
0.0880961 -0.0513007 1.187 57 83 42
0.0899396 -0.0513007 1.187 56 82 41
0.091783 -0.0513007 1.187 57 81 40
0.0937054 -0.0513439 1.188 56 80 39
0.0956308 -0.0513872 1.189 55 79 38
0.0975593 -0.0514304 1.19 53 77 36
0.0994075 -0.0514304 1.19 53 77 36
0.101341 -0.0514736 1.191 55 79 38
0.10319 -0.0514736 1.191 56 80 39
0.10504 -0.0514736 1.191 55 79 38
0.106979 -0.0515168 1.192 56 80 41
0.108739 -0.0514736 1.191 57 81 42
0.110589 -0.0514736 1.191 57 81 42
0.112439 -0.0514736 1.191 55 79 40
0.114288 -0.0514736 1.191 55 79 40
0.116138 -0.0514736 1.191 64 88 49
0.117988 -0.0514736 1.191 60 84 45
0.119837 -0.0514736 1.191 52 76 37
0.121687 -0.0514736 1.191 53 77 36
0.123537 -0.0514736 1.191 53 77 36
0.125386 -0.0514736 1.191 53 77 36
0.127236 -0.0514736 1.191 53 77 36
0.128977 -0.0514304 1.19 53 77 36
0.130825 -0.0514304 1.19 53 77 36
0.132673 -0.0514304 1.19 51 75 34
0.134635 -0.0514736 1.191 49 73 32
0.136484 -0.0514736 1.191 49 73 32
0.138334 -0.0514736 1.191 50 74 33
0.140301 -0.0515168 1.192 49 74 30
0.142153 -0.0515168 1.192 49 74 30
0.144125 -0.05156 1.193 49 74 30
0.1461 -0.0516033 1.194 51 76 32
0.147954 -0.0516033 1.194 49 75 29
0.149808 -0.0516033 1.194 51 77 31
0.151663 -0.0516033 1.194 49 75 29
0.153517 -0.0516033 1.194 51 77 31
0.155371 -0.0516033 1.194 50 76 30
0.157226 -0.0516033 1.194 50 76 30
0.15908 -0.0516033 1.194 50 76 30
0.160799 -0.05156 1.193 50 76 30
0.162652 -0.05156 1.193 52 79 30
0.164367 -0.0515168 1.192 53 80 31
0.166218 -0.0515168 1.192 51 78 29
0.16807 -0.0515168 1.192 49 76 27
0.169778 -0.0514736 1.191 49 76 27
0.171628 -0.0514736 1.191 50 77 28
0.173332 -0.0514304 1.19 51 77 26
0.17518 -0.0514304 1.19 51 77 26
0.177028 -0.0514304 1.19 50 76 25
0.178876 -0.0514304 1.19 52 78 27
0.180724 -0.0514304 1.19 52 79 25
0.182419 -0.0513872 1.189 52 79 25
0.184111 -0.0513439 1.188 52 79 25
0.185956 -0.0513439 1.188 52 79 25
0.187643 -0.0513007 1.187 51 78 24
0.189486 -0.0513007 1.187 53 80 26
0.191329 -0.0513007 1.187 53 80 26
0.193173 -0.0513007 1.187 53 80 26
0.195181 -0.0513439 1.188 53 80 26
0.197026 -0.0513439 1.188 53 80 26
0.199038 -0.0513872 1.189 52 79 25
0.201054 -0.0514304 1.19 52 79 25
0.202902 -0.0514304 1.19 54 81 27
0.20475 -0.0514304 1.19 52 79 25
0.206598 -0.0514304 1.19 52 79 25
0.208446 -0.0514304 1.19 52 79 25
0.210294 -0.0514304 1.19 52 79 25
0.212142 -0.0514304 1.19 53 80 26
0.21399 -0.0514304 1.19 53 80 26
0.21602 -0.0514736 1.191 53 80 26
0.217869 -0.0514736 1.191 58 84 33
0.219719 -0.0514736 1.191 60 86 35
0.221755 -0.0515168 1.192 57 82 33
0.223606 -0.0515168 1.192 55 80 31
0.225457 -0.0515168 1.192 55 78 34
0.227308 -0.0515168 1.192 51 74 30
0.22916 -0.0515168 1.192 50 72 31
0.231205 -0.05156 1.193 48 70 29
0.233057 -0.05156 1.193 47 69 28
0.235107 -0.0516033 1.194 45 67 26
0.236961 -0.0516033 1.194 43 65 24
0.238616 -0.05156 1.193 43 65 24
0.240469 -0.05156 1.193 40 62 23
0.242118 -0.0515168 1.192 29 51 12
0.243969 -0.0515168 1.192 31 53 14
0.245821 -0.0515168 1.192 30 52 13
0.247464 -0.0514736 1.191 30 50 16
0.249314 -0.0514736 1.191 31 51 17
0.251163 -0.0514736 1.191 26 44 15
0.253013 -0.0514736 1.191 24 42 13
0.255077 -0.0515168 1.192 22 42 13
0.256928 -0.0515168 1.192 23 43 14
0.258779 -0.0515168 1.192 24 44 15
0.260849 -0.05156 1.193 25 45 16
0.262702 -0.05156 1.193 24 44 15
0.264555 -0.05156 1.193 25 45 16
0.266184 -0.0515168 1.192 23 43 16
0.26781 -0.0514736 1.191 22 42 15
0.269434 -0.0514304 1.19 22 42 15
0.271054 -0.0513872 1.189 22 42 15
0.272671 -0.0513439 1.188 24 44 17
0.274285 -0.0513007 1.187 23 43 16
0.275896 -0.0512575 1.186 23 43 16
0.277503 -0.0512143 1.185 22 42 15
0.279344 -0.0512143 1.185 22 42 13
0.280709 -0.0511278 1.183 22 42 13
0.282308 -0.0510846 1.182 24 44 15
0.284143 -0.0510846 1.182 25 45 16
0.286221 -0.0511278 1.183 25 45 16
0.290141 -0.0511711 1.184 23 43 14
0.292226 -0.0512143 1.185 23 43 14
0.294563 -0.0513007 1.187 22 42 13
0.296656 -0.0513439 1.188 22 42 13
0.299003 -0.0514304 1.19 22 42 13
0.301357 -0.0515168 1.192 22 42 13
0.303971 -0.0516465 1.195 23 43 16
0.306083 -0.0516897 1.196 25 45 18
0.308198 -0.0517329 1.197 27 47 20
0.310057 -0.0517329 1.197 25 45 18
0.312177 -0.0517761 1.198 25 45 18
0.313775 -0.0517329 1.197 24 44 17
0.315634 -0.0517329 1.197 23 43 16
0.317493 -0.0517329 1.197 22 42 15
0.319085 -0.0516897 1.196 24 44 17
0.320674 -0.0516465 1.195 24 44 17
0.32253 -0.0516465 1.195 24 44 17
0.324386 -0.0516465 1.195 24 44 17
0.325969 -0.0516033 1.194 25 45 18
0.327823 -0.0516033 1.194 25 45 18
0.329678 -0.0516033 1.194 29 49 22
0.331532 -0.0516033 1.194 31 51 24
0.333107 -0.05156 1.193 31 51 22
0.335241 -0.0516033 1.194 31 51 22
0.337095 -0.0516033 1.194 28 50 21
0.338949 -0.0516033 1.194 30 52 23
0.340518 -0.05156 1.193 32 54 25
0.342371 -0.05156 1.193 32 54 25
0.343935 -0.0515168 1.192 30 52 23
0.345786 -0.0515168 1.192 32 54 25
0.347638 -0.0515168 1.192 30 50 23
0.349196 -0.0514736 1.191 28 48 21
0.35075 -0.0514304 1.19 27 38 22
0.352302 -0.0513872 1.189 40 51 35
0.353255 -0.0512575 1.186 116 125 116
0.354498 -0.0511711 1.184 127 136 127
0.355735 -0.0510846 1.182 129 132 124
0.356966 -0.0509982 1.18 51 54 46
0.358494 -0.050955 1.179 32 32 26
0.36002 -0.0509118 1.178 35 35 29
0.361235 -0.0508253 1.176 27 29 23
0.362753 -0.0507821 1.175 25 27 21
0.363336 -0.0506092 1.171 92 98 98
0.363284 -0.0503499 1.165 92 98 98
0.363526 -0.0501338 1.16 74 80 87
0.363438 -0.0498745 1.154 119 125 132
0.362065 -0.0494423 1.144 131 138 149
0.362252 -0.0492262 1.139 138 145 156
0.362423 -0.0490101 1.134 145 151 165
0.363863 -0.0489669 1.133 140 146 160
0.366591 -0.0490966 1.136 82 89 98
0.369976 -0.0493127 1.141 80 87 96
-0.16658 -0.0495384 1.189 8 17 8
-0.164872 -0.0495801 1.19 8 17 8
-0.163024 -0.0495801 1.19 8 17 8
-0.161176 -0.0495801 1.19 8 17 8
-0.159328 -0.0495801 1.19 10 19 10
-0.15748 -0.0495801 1.19 10 19 10
-0.155632 -0.0495801 1.19 11 20 11
-0.153913 -0.0496217 1.191 11 20 11
-0.152063 -0.0496217 1.191 12 21 12
-0.150214 -0.0496217 1.191 13 22 13
-0.148488 -0.0496634 1.192 11 24 11
-0.146637 -0.0496634 1.192 11 24 11
-0.144786 -0.0496634 1.192 11 25 10
-0.142935 -0.0496634 1.192 12 26 11
-0.141084 -0.0496634 1.192 15 29 14
-0.139116 -0.0496217 1.191 15 29 14
-0.137266 -0.0496217 1.191 12 26 9
-0.135303 -0.0495801 1.19 13 27 10
-0.133454 -0.0495801 1.19 11 25 8
-0.131496 -0.0495384 1.189 11 25 8
-0.12954 -0.0494967 1.188 11 25 8
-0.127588 -0.0494551 1.187 10 24 7
-0.125744 -0.0494551 1.187 12 23 7
-0.123796 -0.0494134 1.186 12 23 7
-0.121954 -0.0494134 1.186 11 22 6
-0.120011 -0.0493718 1.185 11 22 6
-0.118171 -0.0493718 1.185 12 23 7
-0.116331 -0.0493718 1.185 12 23 7
-0.114394 -0.0493301 1.184 11 22 8
-0.11246 -0.0492884 1.183 12 23 9
-0.110623 -0.0492884 1.183 12 23 9
-0.108693 -0.0492468 1.182 12 23 9
-0.106677 -0.0491634 1.18 11 22 8
-0.104578 -0.0490384 1.177 11 22 8
-0.102313 -0.0488301 1.172 12 23 9
-0.10015 -0.0486635 1.168 12 23 9
-0.0979995 -0.0484968 1.164 12 23 9
-0.0951175 -0.0479552 1.151 11 22 8
-0.0927623 -0.0476635 1.144 11 21 9
-0.0904289 -0.0473719 1.137 11 21 9
-0.0881172 -0.0470802 1.13 10 20 8
-0.0859038 -0.0468303 1.124 5 15 3
-0.0835592 -0.0464969 1.116 5 13 6
-0.0817527 -0.0464553 1.115 4 12 5
-0.0798057 -0.0463303 1.112 2 11 9
-0.0780085 -0.0462886 1.111 0 8 6
-0.0762144 -0.046247 1.11 0 6 5
-0.0744906 -0.046247 1.11 0 5 4
-0.0728323 -0.0462886 1.111 0 3 2
-0.0711068 -0.0462886 1.111 0 6 5
-0.0693814 -0.0462886 1.111 0 7 3
-0.0677778 -0.046372 1.113 6 13 9
-0.0660493 -0.046372 1.113 6 13 9
-0.0643207 -0.046372 1.113 1 8 4
-0.0626485 -0.0464136 1.114 0 3 6
-0.0609184 -0.0464136 1.114 0 2 5
-0.0591883 -0.0464136 1.114 11 19 46
-0.0574582 -0.0464136 1.114 71 79 106
-0.0556781 -0.046372 1.113 84 103 131
-0.0539496 -0.046372 1.113 97 116 144
-0.0522211 -0.046372 1.113 99 124 153
-0.0504925 -0.046372 1.113 101 126 155
-0.048764 -0.046372 1.113 101 126 155
-0.0469932 -0.0463303 1.112 105 130 159
-0.0452255 -0.0462886 1.111 109 137 165
-0.0435001 -0.0462886 1.111 105 133 161
-0.0417747 -0.0462886 1.111 103 133 161
-0.0400493 -0.0462886 1.111 104 134 162
-0.0382894 -0.046247 1.11 103 136 163
-0.0365655 -0.046247 1.11 109 142 169
-0.0348416 -0.046247 1.11 112 145 172
-0.0331177 -0.046247 1.11 114 147 174
-0.0313939 -0.046247 1.11 112 152 178
-0.02967 -0.046247 1.11 119 159 185
-0.0279461 -0.046247 1.11 116 171 198
-0.0262223 -0.046247 1.11 107 162 189
-0.0244984 -0.046247 1.11 10 85 108
-0.0227951 -0.0462886 1.111 13 88 111
-0.0210696 -0.0462886 1.111 77 168 191
-0.0193268 -0.046247 1.11 87 178 201
-0.0176029 -0.046247 1.11 83 177 199
-0.0158791 -0.046247 1.11 83 177 199
-0.0141552 -0.046247 1.11 72 172 195
-0.0124313 -0.046247 1.11 58 158 181
-0.0107075 -0.046247 1.11 27 120 144
-0.0089836 -0.046247 1.11 36 129 153
-0.00725973 -0.046247 1.11 55 148 172
-0.00553586 -0.046247 1.11 93 186 210
-0.003812 -0.046247 1.11 101 190 218
-0.00208813 -0.046247 1.11 73 162 190
-0.00036426 -0.046247 1.11 1 83 107
0.00135961 -0.046247 1.11 0 58 82
0.00308348 -0.046247 1.11 0 26 52
0.00480734 -0.046247 1.11 0 43 69
0.00653121 -0.046247 1.11 22 105 131
0.00825508 -0.046247 1.11 88 171 197
0.00997895 -0.046247 1.11 102 206 231
0.0117134 -0.0462886 1.111 100 204 229
0.0134388 -0.0462886 1.111 103 208 230
0.0151642 -0.0462886 1.111 105 210 232
0.0168896 -0.0462886 1.111 106 215 237
0.0185983 -0.046247 1.11 99 208 230
0.0203222 -0.046247 1.11 34 137 156
0.0220262 -0.0462053 1.109 8 111 130
0.0237699 -0.046247 1.11 46 149 170
0.0254708 -0.0462053 1.109 12 115 136
0.0272176 -0.046247 1.11 13 105 123
0.0289676 -0.0462886 1.111 22 114 132
0.030693 -0.0462886 1.111 4 100 120
0.0324768 -0.046372 1.113 0 96 116
0.0342053 -0.046372 1.113 7 102 119
0.0359338 -0.046372 1.113 64 159 176
0.0376962 -0.0464136 1.114 84 193 215
0.0394263 -0.0464136 1.114 73 182 204
0.0411933 -0.0464553 1.115 30 132 162
0.0429634 -0.0464969 1.116 16 118 148
0.0446966 -0.0464969 1.116 0 101 131
0.0464714 -0.0465386 1.117 9 113 143
0.0482493 -0.0465803 1.118 50 155 189
0.0501197 -0.0467053 1.121 93 198 232
0.0519069 -0.0467469 1.122 107 202 231
0.0537451 -0.0468303 1.124 130 225 254
0.0556388 -0.0469552 1.127 156 240 255
0.0576437 -0.0471636 1.132 137 221 243
0.0615379 -0.0474552 1.139 22 85 90
0.0680771 -0.0483302 1.16 51 79 46
0.0703003 -0.0486218 1.167 53 81 48
0.0743051 -0.0488718 1.173 53 82 42
0.0764513 -0.0490801 1.178 55 84 42
0.0784802 -0.0492051 1.181 53 82 40
0.0804503 -0.0492884 1.183 55 81 40
0.0823571 -0.0493301 1.184 60 86 45
0.084267 -0.0493718 1.185 58 85 41
0.0861074 -0.0493718 1.185 56 83 39
0.0880219 -0.0494134 1.186 54 81 37
0.0899396 -0.0494551 1.187 55 82 38
0.091783 -0.0494551 1.187 54 81 37
0.0936265 -0.0494551 1.187 53 80 36
0.0955504 -0.0494967 1.188 55 80 36
0.0974774 -0.0495384 1.189 55 80 36
0.0994075 -0.0495801 1.19 53 78 34
0.101256 -0.0495801 1.19 55 80 36
0.103104 -0.0495801 1.19 56 80 39
0.104952 -0.0495801 1.19 55 79 38
0.1068 -0.0495801 1.19 57 81 40
0.108648 -0.0495801 1.19 57 81 40
0.110496 -0.0495801 1.19 57 81 40
0.112344 -0.0495801 1.19 56 80 39
0.114192 -0.0495801 1.19 55 79 38
0.11604 -0.0495801 1.19 58 82 41
0.117889 -0.0495801 1.19 56 80 39
0.119737 -0.0495801 1.19 55 79 38
0.121585 -0.0495801 1.19 53 77 36
0.123433 -0.0495801 1.19 53 77 36
0.125281 -0.0495801 1.19 53 77 36
0.127129 -0.0495801 1.19 53 77 36
0.129086 -0.0496217 1.191 53 77 36
0.130935 -0.0496217 1.191 52 76 35
0.132785 -0.0496217 1.191 51 75 34
0.134748 -0.0496634 1.192 46 70 29
0.136599 -0.0496634 1.192 48 72 31
0.13845 -0.0496634 1.192 50 74 33
0.140419 -0.0497051 1.193 49 73 32
0.142391 -0.0497467 1.194 49 73 32
0.144366 -0.0497884 1.195 50 75 31
0.146222 -0.0497884 1.195 50 75 31
0.148078 -0.0497884 1.195 48 73 29
0.149934 -0.0497884 1.195 50 75 31
0.15179 -0.0497884 1.195 49 75 29
0.153646 -0.0497884 1.195 50 76 30
0.155501 -0.0497884 1.195 49 75 29
0.157357 -0.0497884 1.195 50 76 30
0.159213 -0.0497884 1.195 51 77 31
0.161069 -0.0497884 1.195 52 78 32
0.162789 -0.0497467 1.194 53 79 33
0.164643 -0.0497467 1.194 52 78 32
0.166358 -0.0497051 1.193 51 78 29
0.16807 -0.0496634 1.192 50 77 28
0.169921 -0.0496634 1.192 48 76 25
0.171772 -0.0496634 1.192 48 76 25
0.173478 -0.0496217 1.191 48 76 25
0.175327 -0.0496217 1.191 48 76 25
0.177028 -0.0495801 1.19 50 77 23
0.178876 -0.0495801 1.19 51 78 24
0.180724 -0.0495801 1.19 51 78 24
0.182572 -0.0495801 1.19 51 78 24
0.184421 -0.0495801 1.19 51 78 24
0.186112 -0.0495384 1.189 52 79 25
0.188117 -0.0495801 1.19 51 78 24
0.189965 -0.0495801 1.19 52 79 25
0.191652 -0.0495384 1.189 52 79 25
0.193661 -0.0495801 1.19 52 79 25
0.195509 -0.0495801 1.19 52 79 25
0.197357 -0.0495801 1.19 51 78 24
0.199205 -0.0495801 1.19 50 77 23
0.201222 -0.0496217 1.191 52 79 25
0.203072 -0.0496217 1.191 53 80 26
0.204922 -0.0496217 1.191 52 79 25
0.206945 -0.0496634 1.192 50 77 23
0.208796 -0.0496634 1.192 50 77 23
0.210648 -0.0496634 1.192 50 77 23
0.212499 -0.0496634 1.192 53 80 26
0.21435 -0.0496634 1.192 54 81 27
0.216201 -0.0496634 1.192 55 82 28
0.218052 -0.0496634 1.192 57 83 32
0.219904 -0.0496634 1.192 57 83 32
0.221755 -0.0496634 1.192 57 83 32
0.223606 -0.0496634 1.192 55 81 30
0.225457 -0.0496634 1.192 51 75 29
0.227499 -0.0497051 1.193 51 75 29
0.229352 -0.0497051 1.193 48 70 29
0.231205 -0.0497051 1.193 48 70 29
0.233253 -0.0497467 1.194 50 72 31
0.235107 -0.0497467 1.194 41 63 22
0.236961 -0.0497467 1.194 41 63 22
0.238816 -0.0497467 1.194 41 63 22
0.240469 -0.0497051 1.193 41 63 24
0.242321 -0.0497051 1.193 39 61 22
0.243969 -0.0496634 1.192 39 61 22
0.245821 -0.0496634 1.192 32 54 15
0.247672 -0.0496634 1.192 30 50 16
0.249523 -0.0496634 1.192 29 49 15
0.251374 -0.0496634 1.192 25 43 14
0.253226 -0.0496634 1.192 25 43 14
0.255077 -0.0496634 1.192 24 42 13
0.256928 -0.0496634 1.192 25 43 14
0.258779 -0.0496634 1.192 24 44 15
0.260849 -0.0497051 1.193 24 44 15
0.262482 -0.0496634 1.192 24 44 15
0.264333 -0.0496634 1.192 24 44 15
0.265737 -0.0495801 1.19 25 45 16
0.267586 -0.0495801 1.19 23 43 14
0.269207 -0.0495384 1.189 22 42 13
0.270826 -0.0494967 1.188 23 43 14
0.272441 -0.0494551 1.187 24 44 15
0.274054 -0.0494134 1.186 24 44 15
0.275663 -0.0493718 1.185 24 44 15
0.277269 -0.0493301 1.184 23 43 14
0.278872 -0.0492884 1.183 22 42 13
0.280709 -0.0492884 1.183 24 44 15
0.282308 -0.0492468 1.182 25 45 16
0.284143 -0.0492468 1.182 23 43 14
0.285979 -0.0492468 1.182 22 42 13
0.290141 -0.0493301 1.184 23 43 14
0.292226 -0.0493718 1.185 23 43 14
0.294563 -0.0494551 1.187 25 45 16
0.296906 -0.0495384 1.189 24 44 15
0.299003 -0.0495801 1.19 22 42 13
0.301357 -0.0496634 1.192 23 43 14
0.303971 -0.0497884 1.195 23 43 14
0.306339 -0.0498717 1.197 25 45 16
0.308456 -0.0499134 1.198 27 47 18
0.310575 -0.049955 1.199 25 45 16
0.312698 -0.0499967 1.2 25 45 18
0.314562 -0.0499967 1.2 25 45 18
0.316161 -0.049955 1.199 25 45 18
0.317758 -0.0499134 1.198 24 44 17
0.319352 -0.0498717 1.197 25 45 18
0.321211 -0.0498717 1.197 25 45 18
0.3228 -0.0498301 1.196 27 47 20
0.324386 -0.0497884 1.195 27 47 20
0.326242 -0.0497884 1.195 27 47 20
0.327823 -0.0497467 1.194 27 47 20
0.329401 -0.0497051 1.193 29 49 22
0.331254 -0.0497051 1.193 31 51 24
0.333107 -0.0497051 1.193 32 52 23
0.33496 -0.0497051 1.193 32 52 23
0.336813 -0.0497051 1.193 28 50 21
0.338665 -0.0497051 1.193 30 52 23
0.340518 -0.0497051 1.193 32 54 25
0.342084 -0.0496634 1.192 32 54 25
0.343935 -0.0496634 1.192 30 52 23
0.345786 -0.0496634 1.192 30 52 23
0.347638 -0.0496634 1.192 28 49 24
0.348902 -0.0495801 1.19 25 46 21
0.35075 -0.0495801 1.19 26 40 25
0.352302 -0.0495384 1.189 81 95 80
0.353255 -0.0494134 1.186 128 135 126
0.354498 -0.0493301 1.184 122 129 120
0.355735 -0.0492468 1.182 108 110 104
0.356966 -0.0491634 1.18 44 46 40
0.358494 -0.0491218 1.179 30 28 22
0.36002 -0.0490801 1.178 41 39 33
0.361235 -0.0489968 1.176 29 31 25
0.362135 -0.0488718 1.173 25 27 21
0.363336 -0.0487885 1.171 76 82 81
0.363284 -0.0485385 1.165 89 95 94
0.363526 -0.0483302 1.16 75 81 88
0.361863 -0.0478719 1.149 122 128 135
0.362065 -0.0476635 1.144 129 136 147
0.362252 -0.0474552 1.139 138 145 156
0.362423 -0.0472469 1.134 150 157 168
0.363542 -0.0471636 1.132 141 148 159
0.366591 -0.0473302 1.136 84 91 102
0.3703 -0.0475802 1.142 80 87 98
-0.16658 -0.0476897 1.189 7 16 7
-0.164872 -0.0477298 1.19 8 17 8
-0.163024 -0.0477298 1.19 8 18 6
-0.161176 -0.0477298 1.19 8 18 6
-0.159328 -0.0477298 1.19 8 18 6
-0.15748 -0.0477298 1.19 8 18 6
-0.155632 -0.0477298 1.19 8 18 6
-0.153784 -0.0477298 1.19 10 20 8
-0.151936 -0.0477298 1.19 11 21 9
-0.150214 -0.0477699 1.191 12 22 10
-0.148364 -0.0477699 1.191 13 23 11
-0.146514 -0.0477699 1.191 14 24 12
-0.144786 -0.04781 1.192 13 24 10
-0.142935 -0.04781 1.192 14 25 11
-0.141084 -0.04781 1.192 15 26 10
-0.139116 -0.0477699 1.191 15 26 10
-0.137266 -0.0477699 1.191 14 25 9
-0.135303 -0.0477298 1.19 14 25 9
-0.133454 -0.0477298 1.19 13 24 8
-0.131496 -0.0476897 1.189 13 24 8
-0.12954 -0.0476495 1.188 12 23 7
-0.127588 -0.0476094 1.187 12 23 7
-0.125744 -0.0476094 1.187 12 23 7
-0.123796 -0.0475693 1.186 12 23 7
-0.121954 -0.0475693 1.186 12 23 7
-0.120011 -0.0475292 1.185 12 23 7
-0.118171 -0.0475292 1.185 12 23 9
-0.116232 -0.0474891 1.184 11 22 8
-0.114297 -0.047449 1.183 12 23 9
-0.112365 -0.0474089 1.182 12 23 9
-0.110529 -0.0474089 1.182 12 23 9
-0.108601 -0.0473688 1.181 12 23 9
-0.106496 -0.0472485 1.178 11 22 8
-0.1044 -0.0471281 1.175 11 22 8
-0.102226 -0.0469677 1.171 11 22 8
-0.0998072 -0.0466869 1.164 11 22 8
-0.094539 -0.0458847 1.144 11 21 9
-0.0921947 -0.045604 1.137 11 21 9
-0.0898722 -0.0453232 1.13 10 20 8
-0.0877273 -0.0451227 1.125 5 14 5
-0.0852923 -0.0447617 1.116 1 10 1
-0.0833345 -0.0446414 1.113 0 11 9
-0.0814594 -0.0445612 1.111 14 25 23
-0.0795904 -0.0444809 1.109 45 58 64
-0.0777979 -0.0444408 1.108 74 87 93
-0.0760771 -0.0444408 1.108 49 64 70
-0.0743564 -0.0444408 1.108 24 39 45
-0.0726356 -0.0444408 1.108 0 12 18
-0.0709148 -0.0444408 1.108 0 2 8
-0.069319 -0.044521 1.11 0 2 1
-0.0675951 -0.044521 1.11 1 7 6
-0.0659306 -0.0445612 1.111 1 7 6
-0.0642629 -0.0446013 1.112 0 6 5
-0.0625922 -0.0446414 1.113 3 6 14
-0.0608637 -0.0446414 1.113 6 9 17
-0.0591352 -0.0446414 1.113 53 68 89
-0.0574066 -0.0446414 1.113 107 122 143
-0.0556781 -0.0446414 1.113 103 125 157
-0.0539496 -0.0446414 1.113 95 117 149
-0.0522211 -0.0446414 1.113 87 111 143
-0.0504472 -0.0446013 1.112 95 119 151
-0.0487202 -0.0446013 1.112 101 125 157
-0.046951 -0.0445612 1.111 109 133 165
-0.0452255 -0.0445612 1.111 107 137 165
-0.0435001 -0.0445612 1.111 103 133 161
-0.0417747 -0.0445612 1.111 101 134 161
-0.0400493 -0.0445612 1.111 101 134 161
-0.0383238 -0.0445612 1.111 106 139 166
-0.0365984 -0.0445612 1.111 110 143 170
-0.0348416 -0.044521 1.11 113 148 175
-0.0331177 -0.044521 1.11 59 94 121
-0.0313939 -0.044521 1.11 65 105 131
-0.0296967 -0.0445612 1.111 123 163 189
-0.0279713 -0.0445612 1.111 118 178 206
-0.0262459 -0.0445612 1.111 118 178 206
-0.0245205 -0.0445612 1.111 88 170 192
-0.0227951 -0.0445612 1.111 66 148 170
-0.0210696 -0.0445612 1.111 80 173 197
-0.0193442 -0.0445612 1.111 82 175 199
-0.0176188 -0.0445612 1.111 78 175 199
-0.0158791 -0.044521 1.11 81 178 202
-0.0141552 -0.044521 1.11 80 180 203
-0.0124313 -0.044521 1.11 81 181 204
-0.0107075 -0.044521 1.11 42 139 163
-0.0089836 -0.044521 1.11 32 129 153
-0.00725973 -0.044521 1.11 82 179 203
-0.00553586 -0.044521 1.11 89 186 210
-0.003812 -0.044521 1.11 62 151 174
-0.00208813 -0.044521 1.11 5 94 117
-0.00036426 -0.044521 1.11 0 80 102
0.00136083 -0.0445612 1.111 0 42 64
0.00308348 -0.044521 1.11 0 27 50
0.00481167 -0.0445612 1.111 0 20 43
0.0065371 -0.0445612 1.111 0 66 89
0.00826252 -0.0445612 1.111 11 100 123
0.00998794 -0.0445612 1.111 81 178 202
0.0117134 -0.0445612 1.111 113 210 234
0.0134388 -0.0445612 1.111 102 209 231
0.0151642 -0.0445612 1.111 102 209 231
0.0168896 -0.0445612 1.111 103 212 234
0.018615 -0.0445612 1.111 86 195 217
0.0203222 -0.044521 1.11 23 131 149
0.022046 -0.044521 1.11 7 115 133
0.0237699 -0.044521 1.11 3 106 125
0.0254938 -0.044521 1.11 0 94 113
0.0272176 -0.044521 1.11 51 147 162
0.0289676 -0.0445612 1.111 71 167 182
0.030693 -0.0445612 1.111 48 141 157
0.0324768 -0.0446414 1.113 24 117 133
0.034236 -0.0446815 1.114 13 106 122
0.0359661 -0.0446815 1.114 3 96 112
0.03773 -0.0447216 1.115 68 172 188
0.0394617 -0.0447216 1.115 95 199 215
0.0412302 -0.0447617 1.116 84 184 212
0.0429634 -0.0447617 1.116 65 165 193
0.0447367 -0.0448018 1.117 14 118 148
0.046513 -0.0448419 1.118 0 104 134
0.0483356 -0.0449221 1.12 41 140 173
0.0501644 -0.0450024 1.122 102 201 234
0.0520457 -0.0451227 1.125 121 214 238
0.0538885 -0.0452029 1.127 144 237 255
0.0557869 -0.0453232 1.13 154 229 245
0.0596116 -0.0455639 1.136 47 99 91
0.061754 -0.0458446 1.143 15 67 59
0.0639182 -0.0461254 1.15 43 77 48
0.0682531 -0.0466468 1.163 54 83 43
0.0722363 -0.0468875 1.169 54 83 41
0.0744318 -0.0471281 1.175 52 81 39
0.0765811 -0.0473287 1.18 55 81 40
0.0784802 -0.0473688 1.181 54 80 39
0.0803823 -0.0474089 1.182 53 79 38
0.0822876 -0.047449 1.183 58 84 43
0.0841959 -0.0474891 1.184 57 83 42
0.0861074 -0.0475292 1.185 55 81 40
0.0879477 -0.0475292 1.185 55 82 38
0.0898638 -0.0475693 1.186 55 82 38
0.091783 -0.0476094 1.187 53 80 36
0.0936265 -0.0476094 1.187 53 80 36
0.0954699 -0.0476094 1.187 56 81 37
0.0973134 -0.0476094 1.187 57 82 38
0.0992404 -0.0476495 1.188 57 82 38
0.101085 -0.0476495 1.188 56 81 37
0.103017 -0.0476897 1.189 56 80 39
0.104864 -0.0476897 1.189 53 77 36
0.10671 -0.0476897 1.189 57 81 40
0.108557 -0.0476897 1.189 56 80 39
0.110403 -0.0476897 1.189 57 81 40
0.11225 -0.0476897 1.189 56 80 39
0.114096 -0.0476897 1.189 53 77 36
0.115943 -0.0476897 1.189 58 82 41
0.117789 -0.0476897 1.189 56 80 39
0.119636 -0.0476897 1.189 56 80 39
0.121585 -0.0477298 1.19 55 79 38
0.123433 -0.0477298 1.19 53 77 36
0.125281 -0.0477298 1.19 53 77 36
0.127236 -0.0477699 1.191 53 77 36
0.129086 -0.0477699 1.191 53 77 36
0.130935 -0.0477699 1.191 53 77 36
0.132896 -0.04781 1.192 53 77 36
0.134748 -0.04781 1.192 53 77 36
0.136599 -0.04781 1.192 56 80 39
0.138566 -0.0478501 1.193 59 83 42
0.140537 -0.0478902 1.194 52 76 35
0.142391 -0.0478902 1.194 48 72 31
0.144366 -0.0479303 1.195 49 74 30
0.146222 -0.0479303 1.195 48 73 29
0.148078 -0.0479303 1.195 49 74 30
0.150059 -0.0479704 1.196 51 76 32
0.15179 -0.0479303 1.195 51 76 32
0.153646 -0.0479303 1.195 51 76 32
0.155501 -0.0479303 1.195 51 77 31
0.157357 -0.0479303 1.195 51 77 31
0.159213 -0.0479303 1.195 52 78 32
0.161069 -0.0479303 1.195 53 79 33
0.162925 -0.0479303 1.195 53 79 33
0.164643 -0.0478902 1.194 52 78 32
0.166358 -0.0478501 1.193 52 78 32
0.16807 -0.04781 1.192 51 77 31
0.169921 -0.04781 1.192 51 78 29
0.171772 -0.04781 1.192 50 77 28
0.173623 -0.04781 1.192 50 77 28
0.175327 -0.0477699 1.191 49 76 27
0.177177 -0.0477699 1.191 52 78 27
0.179027 -0.0477699 1.191 53 79 28
0.180724 -0.0477298 1.19 53 80 26
0.182572 -0.0477298 1.19 53 80 26
0.184421 -0.0477298 1.19 52 79 25
0.186269 -0.0477298 1.19 52 79 25
0.188117 -0.0477298 1.19 52 79 25
0.189965 -0.0477298 1.19 51 78 24
0.191813 -0.0477298 1.19 51 78 24
0.193824 -0.0477699 1.191 50 77 23
0.195838 -0.04781 1.192 51 78 24
0.197689 -0.04781 1.192 48 75 21
0.19954 -0.04781 1.192 50 77 23
0.201391 -0.04781 1.192 51 78 24
0.203243 -0.04781 1.192 53 80 26
0.205094 -0.04781 1.192 53 80 26
0.207119 -0.0478501 1.193 52 79 25
0.208971 -0.0478501 1.193 52 79 25
0.210824 -0.0478501 1.193 52 79 25
0.212677 -0.0478501 1.193 54 81 27
0.21453 -0.0478501 1.193 54 81 27
0.216383 -0.0478501 1.193 54 81 27
0.218235 -0.0478501 1.193 55 81 30
0.220088 -0.0478501 1.193 57 83 32
0.221941 -0.0478501 1.193 55 80 31
0.223794 -0.0478501 1.193 54 79 30
0.225646 -0.0478501 1.193 52 75 31
0.227499 -0.0478501 1.193 52 75 31
0.229352 -0.0478501 1.193 51 73 34
0.231399 -0.0478902 1.194 51 73 34
0.233253 -0.0478902 1.194 50 72 33
0.235107 -0.0478902 1.194 37 59 20
0.236961 -0.0478902 1.194 43 65 26
0.238816 -0.0478902 1.194 41 63 24
0.240469 -0.0478501 1.193 40 62 23
0.242321 -0.0478501 1.193 44 66 27
0.244174 -0.0478501 1.193 40 60 26
0.245821 -0.04781 1.192 32 52 18
0.247672 -0.04781 1.192 27 47 13
0.249523 -0.04781 1.192 27 47 13
0.251374 -0.04781 1.192 27 45 16
0.253226 -0.04781 1.192 27 45 16
0.255077 -0.04781 1.192 26 44 15
0.256928 -0.04781 1.192 26 44 15
0.258779 -0.04781 1.192 25 43 14
0.260849 -0.0478501 1.193 25 43 14
0.262482 -0.04781 1.192 26 44 17
0.264333 -0.04781 1.192 26 44 17
0.265737 -0.0477298 1.19 26 44 17
0.267361 -0.0476897 1.189 26 44 17
0.268981 -0.0476495 1.188 25 43 16
0.270598 -0.0476094 1.187 25 43 16
0.272212 -0.0475693 1.186 23 43 16
0.273823 -0.0475292 1.185 23 43 16
0.275663 -0.0475292 1.185 23 43 16
0.277035 -0.047449 1.183 22 42 15
0.278636 -0.0474089 1.182 23 43 16
0.280472 -0.0474089 1.182 25 45 18
0.282308 -0.0474089 1.182 23 43 16
0.283903 -0.0473688 1.181 22 42 15
0.285979 -0.0474089 1.182 22 42 13
0.290141 -0.0474891 1.184 23 43 14
0.292226 -0.0475292 1.185 23 43 14
0.294563 -0.0476094 1.187 27 47 20
0.296906 -0.0476897 1.189 25 45 18
0.299255 -0.0477699 1.191 22 42 15
0.30161 -0.0478501 1.193 24 44 17
0.303971 -0.0479303 1.195 24 44 17
0.306339 -0.0480105 1.197 25 45 18
0.308456 -0.0480506 1.198 27 47 20
0.310834 -0.0481309 1.2 27 47 20
0.312698 -0.0481309 1.2 25 45 18
0.314562 -0.0481309 1.2 25 45 18
0.316425 -0.0481309 1.2 25 45 18
0.318024 -0.0480907 1.199 24 44 17
0.319619 -0.0480506 1.198 27 47 20
0.321211 -0.0480105 1.197 27 47 20
0.3228 -0.0479704 1.196 28 48 21
0.324386 -0.0479303 1.195 27 47 20
0.326242 -0.0479303 1.195 27 47 20
0.327549 -0.0478501 1.193 24 44 17
0.329401 -0.0478501 1.193 27 47 20
0.330977 -0.04781 1.192 31 51 24
0.332828 -0.04781 1.192 34 54 27
0.334679 -0.04781 1.192 32 52 25
0.33653 -0.04781 1.192 29 51 22
0.338381 -0.04781 1.192 28 50 21
0.340233 -0.04781 1.192 30 52 23
0.342084 -0.04781 1.192 32 54 25
0.343935 -0.04781 1.192 30 52 23
0.345786 -0.04781 1.192 29 51 22
0.347346 -0.0477699 1.191 25 43 21
0.348902 -0.0477298 1.19 24 42 20
0.35075 -0.0477298 1.19 38 51 38
0.352302 -0.0476897 1.189 111 124 111
0.352957 -0.0475292 1.185 126 134 127
0.354498 -0.0474891 1.184 118 126 119
0.355735 -0.0474089 1.182 76 76 70
0.356966 -0.0473287 1.18 32 32 26
0.358494 -0.0472886 1.179 44 42 36
0.36002 -0.0472485 1.178 65 63 57
0.361235 -0.0471682 1.176 29 31 25
0.362135 -0.0470479 1.173 26 28 22
0.363026 -0.0469276 1.17 56 62 62
0.363284 -0.046727 1.165 84 90 90
0.363526 -0.0465265 1.16 86 92 99
0.361863 -0.0460853 1.149 118 124 131
0.362065 -0.0458847 1.144 94 101 110
0.362252 -0.0456842 1.139 94 101 110
0.362742 -0.0455238 1.135 141 148 157
0.363542 -0.0454034 1.132 140 147 156
0.366591 -0.0455639 1.136 82 89 100
0.3703 -0.0458045 1.142 81 88 99
-0.16658 -0.0458409 1.189 8 17 8
-0.164872 -0.0458795 1.19 7 16 7
-0.163024 -0.0458795 1.19 8 17 8
-0.161176 -0.0458795 1.19 8 17 8
-0.159328 -0.0458795 1.19 7 16 7
-0.15748 -0.0458795 1.19 7 16 7
-0.155632 -0.0458795 1.19 8 17 8
-0.153784 -0.0458795 1.19 10 19 10
-0.151936 -0.0458795 1.19 11 20 11
-0.150087 -0.0458795 1.19 12 21 12
-0.148364 -0.045918 1.191 12 22 10
-0.146514 -0.045918 1.191 14 24 12
-0.144786 -0.0459566 1.192 14 25 11
-0.142935 -0.0459566 1.192 15 26 12
-0.141084 -0.0459566 1.192 15 29 12
-0.139232 -0.0459566 1.192 13 27 10
-0.137266 -0.045918 1.191 12 26 9
-0.135416 -0.045918 1.191 12 26 9
-0.133454 -0.0458795 1.19 11 25 8
-0.131606 -0.0458795 1.19 11 25 8
-0.12954 -0.0458024 1.188 11 25 8
-0.127695 -0.0458024 1.188 10 24 7
-0.125744 -0.0457638 1.187 10 24 7
-0.123901 -0.0457638 1.187 10 24 7
-0.121954 -0.0457252 1.186 12 23 7
-0.120011 -0.0456867 1.185 12 23 7
-0.118171 -0.0456867 1.185 11 22 8
-0.116134 -0.0456096 1.183 12 23 9
-0.1142 -0.045571 1.182 12 23 9
-0.112365 -0.045571 1.182 12 23 9
-0.110436 -0.0455325 1.181 12 22 10
-0.108509 -0.0454939 1.18 11 21 9
-0.106406 -0.0453783 1.177 12 22 10
-0.104133 -0.0451855 1.172 11 21 9
-0.101964 -0.0450313 1.168 12 22 10
-0.0965682 -0.0442216 1.147 12 22 10
-0.0941258 -0.0439132 1.139 11 21 9
-0.0917893 -0.0436433 1.132 11 21 9
-0.089554 -0.043412 1.126 5 15 3
-0.0870255 -0.0430265 1.116 1 11 6
-0.0850631 -0.0429108 1.113 0 7 2
-0.0831099 -0.0427951 1.11 26 37 41
-0.0813127 -0.0427566 1.109 77 88 92
-0.0795186 -0.042718 1.108 85 102 111
-0.0776575 -0.0426409 1.106 98 115 124
-0.0759398 -0.0426409 1.106 101 125 133
-0.0742221 -0.0426409 1.106 87 111 119
-0.0725045 -0.0426409 1.106 50 67 74
-0.0707868 -0.0426409 1.106 12 29 36
-0.0691316 -0.0426795 1.107 0 1 10
-0.0674733 -0.042718 1.108 0 0 7
-0.0658119 -0.0427566 1.109 0 2 11
-0.0641474 -0.0427951 1.11 0 2 11
-0.0624797 -0.0428337 1.111 13 21 35
-0.0607543 -0.0428337 1.111 30 38 52
-0.0590289 -0.0428337 1.111 73 91 116
-0.0573035 -0.0428337 1.111 112 130 155
-0.0556281 -0.0428722 1.112 106 129 158
-0.0538526 -0.0428337 1.111 94 117 146
-0.0521741 -0.0428722 1.112 81 106 135
-0.0504018 -0.0428337 1.111 88 113 142
-0.0486764 -0.0428337 1.111 98 125 156
-0.046951 -0.0428337 1.111 103 130 161
-0.0452255 -0.0428337 1.111 107 136 167
-0.0435001 -0.0428337 1.111 104 133 164
-0.0417747 -0.0428337 1.111 102 135 162
-0.0400493 -0.0428337 1.111 102 135 162
-0.0383238 -0.0428337 1.111 109 142 169
-0.0365984 -0.0428337 1.111 110 143 170
-0.034873 -0.0428337 1.111 98 130 162
-0.0331476 -0.0428337 1.111 16 48 80
-0.0314222 -0.0428337 1.111 0 30 59
-0.0296967 -0.0428337 1.111 64 105 134
-0.0279713 -0.0428337 1.111 108 172 201
-0.0262459 -0.0428337 1.111 113 177 206
-0.0245205 -0.0428337 1.111 91 178 201
-0.0227951 -0.0428337 1.111 90 177 200
-0.0210696 -0.0428337 1.111 81 176 200
-0.0193442 -0.0428337 1.111 77 172 196
-0.0176188 -0.0428337 1.111 73 173 196
-0.0158934 -0.0428337 1.111 80 180 203
-0.0141552 -0.0427951 1.11 82 184 207
-0.0124313 -0.0427951 1.11 81 183 206
-0.0107075 -0.0427951 1.11 59 156 180
-0.0089836 -0.0427951 1.11 59 156 180
-0.00725973 -0.0427951 1.11 85 184 210
-0.00553586 -0.0427951 1.11 55 154 180
-0.003812 -0.0427951 1.11 12 99 122
-0.00208813 -0.0427951 1.11 40 127 150
-0.00036426 -0.0427951 1.11 34 118 148
0.00135961 -0.0427951 1.11 0 65 95
0.00308348 -0.0427951 1.11 0 49 74
0.00480734 -0.0427951 1.11 0 42 67
0.00653121 -0.0427951 1.11 0 37 64
0.00826252 -0.0428337 1.111 0 86 113
0.00998794 -0.0428337 1.111 31 128 152
0.0117134 -0.0428337 1.111 117 214 238
0.0134388 -0.0428337 1.111 109 212 233
0.0151642 -0.0428337 1.111 109 212 233
0.0168896 -0.0428337 1.111 101 207 225
0.018615 -0.0428337 1.111 39 145 163
0.0203405 -0.0428337 1.111 33 131 151
0.022046 -0.0427951 1.11 33 131 151
0.0237699 -0.0427951 1.11 54 152 172
0.0254938 -0.0427951 1.11 62 160 180
0.0272176 -0.0427951 1.11 80 174 194
0.0342668 -0.0429879 1.115 80 182 198
0.0359984 -0.0429879 1.115 0 95 111
0.03773 -0.0429879 1.115 28 122 142
0.039497 -0.0430265 1.116 93 187 207
0.0412302 -0.0430265 1.116 89 191 214
0.0430404 -0.0431036 1.118 85 187 210
0.0448168 -0.0431421 1.119 79 183 213
0.0465962 -0.0431807 1.12 39 143 173
0.0484219 -0.0432578 1.122 49 142 171
0.0502538 -0.0433349 1.124 97 190 219
0.0521382 -0.0434505 1.127 117 207 225
0.0539841 -0.0435277 1.129 124 214 232
0.0576946 -0.0436819 1.133 13 86 94
0.0598215 -0.0439518 1.14 20 69 55
0.0619161 -0.0441831 1.146 22 71 57
0.0641405 -0.0444915 1.154 52 84 53
0.0662756 -0.0447228 1.16 52 84 53
0.0683705 -0.0449156 1.165 54 85 45
0.0723598 -0.0451469 1.171 55 84 42
0.0744952 -0.0453397 1.176 53 82 40
0.0765811 -0.0454939 1.18 51 80 38
0.0784137 -0.0454939 1.18 51 80 38
0.0803823 -0.045571 1.182 51 78 34
0.082218 -0.045571 1.182 53 80 36
0.0841248 -0.0456096 1.183 54 81 37
0.0860347 -0.0456481 1.184 54 81 37
0.0879477 -0.0456867 1.185 54 81 37
0.0897881 -0.0456867 1.185 55 82 38
0.0916284 -0.0456867 1.185 51 78 34
0.0935476 -0.0457252 1.186 53 80 36
0.0954699 -0.0457638 1.187 56 81 37
0.0973134 -0.0457638 1.187 57 82 38
0.0991568 -0.0457638 1.187 58 83 39
0.101 -0.0457638 1.187 56 81 37
0.102844 -0.0457638 1.187 53 78 34
0.104687 -0.0457638 1.187 53 78 34
0.10662 -0.0458024 1.188 57 82 38
0.108465 -0.0458024 1.188 57 82 38
0.110218 -0.0457638 1.187 56 81 37
0.112061 -0.0457638 1.187 56 81 37
0.113904 -0.0457638 1.187 53 78 34
0.115845 -0.0458024 1.188 56 81 37
0.11769 -0.0458024 1.188 55 80 36
0.119636 -0.0458409 1.189 55 80 36
0.121483 -0.0458409 1.189 55 80 36
0.123433 -0.0458795 1.19 55 80 36
0.125281 -0.0458795 1.19 53 78 34
0.127236 -0.045918 1.191 53 78 34
0.129086 -0.045918 1.191 53 78 34
0.131045 -0.0459566 1.192 53 78 34
0.132896 -0.0459566 1.192 56 81 37
0.134748 -0.0459566 1.192 55 80 36
0.136713 -0.0459951 1.193 55 80 36
0.138682 -0.0460337 1.194 59 84 40
0.140537 -0.0460337 1.194 57 81 40
0.14251 -0.0460722 1.195 50 74 33
0.144366 -0.0460722 1.195 50 75 31
0.146222 -0.0460722 1.195 48 73 29
0.148078 -0.0460722 1.195 50 75 31
0.149934 -0.0460722 1.195 51 76 32
0.15179 -0.0460722 1.195 51 76 32
0.153646 -0.0460722 1.195 51 76 32
0.155501 -0.0460722 1.195 52 77 33
0.157357 -0.0460722 1.195 52 77 33
0.159213 -0.0460722 1.195 52 78 32
0.160934 -0.0460337 1.194 53 79 33
0.162789 -0.0460337 1.194 53 79 33
0.164643 -0.0460337 1.194 53 79 33
0.166358 -0.0459951 1.193 53 79 33
0.168211 -0.0459951 1.193 53 79 33
0.169921 -0.0459566 1.192 53 79 33
0.171772 -0.0459566 1.192 53 79 33
0.173623 -0.0459566 1.192 50 77 28
0.175327 -0.045918 1.191 51 78 29
0.177326 -0.0459566 1.192 53 79 28
0.179027 -0.045918 1.191 53 79 28
0.180876 -0.045918 1.191 53 80 26
0.182726 -0.045918 1.191 53 80 26
0.184421 -0.0458795 1.19 51 78 24
0.186425 -0.045918 1.191 52 79 25
0.188275 -0.045918 1.191 53 80 26
0.190125 -0.045918 1.191 53 80 26
0.192135 -0.0459566 1.192 53 80 26
0.193987 -0.0459566 1.192 52 79 25
0.195838 -0.0459566 1.192 53 80 26
0.197855 -0.0459951 1.193 51 78 24
0.199708 -0.0459951 1.193 52 79 25
0.201729 -0.0460337 1.194 52 79 25
0.203584 -0.0460337 1.194 52 79 25
0.205438 -0.0460337 1.194 53 80 26
0.207292 -0.0460337 1.194 53 80 26
0.209147 -0.0460337 1.194 53 80 26
0.211178 -0.0460722 1.195 53 80 26
0.212855 -0.0460337 1.194 54 81 27
0.21471 -0.0460337 1.194 55 82 28
0.216564 -0.0460337 1.194 55 82 28
0.218418 -0.0460337 1.194 55 81 30
0.220273 -0.0460337 1.194 55 81 30
0.222127 -0.0460337 1.194 55 80 31
0.223981 -0.0460337 1.194 54 79 30
0.225836 -0.0460337 1.194 52 75 31
0.22769 -0.0460337 1.194 52 75 31
0.229544 -0.0460337 1.194 51 73 32
0.231399 -0.0460337 1.194 51 73 32
0.233253 -0.0460337 1.194 52 74 35
0.235304 -0.0460722 1.195 44 66 27
0.23716 -0.0460722 1.195 46 68 29
0.238816 -0.0460337 1.194 41 63 24
0.24067 -0.0460337 1.194 38 59 22
0.242524 -0.0460337 1.194 38 59 22
0.244379 -0.0460337 1.194 38 59 22
0.246233 -0.0460337 1.194 31 52 15
0.24788 -0.0459951 1.193 27 47 13
0.249732 -0.0459951 1.193 29 49 15
0.251585 -0.0459951 1.193 27 45 16
0.253438 -0.0459951 1.193 27 45 16
0.255291 -0.0459951 1.193 26 44 15
0.257143 -0.0459951 1.193 25 43 14
0.258996 -0.0459951 1.193 25 43 14
0.26063 -0.0459566 1.192 25 43 14
0.262482 -0.0459566 1.192 25 43 14
0.264111 -0.045918 1.191 25 43 14
0.265737 -0.0458795 1.19 25 43 16
0.267361 -0.0458409 1.189 25 43 16
0.268754 -0.0457638 1.187 25 43 16
0.27037 -0.0457252 1.186 25 43 16
0.271982 -0.0456867 1.185 22 42 15
0.273592 -0.0456481 1.184 22 42 15
0.274965 -0.045571 1.182 23 43 16
0.276801 -0.045571 1.182 23 43 16
0.278636 -0.045571 1.182 24 44 17
0.280472 -0.045571 1.182 23 43 16
0.282308 -0.045571 1.182 22 42 15
0.283903 -0.0455325 1.181 24 44 17
0.285979 -0.045571 1.182 27 47 20
0.290141 -0.0456481 1.184 25 45 18
0.292226 -0.0456867 1.185 25 45 18
0.294315 -0.0457252 1.186 27 47 20
0.296656 -0.0458024 1.188 25 45 18
0.299003 -0.0458795 1.19 23 43 16
0.301357 -0.0459566 1.192 24 44 17
0.303971 -0.0460722 1.195 25 45 18
0.306339 -0.0461493 1.197 25 45 18
0.308198 -0.0461493 1.197 27 47 20
0.310316 -0.0461879 1.198 27 47 20
0.312437 -0.0462264 1.199 25 45 18
0.314299 -0.0462264 1.199 25 45 18
0.315898 -0.0461879 1.198 25 45 18
0.317758 -0.0461879 1.198 24 44 17
0.319352 -0.0461493 1.197 27 47 20
0.320943 -0.0461108 1.196 25 45 18
0.32253 -0.0460722 1.195 25 45 18
0.323843 -0.0459951 1.193 27 47 20
0.325696 -0.0459951 1.193 27 47 20
0.327274 -0.0459566 1.192 24 44 17
0.329125 -0.0459566 1.192 24 44 17
0.330977 -0.0459566 1.192 29 49 22
0.332549 -0.045918 1.191 38 58 29
0.334398 -0.045918 1.191 34 54 25
0.336248 -0.045918 1.191 34 54 25
0.338098 -0.045918 1.191 34 54 25
0.339947 -0.045918 1.191 34 54 25
0.341797 -0.045918 1.191 34 54 25
0.343647 -0.045918 1.191 34 54 25
0.345496 -0.045918 1.191 32 52 23
0.347054 -0.0458795 1.19 25 43 21
0.348902 -0.0458795 1.19 24 42 20
0.350456 -0.0458409 1.189 54 67 54
0.352006 -0.0458024 1.188 105 118 105
0.352957 -0.0456867 1.185 124 136 126
0.354199 -0.0456096 1.183 108 120 110
0.355735 -0.045571 1.182 42 42 36
0.356966 -0.0454939 1.18 33 33 27
0.358494 -0.0454554 1.179 66 64 58
0.36002 -0.0454168 1.178 61 59 53
0.361235 -0.0453397 1.176 31 31 25
0.362135 -0.045224 1.173 28 28 22
0.363026 -0.0451084 1.17 32 38 38
0.362972 -0.0448771 1.164 61 67 67
0.363526 -0.0447228 1.16 91 98 102
0.361863 -0.0442987 1.149 121 128 132
0.362065 -0.044106 1.144 87 94 103
0.36257 -0.0439518 1.14 96 103 112
0.362742 -0.043759 1.135 126 133 142
0.363542 -0.0436433 1.132 138 145 154
0.366591 -0.0437975 1.136 81 88 99
0.3703 -0.0440289 1.142 82 89 100
-0.16658 -0.0439922 1.189 7 16 7
-0.164872 -0.0440292 1.19 7 16 7
-0.163024 -0.0440292 1.19 8 17 8
-0.161176 -0.0440292 1.19 8 17 8
-0.159328 -0.0440292 1.19 7 16 7
-0.15748 -0.0440292 1.19 7 16 7
-0.155632 -0.0440292 1.19 8 17 8
-0.153784 -0.0440292 1.19 10 19 10
-0.151936 -0.0440292 1.19 11 20 11
-0.150087 -0.0440292 1.19 11 20 11
-0.148364 -0.0440662 1.191 13 23 11
-0.146637 -0.0441032 1.192 14 24 12
-0.144786 -0.0441032 1.192 15 26 12
-0.142935 -0.0441032 1.192 17 28 14
-0.141084 -0.0441032 1.192 17 28 12
-0.139232 -0.0441032 1.192 18 29 13
-0.137381 -0.0441032 1.192 17 28 12
-0.13553 -0.0441032 1.192 17 28 12
-0.133567 -0.0440662 1.191 14 25 9
-0.131606 -0.0440292 1.19 13 24 8
-0.129758 -0.0440292 1.19 13 24 8
-0.127803 -0.0439922 1.189 12 23 7
-0.12585 -0.0439552 1.188 12 23 7
-0.123901 -0.0439182 1.187 11 22 6
-0.122057 -0.0439182 1.187 12 23 7
-0.120011 -0.0438442 1.185 13 24 8
-0.118171 -0.0438442 1.185 12 23 9
-0.116232 -0.0438072 1.184 12 23 9
-0.1142 -0.0437332 1.182 12 23 9
-0.112365 -0.0437332 1.182 11 22 8
-0.110342 -0.0436592 1.18 12 22 10
-0.108418 -0.0436222 1.179 11 21 9
-0.106225 -0.0434742 1.175 11 21 9
-0.104045 -0.0433262 1.171 11 21 9
-0.10179 -0.0431412 1.166 12 22 10
-0.0986925 -0.0425862 1.151 12 22 10
-0.0962315 -0.0422902 1.143 12 22 10
-0.0937126 -0.0419572 1.134 11 21 9
-0.0913838 -0.0416982 1.127 7 15 8
-0.0888382 -0.0413282 1.117 4 12 5
-0.0867916 -0.0411802 1.113 0 6 8
-0.0849102 -0.0411062 1.111 20 28 30
-0.0829602 -0.0409952 1.108 56 68 78
-0.0810928 -0.0409212 1.106 105 117 127
-0.0793033 -0.0408842 1.105 88 106 123
-0.0775872 -0.0408842 1.105 88 106 123
-0.0758025 -0.0408472 1.104 98 120 138
-0.0740879 -0.0408472 1.104 117 139 157
-0.0723734 -0.0408472 1.104 117 138 154
-0.0707228 -0.0408842 1.105 92 113 129
-0.0690067 -0.0408842 1.105 36 53 67
-0.0673515 -0.0409212 1.106 0 1 15
-0.0656932 -0.0409582 1.107 0 0 14
-0.0640318 -0.0409952 1.108 0 10 25
-0.0623673 -0.0410322 1.109 39 54 75
-0.0606996 -0.0410692 1.11 46 61 82
-0.0589758 -0.0410692 1.11 52 75 99
-0.0572519 -0.0410692 1.11 104 127 151
-0.055528 -0.0410692 1.11 101 126 155
-0.0538042 -0.0410692 1.11 94 119 148
-0.0520803 -0.0410692 1.11 85 113 141
-0.0503564 -0.0410692 1.11 85 113 141
-0.0486326 -0.0410692 1.11 88 115 146
-0.0469087 -0.0410692 1.11 91 118 149
-0.0451848 -0.0410692 1.11 103 132 163
-0.043461 -0.0410692 1.11 110 139 170
-0.0417747 -0.0411062 1.111 103 136 163
-0.0400493 -0.0411062 1.111 107 140 167
-0.0383238 -0.0411062 1.111 112 147 174
-0.0365984 -0.0411062 1.111 99 134 161
-0.034873 -0.0411062 1.111 30 62 92
-0.0331476 -0.0411062 1.111 0 10 40
-0.0314222 -0.0411062 1.111 0 17 43
-0.0296967 -0.0411062 1.111 4 48 74
-0.0279713 -0.0411062 1.111 90 154 183
-0.0262459 -0.0411062 1.111 111 175 204
-0.0245205 -0.0411062 1.111 79 166 189
-0.0227951 -0.0411062 1.111 74 161 184
-0.0210696 -0.0411062 1.111 70 169 195
-0.0193442 -0.0411062 1.111 74 173 199
-0.0176188 -0.0411062 1.111 79 178 204
-0.0158934 -0.0411062 1.111 78 177 203
-0.014168 -0.0411062 1.111 75 176 202
-0.0124425 -0.0411062 1.111 83 184 210
-0.0107075 -0.0410692 1.11 85 186 212
-0.0089836 -0.0410692 1.11 82 183 209
-0.00725973 -0.0410692 1.11 72 173 199
-0.00554085 -0.0411062 1.111 14 115 141
-0.00381543 -0.0411062 1.111 6 101 125
-0.00208813 -0.0410692 1.11 88 183 207
-0.00036426 -0.0410692 1.11 79 172 208
0.00135961 -0.0410692 1.11 50 143 179
0.00308348 -0.0410692 1.11 23 110 138
0.00480734 -0.0410692 1.11 55 142 170
0.0065371 -0.0411062 1.111 39 136 160
0.00826252 -0.0411062 1.111 28 125 149
0.00998794 -0.0411062 1.111 101 201 224
0.0117134 -0.0411062 1.111 119 219 242
0.0134509 -0.0411432 1.112 116 219 240
0.0151915 -0.0411802 1.113 113 216 237
0.0169048 -0.0411432 1.112 77 183 201
0.018615 -0.0411062 1.111 24 130 148
0.0203588 -0.0411432 1.112 39 147 165
0.0220659 -0.0411062 1.111 85 193 211
0.0237913 -0.0411062 1.111 91 198 213
0.0360307 -0.0412912 1.116 0 94 109
0.0377639 -0.0412912 1.116 57 149 167
0.039497 -0.0412912 1.116 70 162 180
0.0413041 -0.0413652 1.118 80 171 192
0.0430789 -0.0414022 1.119 108 199 220
0.0448568 -0.0414392 1.12 97 200 227
0.0466378 -0.0414762 1.121 97 200 227
0.0484651 -0.0415502 1.123 93 190 214
0.0503433 -0.0416612 1.126 93 190 214
0.0522308 -0.0417722 1.129 123 214 225
0.0540798 -0.0418462 1.131 91 182 193
0.0578473 -0.0420312 1.136 9 70 61
0.0599789 -0.0422902 1.143 32 68 40
0.0620782 -0.0425122 1.149 43 79 51
0.0642517 -0.0427712 1.156 52 86 45
0.0663898 -0.0429932 1.162 51 85 44
0.0684292 -0.0431412 1.166 53 84 42
0.0723598 -0.0433262 1.171 53 82 40
0.0744952 -0.0435112 1.176 52 81 39
0.0764513 -0.0435852 1.178 51 80 38
0.0783473 -0.0436222 1.179 51 80 38
0.0802463 -0.0436592 1.18 49 79 34
0.0821484 -0.0436962 1.181 49 79 34
0.0840537 -0.0437332 1.182 54 81 37
0.0858894 -0.0437332 1.182 55 82 38
0.0877993 -0.0437702 1.183 54 81 37
0.0897123 -0.0438072 1.184 55 82 38
0.0915511 -0.0438072 1.184 51 78 34
0.0934687 -0.0438442 1.185 53 80 36
0.0953091 -0.0438442 1.185 54 81 37
0.0972314 -0.0438812 1.186 56 83 39
