ply
format ascii 1.0
comment Created by Open3D
element vertex 1328
property double x
property double y
property double z
property uchar red
property uchar green
property uchar blue
end_header
0.285586 0.0945846 1.188 43 64 27
0.287189 0.094505 1.187 43 65 26
0.289276 0.0945846 1.188 44 66 27
0.291121 0.0945846 1.188 45 67 28
0.292966 0.0945846 1.188 45 67 28
0.295059 0.0946643 1.189 45 67 28
0.296906 0.0946643 1.189 45 67 28
0.298752 0.0946643 1.189 45 67 28
0.300346 0.0945846 1.188 46 68 29
0.302191 0.0945846 1.188 47 69 30
0.304036 0.0945846 1.188 47 69 30
0.305881 0.0945846 1.188 48 70 31
0.307467 0.094505 1.187 48 70 31
0.30931 0.094505 1.187 48 70 31
0.311154 0.094505 1.187 48 70 31
0.312997 0.094505 1.187 46 68 29
0.314575 0.0944254 1.186 47 69 30
0.316417 0.0944254 1.186 46 68 29
0.318259 0.0944254 1.186 44 66 27
0.320101 0.0944254 1.186 53 75 36
0.321943 0.0944254 1.186 64 86 47
0.324058 0.094505 1.187 68 90 51
0.325901 0.094505 1.187 65 87 48
0.327745 0.094505 1.187 70 92 53
0.329588 0.094505 1.187 79 101 62
0.331711 0.0945846 1.188 72 94 55
0.333837 0.0946643 1.189 72 94 55
0.335966 0.0947439 1.19 74 93 55
0.338098 0.0948235 1.191 70 89 51
0.340233 0.0949031 1.192 70 89 51
0.342084 0.0949031 1.192 71 90 52
0.343935 0.0949031 1.192 70 89 51
0.345786 0.0949031 1.192 71 90 52
0.347638 0.0949031 1.192 70 87 54
0.349489 0.0949031 1.192 71 88 55
0.351045 0.0948235 1.191 70 89 57
0.352895 0.0948235 1.191 69 88 56
0.354447 0.0947439 1.19 76 95 63
0.355995 0.0946643 1.189 67 86 54
0.357842 0.0946643 1.189 59 68 41
0.359386 0.0945846 1.188 54 63 36
0.360927 0.094505 1.187 128 133 106
0.362465 0.0944254 1.186 104 109 82
0.364307 0.0944254 1.186 55 60 33
0.364296 0.0939477 1.18 63 68 41
0.363647 0.0933108 1.172 53 58 38
0.359766 0.0914 1.148 200 208 185
0.359344 0.0908427 1.141 215 223 200
0.358901 0.0902853 1.134 194 204 185
0.360344 0.0902057 1.133 232 242 223
0.362423 0.0902853 1.134 242 246 246
0.363863 0.0902057 1.133 128 132 132
0.366591 0.0904446 1.136 104 108 108
0.369652 0.090763 1.14 111 115 115
-0.134497 0.0779247 0.96 240 236 222
-0.133006 0.0779247 0.96 255 255 244
-0.131515 0.0779247 0.96 255 255 244
-0.13016 0.0780059 0.961 255 255 244
-0.128667 0.0780059 0.961 255 255 246
-0.127307 0.0780871 0.962 255 255 245
-0.125813 0.0780871 0.962 255 255 247
-0.124448 0.0781682 0.963 255 255 247
-0.122953 0.0781682 0.963 255 255 249
-0.121583 0.0782494 0.964 254 255 247
-0.120086 0.0782494 0.964 236 235 227
-0.118589 0.0782494 0.964 234 233 225
-0.117092 0.0782494 0.964 239 238 230
-0.115595 0.0782494 0.964 255 255 248
-0.114216 0.0783306 0.965 254 255 249
-0.112718 0.0783306 0.965 254 255 249
-0.111219 0.0783306 0.965 254 255 250
-0.10972 0.0783306 0.965 254 255 250
-0.108334 0.0784117 0.966 254 255 250
-0.106944 0.0784929 0.967 254 255 250
-0.105551 0.0785741 0.968 254 255 250
-0.104263 0.0787364 0.97 254 255 250
-0.102862 0.0788176 0.971 254 255 252
-0.101459 0.0788988 0.972 254 255 252
-0.0999492 0.0788988 0.972 254 255 252
-0.0985409 0.0789799 0.973 254 255 252
-0.0971296 0.0790611 0.974 254 255 252
-0.0942009 0.0791423 0.975 254 255 252
-0.0927817 0.0792235 0.976 254 255 252
-0.0913595 0.0793046 0.977 254 255 252
-0.0900261 0.079467 0.979 254 255 252
-0.0885961 0.0795481 0.98 254 255 252
-0.0871629 0.0796293 0.981 254 255 252
-0.085814 0.0797917 0.983 254 255 252
-0.0843731 0.0798728 0.984 254 255 252
-0.0829291 0.079954 0.985 254 255 252
-0.081482 0.0800352 0.986 254 255 252
-0.0799507 0.0800352 0.986 254 255 252
-0.0784194 0.0800352 0.986 254 255 252
-0.0768881 0.0800352 0.986 254 255 252
-0.0754333 0.0801163 0.987 254 255 252
-0.0739004 0.0801163 0.987 254 255 252
-0.0723676 0.0801163 0.987 254 255 252
-0.070763 0.0800352 0.986 254 255 252
-0.0693019 0.0801163 0.987 254 255 252
-0.0677691 0.0801163 0.987 254 255 252
-0.0662362 0.0801163 0.987 254 255 252
-0.0647034 0.0801163 0.987 254 255 252
-0.0632345 0.0801975 0.988 254 255 252
-0.0617626 0.0802787 0.989 254 255 252
-0.0602266 0.0802787 0.989 254 255 252
-0.05875 0.0803599 0.99 254 255 252
-0.0572125 0.0803599 0.99 254 255 252
-0.0557313 0.080441 0.991 254 255 252
-0.0541922 0.080441 0.991 254 255 252
-0.0526531 0.080441 0.991 254 255 252
-0.0511657 0.0805222 0.992 254 255 252
-0.0496751 0.0806034 0.993 254 255 252
-0.0481329 0.0806034 0.993 254 255 252
-0.0465907 0.0806034 0.993 254 255 252
-0.0450486 0.0806034 0.993 254 255 252
-0.0435502 0.0806845 0.994 254 255 252
-0.0419643 0.0806034 0.993 254 255 252
-0.0404221 0.0806034 0.993 254 255 252
-0.0389191 0.0806845 0.994 254 255 252
-0.0373754 0.0806845 0.994 254 255 252
-0.0358317 0.0806845 0.994 254 255 252
-0.0343569 0.0808469 0.996 254 255 252
-0.0328101 0.0808469 0.996 254 255 252
-0.0313261 0.0810092 0.998 254 255 252
-0.029806 0.0810904 0.999 254 255 252
-0.0283111 0.0812527 1.001 254 255 252
-0.0268099 0.0814151 1.003 254 255 252
-0.0252774 0.0814963 1.004 254 255 252
-0.0237654 0.0816586 1.006 254 255 252
-0.0206817 0.0818209 1.008 254 255 252
-0.0191542 0.0819833 1.01 254 255 252
-0.0176205 0.0821456 1.012 254 255 252
-0.0145487 0.0825515 1.017 254 255 252
-0.0129947 0.0827138 1.019 254 255 252
-0.0114234 0.082795 1.02 254 255 252
-0.00985859 0.0829574 1.022 254 255 252
-0.00828757 0.0831197 1.024 254 255 252
-0.00193387 0.0834444 1.028 254 255 252
-0.000337679 0.0835256 1.029 254 255 252
0.00126162 0.0836067 1.03 254 255 252
0.00286124 0.0836067 1.03 254 255 252
0.0044652 0.0836879 1.031 254 255 252
0.00607226 0.0837691 1.032 254 255 252
0.00767499 0.0837691 1.032 254 255 252
0.00927772 0.0837691 1.032 254 255 252
0.010891 0.0838502 1.033 254 255 252
0.0124953 0.0838502 1.033 255 255 252
0.0141132 0.0839314 1.034 255 255 252
0.0157191 0.0839314 1.034 255 255 250
0.0173416 0.0840126 1.035 255 255 250
0.0189857 0.0841749 1.037 255 255 250
0.0222281 0.0842561 1.038 255 255 250
0.0238631 0.0843373 1.039 255 255 250
0.0255257 0.0844996 1.041 255 255 250
0.0271685 0.0845808 1.042 255 255 250
0.0288144 0.084662 1.043 255 255 252
0.0304634 0.0847431 1.044 250 247 244
0.0321155 0.0848243 1.045 167 158 159
0.0337707 0.0849055 1.046 187 178 179
0.0353952 0.0849055 1.046 232 218 214
0.037055 0.0849866 1.047 238 224 220
0.038718 0.0850678 1.048 225 216 205
0.0403456 0.0850678 1.048 174 165 154
0.0419732 0.0850678 1.048 236 235 227
0.0436007 0.0850678 1.048 255 255 248
0.0452283 0.0850678 1.048 254 255 252
0.0468559 0.0850678 1.048 254 255 252
0.0484835 0.0850678 1.048 254 255 252
0.0501111 0.0850678 1.048 254 255 252
0.0517386 0.0850678 1.048 254 255 250
0.0533662 0.0850678 1.048 253 255 249
0.0550463 0.085149 1.049 247 245 239
0.0567294 0.0852302 1.05 228 226 220
0.0584157 0.0853113 1.051 223 223 217
0.0601051 0.0853925 1.052 230 230 224
0.0617976 0.0854737 1.053 254 255 250
0.0634329 0.0854737 1.053 254 255 250
0.0650682 0.0854737 1.053 254 255 250
0.0668303 0.085636 1.055 254 255 250
0.0685336 0.0857172 1.056 254 255 252
0.070373 0.0859607 1.059 254 255 252
0.0722217 0.0862042 1.062 254 255 252
0.0742883 0.0866912 1.068 254 255 252
0.0780416 0.0871783 1.074 254 255 252
0.0800807 0.0875841 1.079 254 255 252
0.0820595 0.0879088 1.083 254 255 252
0.0840507 0.0882335 1.087 254 255 252
0.0858966 0.0883958 1.089 254 255 252
0.0877487 0.0885582 1.091 254 255 252
0.089525 0.0886394 1.092 254 255 252
0.091388 0.0888017 1.094 254 255 252
0.0931721 0.0888829 1.095 254 255 252
0.0949594 0.088964 1.096 254 255 250
0.0967497 0.0890452 1.097 253 255 249
0.0985431 0.0891264 1.098 242 238 231
0.102418 0.0895322 1.103 86 80 68
0.10498 0.0902628 1.112 53 47 35
0.107667 0.0910745 1.122 56 54 35
0.118111 0.0938343 1.156 47 62 36
0.121047 0.0947272 1.167 47 62 36
0.125847 0.0956201 1.178 47 62 36
0.127677 0.0956201 1.178 46 61 33
0.129506 0.0956201 1.178 43 58 30
0.131336 0.0956201 1.178 45 60 32
0.133165 0.0956201 1.178 45 60 32
0.134995 0.0956201 1.178 45 60 32
0.136824 0.0956201 1.178 45 60 32
0.138771 0.0957013 1.179 42 57 29
0.140721 0.0957825 1.18 42 57 29
0.142554 0.0957825 1.18 41 57 26
0.144509 0.0958636 1.181 45 61 30
0.146467 0.0959448 1.182 46 62 31
0.148303 0.0959448 1.182 46 62 31
0.150265 0.096026 1.183 46 62 31
0.152231 0.0961071 1.184 46 62 31
0.15433 0.0962695 1.186 48 64 33
0.156304 0.0963507 1.187 46 62 31
0.158281 0.0964318 1.188 46 62 31
0.160395 0.0965942 1.19 45 61 30
0.162516 0.0967565 1.192 43 59 28
0.164505 0.0968377 1.193 43 59 28
0.166637 0.097 1.195 43 62 30
0.168493 0.097 1.195 41 60 28
0.170634 0.0971624 1.197 43 62 30
0.172492 0.0971624 1.197 41 60 28
0.174497 0.0972435 1.198 43 62 30
0.176358 0.0972435 1.198 46 65 33
0.178218 0.0972435 1.198 46 65 33
0.180079 0.0972435 1.198 46 65 33
0.182091 0.0973247 1.199 45 65 31
0.1838 0.0972435 1.198 45 65 31
0.18566 0.0972435 1.198 45 65 31
0.187364 0.0971624 1.197 45 65 31
0.189223 0.0971624 1.197 45 66 29
0.190923 0.0970812 1.196 41 62 25
0.192619 0.097 1.195 43 64 27
0.194475 0.097 1.195 43 64 27
0.196331 0.097 1.195 45 66 29
0.198021 0.0969189 1.194 47 68 31
0.199875 0.0969189 1.194 48 69 32
0.20156 0.0968377 1.193 50 71 34
0.203413 0.0968377 1.193 48 71 34
0.205266 0.0968377 1.193 49 72 35
0.207292 0.0969189 1.194 49 72 35
0.209147 0.0969189 1.194 49 72 35
0.211001 0.0969189 1.194 50 73 36
0.212855 0.0969189 1.194 50 73 36
0.214889 0.097 1.195 51 74 37
0.216745 0.097 1.195 52 75 38
0.218601 0.097 1.195 53 76 39
0.220457 0.097 1.195 58 81 44
0.222313 0.097 1.195 56 79 42
0.224169 0.097 1.195 55 78 41
0.226025 0.097 1.195 53 76 39
0.227499 0.0968377 1.193 51 74 37
0.22916 0.0967565 1.192 51 74 37
0.230817 0.0966753 1.191 49 72 35
0.232471 0.0965942 1.19 51 72 35
0.234123 0.096513 1.189 51 72 35
0.235572 0.0963507 1.187 50 72 33
0.237216 0.0962695 1.186 51 73 34
0.238856 0.0961883 1.185 51 73 34
0.24029 0.096026 1.183 51 73 34
0.241923 0.0959448 1.182 54 76 37
0.243758 0.0959448 1.182 47 69 30
0.245179 0.0957825 1.18 46 68 29
0.246802 0.0957013 1.179 45 67 28
0.248422 0.0956201 1.178 44 65 28
0.250251 0.0956201 1.178 44 65 28
0.251867 0.0955389 1.177 46 64 28
0.25391 0.0956201 1.178 46 64 28
0.25574 0.0956201 1.178 46 64 28
0.257569 0.0956201 1.178 46 64 28
0.261672 0.0957825 1.18 43 61 25
0.263504 0.0957825 1.18 43 61 25
0.265787 0.0959448 1.182 43 61 25
0.267849 0.096026 1.183 47 65 29
0.270142 0.0961883 1.185 48 66 30
0.271982 0.0961883 1.185 47 65 29
0.273823 0.0961883 1.185 45 63 27
0.275663 0.0961883 1.185 46 64 28
0.277737 0.0962695 1.186 47 65 29
0.279579 0.0962695 1.186 48 66 30
0.281659 0.0963507 1.187 49 67 31
0.283502 0.0963507 1.187 48 66 30
0.285345 0.0963507 1.187 48 66 30
0.287189 0.0963507 1.187 46 64 28
0.289276 0.0964318 1.188 46 64 28
0.291121 0.0964318 1.188 47 65 29
0.292966 0.0964318 1.188 47 65 29
0.294811 0.0964318 1.188 48 66 30
0.296906 0.096513 1.189 48 66 30
0.298501 0.0964318 1.188 48 66 30
0.300346 0.0964318 1.188 48 66 30
0.302191 0.0964318 1.188 49 67 31
0.304036 0.0964318 1.188 49 67 31
0.305881 0.0964318 1.188 50 68 32
0.307467 0.0963507 1.187 50 68 32
0.30931 0.0963507 1.187 50 71 34
0.311154 0.0963507 1.187 50 71 34
0.312997 0.0963507 1.187 48 69 32
0.314841 0.0963507 1.187 51 72 35
0.316417 0.0962695 1.186 50 71 34
0.318259 0.0962695 1.186 44 65 28
0.320101 0.0962695 1.186 54 76 37
0.322214 0.0963507 1.187 61 83 44
0.324058 0.0963507 1.187 64 86 47
0.325901 0.0963507 1.187 65 87 48
0.327745 0.0963507 1.187 72 91 53
0.329866 0.0964318 1.188 81 100 62
0.33199 0.096513 1.189 75 94 56
0.334117 0.0965942 1.19 72 91 53
0.335966 0.0965942 1.19 72 91 53
0.338381 0.0967565 1.192 70 89 51
0.340233 0.0967565 1.192 71 90 52
0.342084 0.0967565 1.192 72 91 53
0.343935 0.0967565 1.192 72 91 53
0.345786 0.0967565 1.192 74 93 55
0.347638 0.0967565 1.192 71 88 55
0.349489 0.0967565 1.192 71 88 55
0.35134 0.0967565 1.192 69 88 56
0.352895 0.0966753 1.191 69 88 56
0.354447 0.0965942 1.19 75 94 62
0.356295 0.0965942 1.19 67 86 54
0.357842 0.096513 1.189 59 69 39
0.359386 0.0964318 1.188 54 64 34
0.360927 0.0963507 1.187 132 137 110
0.36277 0.0963507 1.187 104 109 82
0.364307 0.0962695 1.186 55 60 33
0.364605 0.0958636 1.181 64 69 42
0.363647 0.0951331 1.172 56 61 41
0.359029 0.0925356 1.14 214 222 199
0.358584 0.0919674 1.133 194 200 182
0.360344 0.0919674 1.133 235 241 223
0.362103 0.0919674 1.133 243 246 249
0.363863 0.0919674 1.133 132 135 138
0.366268 0.0921297 1.135 105 109 109
0.369003 0.0923733 1.138 111 115 115
-0.134497 0.0794174 0.96 253 251 237
-0.133006 0.0794174 0.96 255 255 244
-0.131652 0.0795001 0.961 255 255 246
-0.13016 0.0795001 0.961 255 255 246
-0.128801 0.0795829 0.962 255 255 245
-0.127307 0.0795829 0.962 255 255 246
-0.125944 0.0796656 0.963 254 255 249
-0.124448 0.0796656 0.963 254 255 249
-0.123081 0.0797483 0.964 255 255 250
-0.121583 0.0797483 0.964 255 255 249
-0.120211 0.079831 0.965 238 239 231
-0.118589 0.0797483 0.964 233 234 226
-0.117092 0.0797483 0.964 234 235 227
-0.115595 0.0797483 0.964 251 252 244
-0.114098 0.0797483 0.964 254 255 250
-0.112718 0.079831 0.965 254 255 250
-0.111219 0.079831 0.965 254 255 250
-0.10972 0.079831 0.965 254 255 250
-0.108334 0.0799138 0.966 254 255 252
-0.106833 0.0799138 0.966 254 255 252
-0.105551 0.0800792 0.968 254 255 252
-0.104048 0.0800792 0.968 254 255 252
-0.102756 0.0802447 0.97 254 255 252
-0.101354 0.0803274 0.971 254 255 252
-0.0999492 0.0804101 0.972 254 255 252
-0.0985409 0.0804928 0.973 254 255 252
-0.0971296 0.0805756 0.974 254 255 252
-0.0942009 0.0806583 0.975 254 255 252
-0.0927817 0.080741 0.976 254 255 252
-0.0913595 0.0808237 0.977 254 255 252
-0.0900261 0.0809892 0.979 254 255 252
-0.0885961 0.0810719 0.98 254 255 252
-0.0872518 0.0812374 0.982 254 255 252
-0.085814 0.0813201 0.983 254 255 252
-0.0843731 0.0814028 0.984 254 255 252
-0.0829291 0.0814856 0.985 254 255 252
-0.081482 0.0815683 0.986 254 255 252
-0.0799507 0.0815683 0.986 254 255 252
-0.078499 0.081651 0.987 254 255 252
-0.0769661 0.081651 0.987 254 255 252
-0.0754333 0.081651 0.987 254 255 252
-0.0739004 0.081651 0.987 254 255 252
-0.0722943 0.0815683 0.986 254 255 252
-0.0708347 0.081651 0.987 254 255 252
-0.0693019 0.081651 0.987 254 255 252
-0.0678377 0.0817337 0.988 254 255 252
-0.0662362 0.081651 0.987 254 255 252
-0.0647689 0.0817337 0.988 254 255 252
-0.0632985 0.0818165 0.989 254 255 252
-0.0618875 0.0819819 0.991 254 255 252
-0.0604093 0.0820646 0.992 254 255 252
-0.0589281 0.0821474 0.993 254 255 252
-0.0573859 0.0821474 0.993 254 255 252
-0.0559 0.0822301 0.994 254 255 252
-0.0544109 0.0823128 0.995 254 255 252
-0.0528657 0.0823128 0.995 254 255 252
-0.0513204 0.0823128 0.995 254 255 252
-0.0498252 0.0823956 0.996 254 255 252
-0.0482783 0.0823956 0.996 254 255 252
-0.0467315 0.0823956 0.996 254 255 252
-0.0451847 0.0823956 0.996 254 255 252
-0.0436817 0.0824783 0.997 254 255 252
-0.0421333 0.0824783 0.997 254 255 252
-0.0405849 0.0824783 0.997 254 255 252
-0.0390366 0.0824783 0.997 254 255 252
-0.0375258 0.082561 0.998 254 255 252
-0.0359758 0.082561 0.998 254 255 252
-0.0344604 0.0826437 0.999 254 255 252
-0.0329089 0.0826437 0.999 254 255 252
-0.0314202 0.0828092 1.001 254 255 252
-0.0298955 0.0828919 1.002 254 255 252
-0.0283959 0.0830574 1.004 254 255 252
-0.0268634 0.0831401 1.005 254 255 252
-0.023789 0.0833055 1.007 254 255 252
-0.0222693 0.083471 1.009 254 255 252
-0.0207433 0.0836364 1.011 254 255 252
-0.0191921 0.0837192 1.012 254 255 252
-0.0176379 0.0838019 1.013 254 255 252
-0.0161122 0.0840501 1.016 254 255 252
-0.014563 0.0842155 1.018 254 255 252
-0.0129947 0.0842983 1.019 254 255 252
-0.0114346 0.0844637 1.021 254 255 252
-0.00986823 0.0846292 1.023 254 255 252
-0.00193575 0.0851255 1.029 254 255 252
-0.000338007 0.0852083 1.03 254 255 252
0.00126284 0.085291 1.031 254 255 252
0.0028668 0.0853737 1.032 254 255 252
0.00446953 0.0853737 1.032 254 255 252
0.00607815 0.0854564 1.033 254 255 252
0.00768987 0.0855392 1.034 250 251 248
0.0092957 0.0855392 1.034 252 251 248
0.0109015 0.0855392 1.034 252 251 248
0.0125074 0.0855392 1.034 254 251 248
0.0141269 0.0856219 1.035 254 251 248
0.0157343 0.0856219 1.035 255 251 249
0.0173752 0.0857873 1.037 255 252 250
0.020616 0.0858701 1.038 255 253 248
0.0222495 0.0859528 1.039 254 254 248
0.023909 0.0861182 1.041 254 254 248
0.0255502 0.086201 1.042 255 255 249
0.0272206 0.0863664 1.044 255 255 250
0.0288696 0.0864491 1.045 252 253 250
0.0305217 0.0865319 1.046 209 210 207
0.0321769 0.0866146 1.047 152 141 155
0.0338353 0.0866973 1.048 223 212 226
0.0354628 0.0866973 1.048 255 231 235
0.0371258 0.0867801 1.049 240 212 216
0.0387919 0.0868628 1.05 162 157 147
0.0404611 0.0869455 1.051 158 153 143
0.0420533 0.0868628 1.05 255 255 244
0.0436839 0.0868628 1.05 255 255 246
0.0453146 0.0868628 1.05 254 255 250
0.0469453 0.0868628 1.05 254 255 250
0.048576 0.0868628 1.05 254 255 250
0.0502545 0.0869455 1.051 254 255 250
0.0518374 0.0868628 1.05 254 255 250
0.053519 0.0869455 1.051 253 255 249
0.0551512 0.0869455 1.051 236 234 228
0.0568375 0.0870282 1.052 226 224 218
0.0584713 0.0870282 1.052 225 223 217
0.0601622 0.087111 1.053 229 227 221
0.0617976 0.087111 1.053 254 255 250
0.0634931 0.0871937 1.054 254 255 250
0.06513 0.0871937 1.054 254 255 250
0.0668303 0.0872764 1.055 254 255 250
0.0685985 0.0874419 1.057 254 255 252
0.0704394 0.08769 1.06 254 255 252
0.0723577 0.0880209 1.064 254 255 252
0.0823625 0.0899237 1.087 254 255 252
0.0842053 0.0900891 1.089 254 255 252
0.0878291 0.0903373 1.092 254 255 252
0.089689 0.0905027 1.094 254 255 252
0.0914716 0.0905855 1.095 254 255 252
0.0931721 0.0905855 1.095 254 255 252
0.095046 0.0907509 1.097 254 255 250
0.0968379 0.0908336 1.098 253 255 249
0.0986328 0.0909164 1.099 243 241 235
0.100614 0.0911646 1.102 189 187 181
0.104886 0.0919091 1.111 54 48 36
0.107475 0.0926536 1.12 56 54 35
0.117804 0.0953836 1.153 47 61 37
0.120736 0.0962936 1.164 47 61 37
0.125633 0.0972863 1.176 46 61 35
0.12746 0.0972863 1.176 45 60 34
0.129286 0.0972863 1.176 45 60 34
0.131113 0.0972863 1.176 46 61 33
0.132939 0.0972863 1.176 45 60 32
0.134765 0.0972863 1.176 43 58 30
0.136592 0.0972863 1.176 43 58 30
0.138653 0.0974518 1.178 45 61 30
0.140483 0.0974518 1.178 45 61 30
0.142312 0.0974518 1.178 45 61 30
0.144264 0.0975345 1.179 46 62 31
0.146219 0.0976172 1.18 46 62 31
0.148177 0.0976999 1.181 46 62 31
0.150138 0.0977827 1.182 47 63 32
0.152103 0.0978654 1.183 47 63 32
0.1542 0.0980309 1.185 48 64 33
0.156304 0.0981963 1.187 48 64 33
0.158281 0.098279 1.188 47 63 32
0.160395 0.0984445 1.19 45 61 30
0.162516 0.0986099 1.192 45 61 30
0.164505 0.0986927 1.193 43 59 28
0.166637 0.0988581 1.195 45 61 30
0.168493 0.0988581 1.195 45 61 30
0.170634 0.0990236 1.197 45 61 30
0.172492 0.0990236 1.197 45 61 30
0.174497 0.0991063 1.198 43 62 30
0.176358 0.0991063 1.198 44 63 31
0.178218 0.0991063 1.198 43 62 30
0.180229 0.099189 1.199 45 64 32
0.182091 0.099189 1.199 46 66 32
0.183953 0.099189 1.199 45 65 31
0.18566 0.0991063 1.198 44 64 30
0.187364 0.0990236 1.197 44 64 30
0.189223 0.0990236 1.197 45 65 31
0.190923 0.0989408 1.196 43 63 29
0.192619 0.0988581 1.195 45 66 29
0.194475 0.0988581 1.195 45 66 29
0.196331 0.0988581 1.195 47 68 31
0.198021 0.0987754 1.194 47 68 31
0.199708 0.0986927 1.193 48 69 32
0.20156 0.0986927 1.193 48 69 32
0.203413 0.0986927 1.193 48 69 32
0.205266 0.0986927 1.193 50 71 34
0.207292 0.0987754 1.194 51 72 35
0.209147 0.0987754 1.194 51 72 35
0.211001 0.0987754 1.194 51 72 35
0.213034 0.0988581 1.195 51 72 35
0.214889 0.0988581 1.195 52 73 36
0.216745 0.0988581 1.195 50 71 34
0.218601 0.0988581 1.195 54 75 38
0.220457 0.0988581 1.195 55 76 39
0.222313 0.0988581 1.195 53 76 39
0.224169 0.0988581 1.195 55 78 41
0.226025 0.0988581 1.195 55 78 41
0.227499 0.0986927 1.193 51 74 37
0.22916 0.0986099 1.192 49 72 35
0.230817 0.0985272 1.191 49 72 35
0.232471 0.0984445 1.19 51 72 35
0.233926 0.098279 1.188 50 71 34
0.235374 0.0981136 1.186 43 64 27
0.237016 0.0980309 1.185 45 66 29
0.238453 0.0978654 1.183 51 72 35
0.240087 0.0977827 1.182 51 72 35
0.241718 0.0976999 1.181 51 72 35
0.243346 0.0976172 1.18 47 68 31
0.244763 0.0974518 1.178 47 68 31
0.246592 0.0974518 1.178 46 67 30
0.248211 0.097369 1.177 45 66 29
0.249827 0.0972863 1.176 45 66 29
0.251653 0.0972863 1.176 45 66 29
0.253479 0.0972863 1.176 45 66 29
0.255523 0.097369 1.177 45 66 29
0.257351 0.097369 1.177 45 66 29
0.259399 0.0974518 1.178 45 66 29
0.26145 0.0975345 1.179 43 64 27
0.265337 0.0976172 1.18 44 65 28
0.267622 0.0977827 1.182 44 65 28
0.269686 0.0978654 1.183 45 66 29
0.271753 0.0979481 1.184 43 64 27
0.273823 0.0980309 1.185 43 64 27
0.275663 0.0980309 1.185 44 65 28
0.277503 0.0980309 1.185 45 66 29
0.279579 0.0981136 1.186 48 69 32
0.281421 0.0981136 1.186 48 69 32
0.283263 0.0981136 1.186 48 69 32
0.285345 0.0981963 1.187 46 67 30
0.287189 0.0981963 1.187 44 65 28
0.289032 0.0981963 1.187 46 67 30
0.290876 0.0981963 1.187 47 69 30
0.292719 0.0981963 1.187 45 67 28
0.294563 0.0981963 1.187 46 68 29
0.296656 0.098279 1.188 46 68 29
0.298501 0.098279 1.188 47 69 30
0.300346 0.098279 1.188 47 69 30
0.302191 0.098279 1.188 48 70 31
0.30378 0.0981963 1.187 48 70 31
0.305623 0.0981963 1.187 48 70 31
0.307467 0.0981963 1.187 48 70 31
0.30931 0.0981963 1.187 50 72 33
0.311154 0.0981963 1.187 50 72 33
0.312997 0.0981963 1.187 48 70 31
0.314841 0.0981963 1.187 51 73 34
0.316684 0.0981963 1.187 51 73 34
0.318528 0.0981963 1.187 47 69 30
0.320371 0.0981963 1.187 53 75 36
0.322214 0.0981963 1.187 58 80 41
0.324058 0.0981963 1.187 61 83 44
0.325901 0.0981963 1.187 65 87 48
0.327745 0.0981963 1.187 69 91 52
0.329866 0.098279 1.188 77 99 60
0.33199 0.0983618 1.189 73 95 56
0.334117 0.0984445 1.19 72 94 55
0.336248 0.0985272 1.191 75 94 56
0.338381 0.0986099 1.192 74 93 55
0.340233 0.0986099 1.192 74 93 55
0.342371 0.0986927 1.193 74 93 55
0.344224 0.0986927 1.193 72 91 53
0.346076 0.0986927 1.193 74 93 55
0.347929 0.0986927 1.193 72 90 54
0.349489 0.0986099 1.192 72 90 54
0.35134 0.0986099 1.192 72 91 59
0.352895 0.0985272 1.191 70 89 57
0.354745 0.0985272 1.191 75 91 60
0.356295 0.0984445 1.19 70 86 55
0.357842 0.0983618 1.189 62 70 40
0.359386 0.098279 1.188 59 67 37
0.360927 0.0981963 1.187 135 141 111
0.36277 0.0981963 1.187 106 112 82
0.364614 0.0981963 1.187 58 60 34
0.364914 0.0977827 1.182 68 70 44
0.363957 0.0970381 1.173 57 62 42
0.359344 0.0943909 1.141 217 225 202
0.358584 0.0937291 1.133 189 199 180
0.360662 0.0938118 1.134 233 243 224
0.362103 0.0937291 1.133 243 246 249
0.363863 0.0937291 1.133 132 135 138
0.365945 0.0938118 1.134 105 111 111
0.368355 0.0939773 1.136 111 117 117
-0.134497 0.0809101 0.96 255 255 246
-0.133145 0.0809944 0.961 255 255 246
-0.131652 0.0809944 0.961 255 255 246
-0.13016 0.0809944 0.961 255 255 245
-0.128801 0.0810786 0.962 254 255 247
-0.127307 0.0810786 0.962 254 255 247
-0.125944 0.0811629 0.963 254 255 249
-0.124448 0.0811629 0.963 254 255 249
-0.123081 0.0812472 0.964 253 255 248
-0.121583 0.0812472 0.964 252 255 247
-0.120211 0.0813315 0.965 253 252 244
-0.118712 0.0813315 0.965 240 239 231
-0.117214 0.0813315 0.965 242 241 233
-0.115715 0.0813315 0.965 250 249 241
-0.114098 0.0812472 0.964 254 255 249
-0.112601 0.0812472 0.964 254 255 249
-0.111219 0.0813315 0.965 254 255 250
-0.10972 0.0813315 0.965 254 255 250
-0.108221 0.0813315 0.965 254 255 250
-0.106833 0.0814158 0.966 254 255 250
-0.105442 0.0815001 0.967 254 255 252
-0.104048 0.0815843 0.968 254 255 252
-0.102756 0.0817529 0.97 254 255 252
-0.101354 0.0818372 0.971 254 255 252
-0.0999492 0.0819215 0.972 254 255 252
-0.0985409 0.0820057 0.973 254 255 252
-0.0971296 0.08209 0.974 254 255 252
-0.0942009 0.0821743 0.975 254 255 252
-0.0927817 0.0822586 0.976 254 255 252
-0.091453 0.0824271 0.978 254 255 252
-0.0900261 0.0825114 0.979 254 255 252
-0.0886865 0.08268 0.981 254 255 252
-0.0873406 0.0828486 0.983 254 255 252
-0.0859013 0.0829328 0.984 254 255 252
-0.0844589 0.0830171 0.985 254 255 252
-0.0830133 0.0831014 0.986 254 255 252
-0.0815647 0.0831857 0.987 254 255 252
-0.0800318 0.0831857 0.987 254 255 252
-0.0785785 0.08327 0.988 254 255 252
-0.0769661 0.0831857 0.987 254 255 252
-0.0755097 0.08327 0.988 254 255 252
-0.0739004 0.0831857 0.987 254 255 252
-0.0724409 0.08327 0.988 254 255 252
-0.0709065 0.08327 0.988 254 255 252
-0.0693721 0.08327 0.988 254 255 252
-0.0678377 0.08327 0.988 254 255 252
-0.0663704 0.0833542 0.989 254 255 252
-0.0649 0.0834385 0.99 254 255 252
-0.0634265 0.0835228 0.991 254 255 252
-0.0620124 0.0836914 0.993 254 255 252
-0.0605311 0.0837756 0.994 254 255 252
-0.0590467 0.0838599 0.995 254 255 252
-0.0575593 0.0839442 0.996 254 255 252
-0.0560687 0.0840285 0.997 254 255 252
-0.054575 0.0841128 0.998 254 255 252
-0.0530251 0.0841128 0.998 254 255 252
-0.0514751 0.0841128 0.998 254 255 252
-0.0499752 0.0841971 0.999 254 255 250
-0.0484237 0.0841971 0.999 254 255 250
-0.0468723 0.0841971 0.999 254 255 250
-0.0453208 0.0841971 0.999 254 255 250
-0.0437693 0.0841971 0.999 254 255 250
-0.0422601 0.0842813 1 254 255 250
-0.040707 0.0842813 1 254 255 250
-0.0391932 0.0843656 1.001 254 255 250
-0.0376386 0.0843656 1.001 254 255 250
-0.036084 0.0843656 1.001 254 255 250
-0.0345639 0.0844499 1.002 254 255 250
-0.0330078 0.0844499 1.002 254 255 250
-0.0315144 0.0846185 1.004 254 255 250
-0.0299552 0.0846185 1.004 254 255 250
-0.0284525 0.084787 1.006 254 255 250
-0.0253529 0.0848713 1.007 254 255 250
-0.0238363 0.0850399 1.009 254 255 250
-0.0223134 0.0852084 1.011 254 255 250
-0.0207638 0.0852927 1.012 254 255 250
-0.0192301 0.0854613 1.014 254 255 250
-0.0176901 0.0856298 1.016 254 255 250
-0.0161281 0.0857141 1.017 254 255 250
-0.0145773 0.0858827 1.019 254 255 250
-0.0130075 0.085967 1.02 254 255 250
-0.0114458 0.0861355 1.022 254 255 250
-0.00987788 0.0863041 1.024 254 255 250
-0.00830376 0.0864727 1.026 254 255 250
-0.00671035 0.0864727 1.026 254 255 250
-0.00512691 0.0866412 1.028 254 255 250
-0.00353382 0.0867255 1.029 254 255 250
-0.00193763 0.0868098 1.03 253 255 249
-0.000338335 0.0868941 1.031 253 255 249
0.00126407 0.0869783 1.032 254 255 250
0.00286958 0.0870626 1.033 253 255 249
0.00447819 0.0871469 1.034 246 248 242
0.00608403 0.0871469 1.034 250 251 248
0.0076973 0.0872312 1.035 183 184 181
0.00930469 0.0872312 1.035 184 183 180
0.0109121 0.0872312 1.035 180 179 176
0.0125195 0.0872312 1.035 184 177 172
0.0141405 0.0873155 1.036 186 179 174
0.0157495 0.0873155 1.036 207 199 192
0.0173752 0.0873997 1.037 232 224 217
0.0206359 0.0875683 1.039 219 211 204
0.0222709 0.0876526 1.04 220 212 205
0.023932 0.0878212 1.042 219 211 204
0.0255748 0.0879054 1.043 227 228 220
0.0272467 0.088074 1.045 255 255 248
0.0289249 0.0882426 1.047 253 248 243
0.0305801 0.0883268 1.048 156 151 146
0.0322384 0.0884111 1.049 123 118 113
0.0338675 0.0884111 1.049 216 211 206
0.0355305 0.0884954 1.05 214 202 198
0.0371966 0.0885797 1.051 233 221 217
0.0388658 0.088664 1.052 162 151 145
0.0405381 0.0887482 1.053 145 134 128
0.0421334 0.088664 1.052 255 255 247
0.0437672 0.088664 1.052 255 255 249
0.0454009 0.088664 1.052 254 255 250
0.0470347 0.088664 1.052 254 255 250
0.0486685 0.088664 1.052 254 255 250
0.0503023 0.088664 1.052 254 255 250
0.0519855 0.0887482 1.053 255 255 250
0.0535699 0.088664 1.052 248 248 242
0.0552562 0.0887482 1.053 249 244 239
0.0568915 0.0887482 1.053 226 221 216
0.0585269 0.0887482 1.053 226 222 215
0.0602193 0.0888325 1.054 229 225 218
0.0618562 0.0888325 1.054 254 255 250
0.0635534 0.0889168 1.055 254 255 250
0.0651918 0.0889168 1.055 254 255 250
0.0668936 0.0890011 1.056 254 255 250
0.0686634 0.0891697 1.058 254 255 250
0.0705059 0.0894225 1.061 254 255 250
0.08799 0.0922038 1.094 254 255 252
0.089771 0.0922881 1.095 254 255 252
0.0915551 0.0923723 1.096 254 255 252
0.0932572 0.0923723 1.096 254 255 252
0.095046 0.0924566 1.097 254 255 250
0.0968379 0.0925409 1.098 254 255 250
0.0986328 0.0926252 1.099 248 246 240
0.100614 0.092878 1.102 203 201 195
0.104792 0.0935523 1.11 54 50 38
0.107283 0.0942265 1.118 56 54 35
0.1176 0.0970078 1.151 49 63 39
0.120529 0.0979349 1.162 48 62 38
0.125313 0.098862 1.173 46 61 35
0.127135 0.098862 1.173 45 60 34
0.128956 0.098862 1.173 45 60 34
0.130778 0.098862 1.173 47 62 34
0.132713 0.0989463 1.174 46 61 33
0.134536 0.0989463 1.174 45 60 32
0.136359 0.0989463 1.174 43 58 30
0.1383 0.0990306 1.175 45 61 30
0.140125 0.0990306 1.175 53 69 38
0.142192 0.0991991 1.177 47 63 32
0.144142 0.0992834 1.178 45 61 30
0.146095 0.0993677 1.179 45 61 30
0.148052 0.099452 1.18 45 61 30
0.150011 0.0995363 1.181 46 62 31
0.151974 0.0996205 1.182 45 61 30
0.1542 0.0998734 1.185 46 62 31
0.156172 0.0999577 1.186 46 62 31
0.158147 0.100042 1.187 46 62 31
0.160395 0.100295 1.19 45 61 30
0.162516 0.100463 1.192 45 61 30
0.164505 0.100548 1.193 43 59 28
0.166637 0.100716 1.195 45 61 30
0.168634 0.1008 1.196 45 61 30
0.170634 0.100885 1.197 43 62 30
0.172492 0.100885 1.197 41 60 28
0.174497 0.100969 1.198 44 63 31
0.176358 0.100969 1.198 44 63 31
0.178367 0.101053 1.199 45 64 32
0.180079 0.100969 1.198 45 64 32
0.181939 0.100969 1.198 46 65 33
0.1838 0.100969 1.198 45 64 32
0.18566 0.100969 1.198 44 64 30
0.187364 0.100885 1.197 44 64 30
0.189065 0.1008 1.196 45 65 31
0.190923 0.1008 1.196 41 61 27
0.192619 0.100716 1.195 43 64 27
0.194312 0.100632 1.194 44 65 28
0.196166 0.100632 1.194 44 65 28
0.197855 0.100548 1.193 45 66 29
0.199708 0.100548 1.193 45 66 29
0.20156 0.100548 1.193 45 66 29
0.203413 0.100548 1.193 47 68 31
0.205266 0.100548 1.193 46 67 30
0.207119 0.100548 1.193 48 71 34
0.209147 0.100632 1.194 49 72 35
0.211001 0.100632 1.194 50 73 36
0.213034 0.100716 1.195 50 73 36
0.214889 0.100716 1.195 49 72 35
0.216745 0.100716 1.195 48 71 34
0.218601 0.100716 1.195 51 74 37
0.220457 0.100716 1.195 51 74 37
0.222313 0.100716 1.195 52 75 38
0.224169 0.100716 1.195 52 75 38
0.226025 0.100716 1.195 52 75 38
0.227499 0.100548 1.193 51 74 37
0.22916 0.100463 1.192 49 72 35
0.230817 0.100379 1.191 48 71 34
0.232471 0.100295 1.19 51 72 35
0.233729 0.100042 1.187 48 69 32
0.235374 0.0999577 1.186 47 68 31
0.236816 0.0997891 1.184 45 66 29
0.238251 0.0996205 1.182 47 69 30
0.239884 0.0995363 1.181 46 68 29
0.241513 0.099452 1.18 45 67 28
0.242933 0.0992834 1.178 45 67 28
0.244763 0.0992834 1.178 47 69 30
0.246383 0.0991991 1.177 46 68 29
0.248 0.0991149 1.176 45 66 29
0.249827 0.0991149 1.176 45 66 29
0.251653 0.0991149 1.176 45 66 29
0.253479 0.0991149 1.176 44 65 28
0.255523 0.0991991 1.177 45 66 29
0.257351 0.0991991 1.177 45 66 29
0.259399 0.0992834 1.178 45 66 29
0.26145 0.0993677 1.179 43 64 27
0.265337 0.099452 1.18 44 65 28
0.267396 0.0995363 1.181 45 66 29
0.269458 0.0996205 1.182 45 66 29
0.271753 0.0997891 1.184 44 65 28
0.273592 0.0997891 1.184 45 66 29
0.27543 0.0997891 1.184 45 66 29
0.277503 0.0998734 1.185 45 66 29
0.279344 0.0998734 1.185 47 68 31
0.281184 0.0998734 1.185 47 68 31
0.283263 0.0999577 1.186 47 68 31
0.285105 0.0999577 1.186 46 67 30
0.287189 0.100042 1.187 47 68 31
0.289032 0.100042 1.187 54 75 38
0.290876 0.100042 1.187 48 69 32
0.292719 0.100042 1.187 45 66 29
0.294563 0.100042 1.187 46 67 30
0.296406 0.100042 1.187 46 67 30
0.298501 0.100126 1.188 46 68 29
0.300346 0.100126 1.188 47 69 30
0.302191 0.100126 1.188 48 70 31
0.30378 0.100042 1.187 48 70 31
0.305881 0.100126 1.188 47 69 30
0.307726 0.100126 1.188 47 69 30
0.309571 0.100126 1.188 48 70 31
0.311416 0.100126 1.188 50 72 33
0.313261 0.100126 1.188 51 73 34
0.314841 0.100042 1.187 52 74 35
0.316684 0.100042 1.187 52 74 35
0.318528 0.100042 1.187 50 72 33
0.320371 0.100042 1.187 52 74 35
0.322214 0.100042 1.187 54 76 37
0.324058 0.100042 1.187 63 82 44
0.325901 0.100042 1.187 67 86 48
0.328021 0.100126 1.188 72 91 53
0.330144 0.100211 1.189 81 100 62
0.332269 0.100295 1.19 75 94 56
0.334117 0.100295 1.19 72 91 53
0.336248 0.100379 1.191 76 95 57
0.338381 0.100463 1.192 75 94 56
0.340233 0.100463 1.192 75 94 56
0.342371 0.100548 1.193 74 93 55
0.344224 0.100548 1.193 72 94 55
0.346076 0.100548 1.193 72 94 55
0.347929 0.100548 1.193 73 94 57
0.349489 0.100463 1.192 73 94 57
0.35134 0.100463 1.192 73 92 60
0.353191 0.100463 1.192 73 92 60
0.354745 0.100379 1.191 79 95 64
0.356295 0.100295 1.19 71 87 56
0.358143 0.100295 1.19 61 69 39
0.359689 0.100211 1.189 61 69 39
0.361231 0.100126 1.188 136 143 111
0.36277 0.100042 1.187 105 112 80
0.364614 0.100042 1.187 59 61 35
0.364914 0.0996205 1.182 70 72 46
0.364267 0.0989463 1.174 59 65 42
0.359344 0.096165 1.141 222 230 207
0.358584 0.0954908 1.133 195 202 182
0.360344 0.0954908 1.133 237 244 224
0.362103 0.0954908 1.133 243 246 249
0.363863 0.0954908 1.133 128 131 134
0.3653 0.0954065 1.132 105 110 113
0.367382 0.0954908 1.133 113 118 121
-0.134637 0.0824886 0.961 255 255 247
-0.133145 0.0824886 0.961 255 255 246
-0.131789 0.0825744 0.962 255 255 246
-0.130295 0.0825744 0.962 255 255 247
-0.128935 0.0826603 0.963 254 255 249
-0.12744 0.0826603 0.963 254 255 249
-0.126075 0.0827461 0.964 254 255 249
-0.124578 0.0827461 0.964 254 255 249
-0.123208 0.0828319 0.965 253 255 248
-0.12171 0.0828319 0.965 253 255 248
-0.120211 0.0828319 0.965 253 255 248
-0.118712 0.0828319 0.965 250 253 245
-0.117214 0.0828319 0.965 247 250 242
-0.115715 0.0828319 0.965 254 255 249
-0.114216 0.0828319 0.965 254 255 249
-0.112718 0.0828319 0.965 254 255 249
-0.111104 0.0827461 0.964 254 255 250
-0.10972 0.0828319 0.965 254 255 250
-0.108221 0.0828319 0.965 254 255 250
-0.106833 0.0829178 0.966 254 255 250
-0.105442 0.0830036 0.967 254 255 250
-0.104048 0.0830895 0.968 254 255 250
-0.102756 0.0832611 0.97 254 255 252
-0.101354 0.083347 0.971 254 255 252
-0.0999492 0.0834328 0.972 254 255 252
-0.0986422 0.0836045 0.974 254 255 252
-0.0957151 0.0836903 0.975 254 255 252
-0.0942975 0.0837761 0.976 254 255 252
-0.0928768 0.083862 0.977 254 255 252
-0.0915465 0.0840337 0.979 254 255 252
-0.09021 0.0842053 0.981 254 255 252
-0.0888673 0.084377 0.983 254 255 252
-0.0874295 0.0844628 0.984 254 255 252
-0.0860759 0.0846345 0.986 254 255 252
-0.0846304 0.0847203 0.987 254 255 252
-0.0830975 0.0847203 0.987 254 255 252
-0.0816473 0.0848062 0.988 254 255 252
-0.080194 0.084892 0.989 254 255 252
-0.078658 0.084892 0.989 254 255 252
-0.0771221 0.084892 0.989 254 255 252
-0.0755861 0.084892 0.989 254 255 252
-0.0739753 0.0848062 0.988 254 255 252
-0.0725142 0.084892 0.989 254 255 252
-0.0709783 0.084892 0.989 254 255 252
-0.0694423 0.084892 0.989 254 255 252
-0.0679064 0.084892 0.989 254 255 252
-0.0664375 0.0849779 0.99 254 255 252
-0.0649656 0.0850637 0.991 254 255 252
-0.0635545 0.0852354 0.993 254 255 252
-0.0620748 0.0853212 0.994 254 255 252
-0.0606529 0.0854929 0.996 254 255 252
-0.0591654 0.0855787 0.997 254 255 252
-0.0576748 0.0856645 0.998 254 255 252
-0.0561812 0.0857504 0.999 254 255 252
-0.0546844 0.0858362 1 254 255 252
-0.0531845 0.0859221 1.001 254 255 252
-0.0516299 0.0859221 1.001 254 255 252
-0.0500753 0.0859221 1.001 254 255 252
-0.0485692 0.0860079 1.002 254 255 252
-0.047013 0.0860079 1.002 255 255 252
-0.0454569 0.0860079 1.002 255 255 252
-0.0439007 0.0860079 1.002 255 255 249
-0.0423446 0.0860079 1.002 255 255 249
-0.0408292 0.0860937 1.003 255 255 249
-0.0392715 0.0860937 1.003 255 255 250
-0.0377138 0.0860937 1.003 255 255 250
-0.0361921 0.0861796 1.004 255 255 250
-0.0346329 0.0861796 1.004 255 255 250
-0.0331066 0.0862654 1.005 255 255 250
-0.0315772 0.0863512 1.006 255 255 250
-0.0284808 0.0864371 1.007 255 255 250
-0.0269436 0.0865229 1.008 255 255 250
-0.0254033 0.0866087 1.009 254 255 252
-0.0238835 0.0867804 1.011 254 255 252
-0.0223355 0.0868663 1.012 254 255 252
-0.0208049 0.0870379 1.014 254 255 252
-0.019249 0.0871238 1.015 254 255 252
-0.0177075 0.0872954 1.017 254 255 252
-0.016144 0.0873813 1.018 254 255 252
-0.0145916 0.0875529 1.02 254 255 252
-0.0130202 0.0876388 1.021 254 255 250
-0.011457 0.0878104 1.023 254 255 250
-0.00988753 0.0879821 1.025 253 255 249
-0.00830376 0.088068 1.026 253 255 249
-0.00671689 0.0881538 1.027 254 255 250
-0.00513189 0.0883255 1.029 254 255 250
-0.00353726 0.0884113 1.03 253 255 249
-0.00194139 0.088583 1.032 244 246 240
-0.000338991 0.0886688 1.033 239 241 235
0.00126652 0.0887546 1.034 254 255 250
0.00287513 0.0888405 1.035 252 254 248
0.00448252 0.0888405 1.035 254 255 250
0.00608991 0.0888405 1.035 251 252 249
0.00770474 0.0889263 1.036 190 191 188
0.00931368 0.0889263 1.036 162 161 158
0.0109226 0.0889263 1.036 161 160 157
0.0125316 0.0889263 1.036 159 156 153
0.0141542 0.0890122 1.037 166 163 160
0.0157647 0.0890122 1.037 184 174 172
0.0190223 0.0891838 1.039 207 199 197
0.0206756 0.0893555 1.041 210 202 200
0.0223137 0.0894413 1.042 209 209 203
0.0239549 0.0895272 1.043 206 206 200
0.0256238 0.0896988 1.045 206 207 199
0.0272989 0.0898705 1.047 242 243 235
0.0289801 0.0900422 1.049 254 251 248
0.0306676 0.0902139 1.051 186 183 180
0.0322999 0.0902139 1.051 86 82 75
0.0339321 0.0902139 1.051 83 79 72
0.0355982 0.0902997 1.052 100 85 77
0.0372674 0.0903855 1.053 128 113 105
0.0389397 0.0904714 1.054 141 141 130
0.0406151 0.0905572 1.055 215 215 204
0.0422535 0.0905572 1.055 255 255 246
0.043892 0.0905572 1.055 255 255 247
0.0455304 0.0905572 1.055 254 255 249
0.0471689 0.0905572 1.055 254 255 249
0.0488073 0.0905572 1.055 254 255 249
0.0504458 0.0905572 1.055 254 255 249
0.0520842 0.0905572 1.055 255 255 249
0.0537227 0.0905572 1.055 243 241 235
0.0553611 0.0905572 1.055 255 251 244
0.0569996 0.0905572 1.055 227 223 216
0.058638 0.0905572 1.055 223 219 212
0.0602765 0.0905572 1.055 228 224 217
0.0619149 0.0905572 1.055 255 255 249
0.0635534 0.0905572 1.055 255 255 249
0.0652536 0.090643 1.056 254 255 249
0.066957 0.0907289 1.057 254 255 249
0.0687283 0.0909006 1.059 254 255 250
0.0705723 0.0911581 1.062 254 255 250
0.0806744 0.093304 1.087 254 255 252
0.0827414 0.0937331 1.092 254 255 252
0.084592 0.0939048 1.094 254 255 252
0.0863699 0.0939907 1.095 254 255 252
0.0880704 0.0939907 1.095 254 255 252
0.089935 0.0941623 1.097 254 255 252
0.0916386 0.0941623 1.097 254 255 252
0.0933423 0.0941623 1.097 254 255 252
0.0951326 0.0942482 1.098 254 255 250
0.0969261 0.094334 1.099 254 255 250
0.0987226 0.0944198 1.1 253 251 245
0.100522 0.0945057 1.101 213 211 205
0.104697 0.0951924 1.109 54 50 38
0.107187 0.0958791 1.117 55 53 34
0.117396 0.0986258 1.149 49 61 37
0.120321 0.09957 1.16 48 60 36
0.123281 0.100514 1.171 46 60 36
0.125099 0.100514 1.171 46 60 36
0.126918 0.100514 1.171 46 61 35
0.130667 0.1006 1.172 48 63 37
0.132487 0.1006 1.172 47 62 36
0.134307 0.1006 1.172 48 63 35
0.136127 0.1006 1.172 43 58 30
0.138065 0.100686 1.173 43 59 28
0.140006 0.100772 1.174 52 68 37
0.14195 0.100858 1.175 49 65 34
0.14402 0.101029 1.177 47 63 32
0.145971 0.101115 1.178 48 64 33
0.147801 0.101115 1.178 47 63 32
0.149884 0.101287 1.18 47 63 32
0.151974 0.101458 1.182 45 61 30
0.1542 0.101716 1.185 45 61 30
0.156172 0.101802 1.186 45 61 30
0.158281 0.101973 1.188 45 61 30
0.160395 0.102145 1.19 45 61 30
0.162516 0.102317 1.192 46 62 31
0.164643 0.102488 1.194 46 62 31
0.166637 0.102574 1.195 46 62 31
0.168775 0.102746 1.197 45 61 30
0.170634 0.102746 1.197 46 62 31
0.172637 0.102832 1.198 43 59 28
0.174497 0.102832 1.198 47 63 32
0.176358 0.102832 1.198 47 63 32
0.178218 0.102832 1.198 45 64 32
0.179928 0.102746 1.197 45 64 32
0.181787 0.102746 1.197 45 64 32
0.183646 0.102746 1.197 44 63 31
0.185505 0.102746 1.197 43 63 29
0.187364 0.102746 1.197 44 64 30
0.188907 0.102574 1.195 45 65 31
0.190763 0.102574 1.195 43 63 29
0.192458 0.102488 1.194 43 63 29
0.194312 0.102488 1.194 43 63 29
0.196002 0.102403 1.193 43 64 27
0.197689 0.102317 1.192 44 65 28
0.19954 0.102317 1.192 45 66 29
0.201391 0.102317 1.192 45 66 29
0.203243 0.102317 1.192 48 69 32
0.205266 0.102403 1.193 47 68 31
0.207119 0.102403 1.193 47 68 31
0.209147 0.102488 1.194 50 71 34
0.211001 0.102488 1.194 52 73 36
0.213034 0.102574 1.195 51 72 35
0.214889 0.102574 1.195 50 71 34
0.216745 0.102574 1.195 50 71 34
0.218601 0.102574 1.195 50 73 36
0.220642 0.10266 1.196 51 74 37
0.222313 0.102574 1.195 51 74 37
0.224169 0.102574 1.195 51 74 37
0.226025 0.102574 1.195 50 73 36
0.227499 0.102403 1.193 50 73 36
0.22916 0.102317 1.192 49 72 35
0.230817 0.102231 1.191 49 72 35
0.232471 0.102145 1.19 51 72 35
0.233729 0.101888 1.187 50 71 34
0.235374 0.101802 1.186 48 69 32
0.237016 0.101716 1.185 46 67 30
0.238251 0.101458 1.182 47 68 31
0.239884 0.101373 1.181 46 67 30
0.241513 0.101287 1.18 48 69 32
0.242933 0.101115 1.178 44 65 28
0.244763 0.101115 1.178 47 68 31
0.246383 0.101029 1.177 45 66 29
0.248 0.100943 1.176 44 65 28
0.249827 0.100943 1.176 44 65 28
0.251867 0.101029 1.177 44 65 28
0.253695 0.101029 1.177 45 66 29
0.25574 0.101115 1.178 45 66 29
0.257569 0.101115 1.178 46 67 30
0.259399 0.101115 1.178 46 67 30
0.263504 0.101287 1.18 45 66 29
0.265337 0.101287 1.18 44 65 28
0.267396 0.101373 1.181 44 65 28
0.269458 0.101458 1.182 45 66 29
0.271523 0.101544 1.183 45 66 29
0.27336 0.101544 1.183 45 66 29
0.27543 0.10163 1.184 45 66 29
0.277503 0.101716 1.185 46 67 30
0.279344 0.101716 1.185 47 68 31
0.281184 0.101716 1.185 47 68 31
0.283024 0.101716 1.185 48 69 32
0.285105 0.101802 1.186 47 68 31
0.287189 0.101888 1.187 48 69 32
0.289032 0.101888 1.187 50 71 34
0.290876 0.101888 1.187 48 70 31
0.292719 0.101888 1.187 45 67 28
0.294563 0.101888 1.187 47 69 30
0.296406 0.101888 1.187 46 68 29
0.298501 0.101973 1.188 47 69 30
0.300346 0.101973 1.188 47 69 30
0.301937 0.101888 1.187 48 70 31
0.304036 0.101973 1.188 48 70 31
0.306138 0.102059 1.189 47 69 30
0.307985 0.102059 1.189 48 70 31
0.309831 0.102059 1.189 50 72 33
0.311678 0.102059 1.189 50 72 33
0.313525 0.102059 1.189 51 73 34
0.315371 0.102059 1.189 52 74 35
0.316951 0.101973 1.188 53 75 36
0.318796 0.101973 1.188 53 75 36
0.320641 0.101973 1.188 52 74 35
0.322214 0.101888 1.187 54 76 37
0.324058 0.101888 1.187 58 80 41
0.325901 0.101888 1.187 62 84 45
0.328021 0.101973 1.188 72 94 55
0.330144 0.102059 1.189 74 96 57
0.332269 0.102145 1.19 70 92 53
0.334117 0.102145 1.19 70 92 53
0.336248 0.102231 1.191 76 95 57
0.338381 0.102317 1.192 75 94 56
0.340233 0.102317 1.192 75 94 56
0.342371 0.102403 1.193 75 94 56
0.344224 0.102403 1.193 72 94 55
0.346076 0.102403 1.193 73 95 56
0.347929 0.102403 1.193 74 95 58
0.349782 0.102403 1.193 73 94 57
0.35134 0.102317 1.192 72 91 59
0.353191 0.102317 1.192 72 91 59
0.354745 0.102231 1.191 81 95 64
0.356295 0.102145 1.19 71 85 54
0.358143 0.102145 1.19 61 70 38
0.359689 0.102059 1.189 64 73 41
0.361231 0.101973 1.188 137 144 112
0.36277 0.101888 1.187 102 109 77
0.364614 0.101888 1.187 61 63 37
0.366149 0.101802 1.186 70 72 46
0.364577 0.100858 1.175 62 66 43
0.359659 0.098025 1.142 222 230 207
0.358901 0.0973383 1.134 197 208 187
0.360662 0.0973383 1.134 235 246 225
0.362423 0.0973383 1.134 243 246 249
0.364184 0.0973383 1.134 127 130 133
0.3653 0.0971666 1.132 107 112 115
0.367382 0.0972524 1.133 114 119 122
-0.134637 0.0839828 0.961 255 255 246
-0.133283 0.0840702 0.962 255 255 246
-0.131789 0.0840702 0.962 254 255 249
-0.130431 0.0841576 0.963 254 255 249
-0.129069 0.084245 0.964 254 255 249
-0.127572 0.084245 0.964 254 255 249
-0.126206 0.0843324 0.965 254 255 249
-0.124707 0.0843324 0.965 254 255 249
-0.123208 0.0843324 0.965 255 255 248
-0.121836 0.0844198 0.966 240 241 233
-0.120335 0.0844198 0.966 245 246 238
-0.118835 0.0844198 0.966 249 250 242
-0.117335 0.0844198 0.966 249 248 240
-0.115715 0.0843324 0.965 255 255 249
-0.114216 0.0843324 0.965 254 255 249
-0.112718 0.0843324 0.965 254 255 249
-0.111219 0.0843324 0.965 254 255 250
-0.10972 0.0843324 0.965 254 255 250
-0.108221 0.0843324 0.965 254 255 250
-0.106833 0.0844198 0.966 254 255 250
-0.105442 0.0845072 0.967 254 255 252
-0.104048 0.0845946 0.968 254 255 252
-0.102756 0.0847694 0.97 254 255 252
-0.101354 0.0848568 0.971 254 255 252
-0.0999492 0.0849441 0.972 254 255 252
-0.0986422 0.0851189 0.974 254 255 252
-0.0957151 0.0852063 0.975 254 255 252
-0.0943941 0.0853811 0.977 254 255 252
-0.0930669 0.0855559 0.979 254 255 252
-0.09164 0.0856433 0.98 254 255 252
-0.0903019 0.0858181 0.982 254 255 252
-0.0889577 0.0859928 0.984 254 255 252
-0.0875183 0.0860802 0.985 254 255 252
-0.0860759 0.0861676 0.986 254 255 252
-0.0846304 0.086255 0.987 254 255 252
-0.0831817 0.0863424 0.988 254 255 252
-0.0817299 0.0864298 0.989 254 255 252
-0.0802751 0.0865172 0.99 254 255 252
-0.0787376 0.0865172 0.99 254 255 252
-0.0772001 0.0865172 0.99 254 255 252
-0.0756626 0.0865172 0.99 254 255 252
-0.0741251 0.0865172 0.99 254 255 252
-0.0725876 0.0865172 0.99 254 255 252
-0.0711218 0.0866046 0.991 254 255 252
-0.0695828 0.0866046 0.991 254 255 252
-0.067975 0.0865172 0.99 254 255 252
-0.0665046 0.0866046 0.991 254 255 252
-0.0650311 0.086692 0.992 254 255 252
-0.0636185 0.0868667 0.994 254 255 252
-0.0621997 0.0870415 0.996 254 255 252
-0.0607138 0.0871289 0.997 254 255 252
-0.0592841 0.0873037 0.999 254 255 252
-0.0577904 0.0873911 1 254 255 252
-0.0562936 0.0874785 1.001 254 255 252
-0.0547937 0.0875659 1.002 254 255 252
-0.0532907 0.0876533 1.003 254 255 250
-0.0517846 0.0877407 1.004 251 253 247
-0.0501753 0.0876533 1.003 251 253 242
-0.0486661 0.0877407 1.004 251 253 242
-0.0471069 0.0877407 1.004 253 253 242
-0.0455476 0.0877407 1.004 254 254 243
-0.0440322 0.0878281 1.005 253 255 244
-0.0424714 0.0878281 1.005 255 255 247
-0.0409106 0.0878281 1.005 255 255 250
-0.0393498 0.0878281 1.005 255 253 247
-0.0362642 0.0879154 1.006 252 254 243
-0.0347019 0.0879154 1.006 254 254 243
-0.0331725 0.0880028 1.007 254 254 243
-0.03164 0.0880902 1.008 255 255 244
-0.0301043 0.0881776 1.009 255 255 244
-0.0285656 0.088265 1.01 251 253 247
-0.0270238 0.0883524 1.011 250 252 246
-0.0254788 0.0884398 1.012 250 251 248
-0.0239308 0.0885272 1.013 252 253 250
-0.0223796 0.0886146 1.014 253 255 249
-0.0208459 0.0887894 1.016 252 254 248
-0.019287 0.0888767 1.017 251 253 247
-0.0177249 0.0889641 1.018 250 252 246
-0.0161598 0.0890515 1.019 250 253 245
-0.0145916 0.0891389 1.02 251 254 246
-0.013033 0.0893137 1.022 254 255 245
-0.011457 0.0894011 1.023 254 255 245
-0.00989717 0.0896633 1.026 255 255 246
-0.00831185 0.0897507 1.027 254 255 245
-0.00672343 0.089838 1.028 253 255 246
-0.00513688 0.0900128 1.03 253 255 246
-0.00354069 0.0901002 1.031 245 248 240
-0.00194139 0.0901876 1.032 239 242 234
-0.000339319 0.0903624 1.034 245 247 241
0.00126774 0.0904498 1.035 254 255 250
0.00287513 0.0904498 1.035 252 254 248
0.00448685 0.0905372 1.036 254 255 250
0.0060958 0.0905372 1.036 250 251 248
0.00932267 0.0906246 1.037 202 203 200
0.0109332 0.0906246 1.037 250 251 248
0.0125437 0.0906246 1.037 217 217 211
0.0141542 0.0906246 1.037 184 184 178
0.0157799 0.090712 1.038 219 214 209
0.0174087 0.0907993 1.039 255 252 247
0.0190589 0.0909741 1.041 228 224 217
0.0206955 0.0910615 1.042 201 197 190
0.0223565 0.0912363 1.044 230 229 221
0.0240238 0.0914111 1.046 255 255 248
0.0256728 0.0914985 1.047 255 255 246
0.027351 0.0916733 1.049 255 255 247
0.029063 0.0919354 1.052 255 255 249
0.0306968 0.0919354 1.052 251 250 242
0.0323613 0.0920228 1.053 177 168 157
0.0339967 0.0920228 1.053 100 91 80
0.0356659 0.0921102 1.054 148 142 130
0.0373382 0.0921976 1.055 184 178 166
0.0390136 0.092285 1.056 250 244 237
0.0406536 0.092285 1.056 255 255 248
0.0423336 0.0923724 1.057 255 255 250
0.0440168 0.0924598 1.058 255 255 249
0.0456599 0.0924598 1.058 254 255 250
0.047303 0.0924598 1.058 254 255 250
0.0489461 0.0924598 1.058 254 255 250
0.0505892 0.0924598 1.058 254 255 250
0.0522323 0.0924598 1.058 249 247 241
0.0538245 0.0923724 1.057 235 233 227
0.0554661 0.0923724 1.057 255 249 242
0.0571076 0.0923724 1.057 231 225 218
0.0587492 0.0923724 1.057 223 219 212
0.0603336 0.092285 1.056 228 224 217
0.0619736 0.092285 1.056 255 255 249
0.0636136 0.092285 1.056 255 255 249
0.0652536 0.092285 1.056 254 255 249
0.0670203 0.0924598 1.058 254 255 249
0.0687932 0.0926346 1.06 254 255 250
0.0765159 0.0940328 1.076 254 255 252
0.0786229 0.0945572 1.082 254 255 252
0.0808228 0.0951689 1.089 254 255 252
0.0828929 0.0956059 1.094 254 255 252
0.0846693 0.0956933 1.095 254 255 252
0.0864487 0.0957806 1.096 254 255 252
0.0882313 0.095868 1.097 254 255 252
0.089935 0.095868 1.097 254 255 252
0.0917222 0.0959554 1.098 254 255 252
0.0933423 0.095868 1.097 254 255 252
0.0951326 0.0959554 1.098 254 255 252
0.0970143 0.0961302 1.1 254 255 252
0.0987226 0.0961302 1.1 254 254 248
0.100614 0.096305 1.102 217 217 211
