ply
format ascii 1.0
comment Created by Open3D
element vertex 1343
property double x
property double y
property double z
property uchar red
property uchar green
property uchar blue
end_header
-0.0960868 -0.20783 1.185 15 26 10
-0.0942465 -0.20783 1.185 14 25 9
-0.0923282 -0.207654 1.184 17 28 12
-0.0904894 -0.207654 1.184 15 26 10
-0.0886506 -0.207654 1.184 13 27 12
-0.0867385 -0.207479 1.183 12 26 11
-0.0848295 -0.207303 1.182 12 26 11
-0.0829938 -0.207303 1.182 12 26 11
-0.0811581 -0.207303 1.182 12 26 11
-0.0793224 -0.207303 1.182 11 25 10
-0.0774212 -0.207128 1.181 11 25 10
-0.075587 -0.207128 1.181 11 25 10
-0.0736904 -0.206953 1.18 12 23 9
-0.0718579 -0.206953 1.18 13 24 10
-0.0700253 -0.206953 1.18 13 24 10
-0.0681927 -0.206953 1.18 12 23 9
-0.0663601 -0.206953 1.18 11 22 8
-0.0645275 -0.206953 1.18 12 23 9
-0.0626418 -0.206777 1.179 11 22 8
-0.0608108 -0.206777 1.179 12 23 9
-0.0589297 -0.206602 1.178 13 24 10
-0.0571003 -0.206602 1.178 12 23 9
-0.0552708 -0.206602 1.178 11 22 8
-0.053396 -0.206426 1.177 11 22 8
-0.0516119 -0.206602 1.178 11 22 8
-0.0497824 -0.206602 1.178 11 22 8
-0.0479529 -0.206602 1.178 10 20 8
-0.0461234 -0.206602 1.178 10 20 8
-0.044294 -0.206602 1.178 10 20 8
-0.0425005 -0.206777 1.179 10 20 8
-0.040704 -0.206953 1.18 11 21 9
-0.0388714 -0.206953 1.18 10 20 8
-0.0370388 -0.206953 1.18 8 21 8
-0.0352063 -0.206953 1.18 6 19 6
-0.0333737 -0.206953 1.18 9 22 9
-0.0315678 -0.207128 1.181 9 22 9
-0.0297589 -0.207303 1.182 9 22 9
-0.0278996 -0.207128 1.181 9 22 9
-0.0260654 -0.207128 1.181 8 21 8
-0.0242313 -0.207128 1.181 8 21 8
-0.0223782 -0.206953 1.18 8 21 8
-0.0205282 -0.206777 1.179 8 21 8
-0.0186813 -0.206602 1.178 8 21 8
-0.0168089 -0.206076 1.175 8 21 8
-0.0149586 -0.205725 1.173 6 19 6
-0.0131033 -0.205199 1.17 8 21 8
-0.011267 -0.204848 1.168 6 19 6
-0.00942064 -0.204146 1.164 6 19 6
-0.00758675 -0.203445 1.16 5 18 5
-0.00578523 -0.203445 1.16 6 19 6
-0.00397684 -0.203094 1.158 5 18 5
-0.00217842 -0.203094 1.158 5 18 5
-0.000380011 -0.203094 1.158 4 15 7
0.00141595 -0.202743 1.156 0 9 1
0.0032057 -0.202393 1.154 0 4 3
0.00792785 -0.186959 1.066 84 84 85
0.0111967 -0.186257 1.062 80 78 84
0.0128219 -0.185907 1.06 76 73 77
0.0144271 -0.18538 1.057 91 88 92
0.0160687 -0.18538 1.057 106 102 108
0.0176767 -0.18503 1.055 99 95 101
0.0192786 -0.184679 1.053 88 84 90
0.0208742 -0.184328 1.051 89 85 91
0.0224422 -0.183802 1.048 95 89 95
0.0240468 -0.183627 1.047 99 93 99
0.0255993 -0.1831 1.044 98 93 97
0.0271685 -0.18275 1.042 100 95 99
0.0286486 -0.181873 1.037 106 101 105
0.0302008 -0.181522 1.035 100 95 99
0.0317467 -0.181171 1.033 90 86 87
0.0332864 -0.18082 1.031 88 84 85
0.0348537 -0.180645 1.03 94 87 89
0.0363826 -0.180294 1.028 90 83 85
0.0379052 -0.179944 1.026 90 83 85
0.0394216 -0.179593 1.024 99 92 94
0.0409719 -0.179417 1.023 96 89 91
0.0424774 -0.179067 1.021 96 89 91
0.0440199 -0.178891 1.02 100 93 94
0.0455593 -0.178716 1.019 101 94 95
0.0470956 -0.17854 1.018 100 93 94
0.0486288 -0.178365 1.017 101 94 95
0.0501588 -0.17819 1.016 103 96 97
0.0515839 -0.177664 1.013 107 100 101
0.0531047 -0.177488 1.012 111 102 103
0.0546764 -0.177488 1.012 110 101 102
0.0561925 -0.177313 1.011 105 96 97
0.0577054 -0.177137 1.01 113 104 105
0.059274 -0.177137 1.01 124 116 114
0.0607823 -0.176962 1.009 117 109 107
0.0622875 -0.176787 1.008 119 111 109
0.063853 -0.176787 1.008 119 111 109
0.0653536 -0.176611 1.007 119 111 109
0.0669175 -0.176611 1.007 119 111 109
0.0684134 -0.176436 1.006 118 111 106
0.0699757 -0.176436 1.006 122 115 110
0.0715381 -0.176436 1.006 129 122 117
0.0730278 -0.176261 1.005 131 124 119
0.0745886 -0.176261 1.005 136 130 123
0.0761494 -0.176261 1.005 127 121 114
0.0777102 -0.176261 1.005 117 107 98
0.079271 -0.176261 1.005 94 84 75
0.0808318 -0.176261 1.005 72 63 52
0.0823926 -0.176261 1.005 103 94 83
0.0839534 -0.176261 1.005 166 157 144
0.0855992 -0.176436 1.006 166 157 144
0.0871616 -0.176436 1.006 167 156 143
0.0887239 -0.176436 1.006 167 156 143
0.0902863 -0.176436 1.006 171 160 149
0.0918487 -0.176436 1.006 154 143 132
0.093411 -0.176436 1.006 117 106 100
0.094879 -0.176261 1.005 115 104 98
0.0963438 -0.176085 1.004 119 106 105
0.097903 -0.176085 1.004 93 80 79
0.0993632 -0.17591 1.003 84 75 77
0.100921 -0.17591 1.003 101 92 94
0.102376 -0.175734 1.002 155 146 153
0.103933 -0.175734 1.002 161 152 159
0.105489 -0.175734 1.002 155 149 155
0.106938 -0.175559 1.001 150 144 150
0.108493 -0.175559 1.001 155 149 155
0.109937 -0.175384 1 151 145 151
0.11149 -0.175384 1 148 141 150
0.113043 -0.175384 1 149 142 151
0.114482 -0.175208 0.999 143 136 145
0.116033 -0.175208 0.999 149 142 151
0.117585 -0.175208 0.999 155 148 157
0.119136 -0.175208 0.999 148 141 150
0.120567 -0.175033 0.998 141 134 143
0.122117 -0.175033 0.998 144 137 146
0.123667 -0.175033 0.998 164 154 164
0.125217 -0.175033 0.998 160 150 160
0.12664 -0.174857 0.997 161 151 161
0.128188 -0.174857 0.997 160 150 160
0.129736 -0.174857 0.997 161 152 159
0.131285 -0.174857 0.997 160 151 158
0.132833 -0.174857 0.997 158 149 156
0.134381 -0.174857 0.997 159 150 157
0.13593 -0.174857 0.997 164 155 162
0.137478 -0.174857 0.997 164 155 162
0.139027 -0.174857 0.997 165 157 162
0.140575 -0.174857 0.997 167 159 164
0.142123 -0.174857 0.997 175 168 170
0.143672 -0.174857 0.997 180 173 175
0.14522 -0.174857 0.997 181 174 176
0.146768 -0.174857 0.997 187 180 182
0.148317 -0.174857 0.997 197 188 189
0.149865 -0.174857 0.997 207 198 199
0.151414 -0.174857 0.997 211 202 203
0.152962 -0.174857 0.997 217 208 209
0.1542 -0.174507 0.995 231 221 219
0.155589 -0.174331 0.994 231 221 219
0.157133 -0.174331 0.994 236 226 224
0.158517 -0.174156 0.993 243 233 231
0.160059 -0.174156 0.993 239 231 229
0.161601 -0.174156 0.993 250 242 240
0.163143 -0.174156 0.993 255 253 248
0.164851 -0.174331 0.994 255 255 250
0.166395 -0.174331 0.994 255 255 250
0.168108 -0.174507 0.995 255 255 250
0.169824 -0.174682 0.996 255 255 249
0.17137 -0.174682 0.996 255 255 249
0.174639 -0.174857 0.997 235 232 222
0.176364 -0.175033 0.998 211 200 189
0.177914 -0.175033 0.998 181 170 159
0.179464 -0.175033 0.998 162 145 130
0.181195 -0.175208 0.999 188 171 156
0.182747 -0.175208 0.999 240 223 208
0.184483 -0.175384 1 238 221 206
0.186036 -0.175384 1 240 220 206
0.187777 -0.175559 1.001 231 211 197
0.189331 -0.175559 1.001 208 193 178
0.190886 -0.175559 1.001 208 193 178
0.19244 -0.175559 1.001 223 213 197
0.193995 -0.175559 1.001 255 254 238
0.195549 -0.175559 1.001 255 255 242
0.197104 -0.175559 1.001 255 255 242
0.198659 -0.175559 1.001 255 255 240
0.200213 -0.175559 1.001 255 255 240
0.201768 -0.175559 1.001 255 255 243
0.203526 -0.175734 1.002 255 255 243
0.205491 -0.176085 1.004 255 255 246
0.207256 -0.176261 1.005 255 255 246
0.209233 -0.176611 1.007 255 255 247
0.211215 -0.176962 1.009 251 251 240
0.213204 -0.177313 1.011 255 253 239
0.215412 -0.177839 1.014 247 243 229
0.217628 -0.178365 1.017 231 220 200
0.219639 -0.178716 1.019 226 215 195
0.221439 -0.178891 1.02 229 216 196
0.22346 -0.179242 1.022 232 219 199
0.225267 -0.179417 1.023 238 225 205
0.227078 -0.179593 1.024 243 230 210
0.228891 -0.179768 1.025 245 230 210
0.230708 -0.179944 1.026 246 231 211
0.234123 -0.180119 1.027 243 228 208
0.235947 -0.180294 1.028 241 226 206
0.237775 -0.18047 1.029 244 229 209
0.239606 -0.180645 1.03 245 230 210
0.241674 -0.180996 1.032 249 234 214
0.243512 -0.181171 1.033 253 238 218
0.245354 -0.181347 1.034 244 229 209
0.247437 -0.181697 1.036 237 222 202
0.249527 -0.182048 1.038 240 225 205
0.251623 -0.182399 1.04 240 225 205
0.253482 -0.182574 1.041 242 227 207
0.255343 -0.18275 1.042 243 228 208
0.257455 -0.1831 1.044 249 234 214
0.259573 -0.183451 1.046 248 234 217
0.261447 -0.183627 1.047 239 225 208
0.263324 -0.183802 1.048 214 200 183
0.265204 -0.183977 1.049 217 203 186
0.321874 -0.206777 1.179 20 21 6
0.324803 -0.207479 1.183 21 22 7
0.327745 -0.20818 1.187 28 31 16
0.329866 -0.208356 1.188 35 38 23
0.33199 -0.208531 1.189 30 40 21
0.336248 -0.208882 1.191 25 40 20
0.339233 -0.209583 1.195 26 41 21
0.341089 -0.209583 1.195 27 42 22
0.343232 -0.209759 1.196 27 42 22
0.345089 -0.209759 1.196 27 42 22
0.346657 -0.209583 1.195 25 40 20
0.348221 -0.209408 1.194 24 39 19
0.349782 -0.209233 1.193 24 39 19
0.35134 -0.209057 1.192 24 39 19
0.352302 -0.208531 1.189 24 39 19
0.353553 -0.20818 1.187 24 39 19
0.354798 -0.20783 1.185 24 39 19
0.356036 -0.207479 1.183 24 39 19
0.357571 -0.207303 1.182 24 39 19
0.358798 -0.206953 1.18 17 32 12
0.360325 -0.206777 1.179 16 31 11
0.361849 -0.206602 1.178 52 64 45
0.363061 -0.206251 1.176 15 27 8
0.364577 -0.206076 1.175 19 24 11
0.366402 -0.206076 1.175 19 24 11
0.366033 -0.204848 1.168 20 23 10
0.365958 -0.203796 1.162 49 52 39
0.362888 -0.200113 1.141 96 100 89
0.362742 -0.19906 1.135 86 90 79
0.362899 -0.198183 1.13 112 116 105
0.364654 -0.198183 1.13 110 110 110
0.366409 -0.198183 1.13 41 41 41
-0.165319 -0.205118 1.18 7 15 8
-0.163625 -0.205292 1.181 8 16 9
-0.161928 -0.205466 1.182 8 16 9
-0.160228 -0.205639 1.183 7 15 8
-0.158659 -0.205987 1.185 7 15 8
-0.156951 -0.206161 1.186 7 15 8
-0.155109 -0.206161 1.186 8 17 8
-0.153396 -0.206335 1.187 10 19 10
-0.151553 -0.206335 1.187 12 22 10
-0.149835 -0.206509 1.188 14 24 12
-0.148115 -0.206682 1.189 15 26 12
-0.146391 -0.206856 1.19 15 26 12
-0.144543 -0.206856 1.19 18 29 13
-0.142695 -0.206856 1.19 18 29 13
-0.140847 -0.206856 1.19 18 29 13
-0.138999 -0.206856 1.19 17 28 12
-0.137151 -0.206856 1.19 18 29 13
-0.135303 -0.206856 1.19 17 28 12
-0.133454 -0.206856 1.19 18 29 13
-0.131496 -0.206682 1.189 19 30 14
-0.12954 -0.206509 1.188 18 29 13
-0.127588 -0.206335 1.187 17 28 12
-0.125744 -0.206335 1.187 17 28 12
-0.123796 -0.206161 1.186 15 26 10
-0.121852 -0.205987 1.185 18 29 13
-0.119809 -0.205639 1.183 19 30 14
-0.118071 -0.205813 1.184 19 30 14
-0.116134 -0.205639 1.183 18 29 13
-0.1142 -0.205466 1.182 19 30 14
-0.112365 -0.205466 1.182 19 30 14
-0.110529 -0.205466 1.182 19 30 14
-0.108693 -0.205466 1.182 19 30 14
-0.106948 -0.205639 1.183 17 28 12
-0.1052 -0.205813 1.184 18 29 13
-0.103361 -0.205813 1.184 18 29 13
-0.101608 -0.205987 1.185 15 26 10
-0.0997675 -0.205987 1.185 15 26 10
-0.0979272 -0.205987 1.185 15 26 10
-0.0960868 -0.205987 1.185 15 26 10
-0.0942465 -0.205987 1.185 14 25 9
-0.0923282 -0.205813 1.184 15 26 10
-0.0904129 -0.205639 1.183 15 26 10
-0.0885757 -0.205639 1.183 15 26 12
-0.0866651 -0.205466 1.182 14 25 11
-0.0848295 -0.205466 1.182 15 26 12
-0.0829938 -0.205466 1.182 14 25 11
-0.0811581 -0.205466 1.182 15 26 12
-0.0792553 -0.205292 1.181 14 25 11
-0.0773556 -0.205118 1.18 14 25 11
-0.075523 -0.205118 1.18 14 25 11
-0.0736904 -0.205118 1.18 14 25 11
-0.0718579 -0.205118 1.18 13 24 10
-0.0699659 -0.204944 1.179 13 24 10
-0.0681349 -0.204944 1.179 12 23 9
-0.0662476 -0.20477 1.178 11 22 8
-0.0644182 -0.20477 1.178 11 22 8
-0.0625887 -0.20477 1.178 12 23 9
-0.0607592 -0.20477 1.178 13 24 10
-0.0589297 -0.20477 1.178 13 24 10
-0.0570518 -0.204596 1.177 11 22 8
-0.0552239 -0.204596 1.177 11 22 8
-0.053396 -0.204596 1.177 11 22 8
-0.051568 -0.204596 1.177 11 22 8
-0.0497401 -0.204596 1.177 11 22 8
-0.0479122 -0.204596 1.177 11 22 8
-0.0461234 -0.20477 1.178 8 19 5
-0.044294 -0.20477 1.178 10 21 7
-0.0425005 -0.204944 1.179 10 21 7
-0.040704 -0.205118 1.18 10 20 8
-0.0388714 -0.205118 1.18 10 20 8
-0.0370388 -0.205118 1.18 10 20 8
-0.0352063 -0.205118 1.18 10 20 8
-0.033402 -0.205292 1.181 11 21 9
-0.0315678 -0.205292 1.181 11 21 9
-0.0297337 -0.205292 1.181 9 22 9
-0.0278996 -0.205292 1.181 8 21 8
-0.0260654 -0.205292 1.181 8 21 8
-0.0242313 -0.205292 1.181 8 21 8
-0.0223592 -0.204944 1.179 8 21 8
-0.0205108 -0.20477 1.178 9 22 9
-0.0186655 -0.204596 1.177 8 21 8
-0.0167946 -0.204075 1.174 8 21 8
-0.0149331 -0.203553 1.171 8 21 8
-0.0130809 -0.203032 1.168 8 21 8
-0.0111994 -0.201815 1.161 6 19 6
-0.00937208 -0.201294 1.158 5 18 5
-0.00756712 -0.20112 1.157 5 18 5
-0.00576029 -0.200772 1.155 6 19 6
-0.0039631 -0.200598 1.154 6 19 6
-0.00216902 -0.200425 1.153 5 18 5
-0.000378371 -0.200425 1.153 5 11 4
0.00140983 -0.200077 1.151 0 5 0
0.00792785 -0.185301 1.066 84 84 85
0.00956541 -0.184954 1.064 87 86 90
0.0111967 -0.184606 1.062 73 72 76
0.0128219 -0.184258 1.06 81 77 83
0.0144408 -0.183911 1.058 100 96 102
0.0160383 -0.183389 1.055 106 102 108
0.0176767 -0.183389 1.055 90 86 92
0.0192603 -0.182868 1.052 89 85 91
0.0208543 -0.18252 1.05 95 91 97
0.0224208 -0.181999 1.047 96 92 98
0.0240238 -0.181825 1.046 97 93 99
0.0255748 -0.181303 1.043 97 94 98
0.0270642 -0.180434 1.038 98 95 99
0.028621 -0.180087 1.036 102 97 101
0.0301716 -0.179739 1.034 91 86 90
0.031716 -0.179391 1.032 90 83 85
0.0332541 -0.179044 1.03 93 86 88
0.0348199 -0.17887 1.029 92 85 87
0.0363472 -0.178522 1.027 90 83 85
0.0379052 -0.178348 1.026 90 83 85
0.0393831 -0.177827 1.023 92 85 87
0.0409318 -0.177653 1.022 96 89 90
0.0424774 -0.177479 1.021 90 83 84
0.0440199 -0.177305 1.02 92 85 86
0.0455593 -0.177131 1.019 96 89 90
0.0470493 -0.176784 1.017 99 92 93
0.0485809 -0.17661 1.016 101 94 95
0.0501095 -0.176436 1.015 106 97 98
0.0515839 -0.176088 1.013 110 101 102
0.0531047 -0.175915 1.012 105 96 97
0.0546223 -0.175741 1.011 106 97 98
0.0561369 -0.175567 1.01 105 97 95
0.0577054 -0.175567 1.01 112 104 102
0.0592153 -0.175393 1.009 113 105 103
0.0607823 -0.175393 1.009 115 107 105
0.0622875 -0.175219 1.008 117 109 107
0.0637897 -0.175046 1.007 116 108 106
0.0653536 -0.175046 1.007 116 108 106
0.066851 -0.174872 1.006 116 108 106
0.0684134 -0.174872 1.006 117 110 105
0.0699062 -0.174698 1.005 119 112 107
0.071467 -0.174698 1.005 125 118 113
0.0730278 -0.174698 1.005 126 119 114
0.0745143 -0.174524 1.004 101 92 87
0.0760736 -0.174524 1.004 84 75 70
0.0776328 -0.174524 1.004 90 82 75
0.079271 -0.174698 1.005 91 83 76
0.0808318 -0.174698 1.005 98 89 78
0.0823926 -0.174698 1.005 158 149 138
0.0840369 -0.174872 1.006 159 148 135
0.0855992 -0.174872 1.006 159 148 135
0.0871616 -0.174872 1.006 157 146 133
0.0887239 -0.174872 1.006 163 152 139
0.0902863 -0.174872 1.006 165 154 143
0.0918487 -0.174872 1.006 157 146 135
0.0933182 -0.174698 1.005 130 119 113
0.094879 -0.174698 1.005 120 109 103
0.0963438 -0.174524 1.004 101 91 89
0.097903 -0.174524 1.004 86 76 74
0.0994623 -0.174524 1.004 97 88 90
0.100921 -0.17435 1.003 154 145 147
0.102479 -0.17435 1.003 159 154 158
0.103933 -0.174176 1.002 159 154 158
0.105489 -0.174176 1.002 151 146 150
0.106938 -0.174003 1.001 148 143 147
0.108493 -0.174003 1.001 151 145 151
0.110047 -0.174003 1.001 153 147 153
0.11149 -0.173829 1 150 144 150
0.113043 -0.173829 1 149 143 149
0.114596 -0.173829 1 147 140 149
0.116033 -0.173655 0.999 146 139 148
0.117585 -0.173655 0.999 146 139 148
0.119136 -0.173655 0.999 146 139 148
0.120688 -0.173655 0.999 143 136 145
0.122239 -0.173655 0.999 151 144 153
0.123667 -0.173481 0.998 164 154 164
0.125217 -0.173481 0.998 158 148 158
0.126767 -0.173481 0.998 160 150 160
0.128317 -0.173481 0.998 159 149 159
0.129736 -0.173307 0.997 161 152 159
0.131285 -0.173307 0.997 163 154 161
0.132833 -0.173307 0.997 159 150 157
0.134381 -0.173307 0.997 159 150 157
0.13593 -0.173307 0.997 166 157 164
0.137478 -0.173307 0.997 170 161 168
0.139027 -0.173307 0.997 172 164 169
0.140575 -0.173307 0.997 181 173 178
0.142123 -0.173307 0.997 187 180 182
0.143672 -0.173307 0.997 186 179 181
0.14522 -0.173307 0.997 185 178 180
0.146768 -0.173307 0.997 193 186 188
0.148317 -0.173307 0.997 204 195 196
0.149865 -0.173307 0.997 217 208 209
0.151414 -0.173307 0.997 217 208 209
0.152655 -0.17296 0.995 214 205 206
0.1542 -0.17296 0.995 225 215 213
0.155589 -0.172786 0.994 228 218 216
0.157133 -0.172786 0.994 238 229 224
0.158677 -0.172786 0.994 247 238 233
0.16022 -0.172786 0.994 250 243 238
0.161764 -0.172786 0.994 252 245 240
0.163308 -0.172786 0.994 255 255 250
0.164851 -0.172786 0.994 255 255 250
0.166563 -0.17296 0.995 255 255 250
0.168108 -0.17296 0.995 255 255 250
0.169824 -0.173133 0.996 255 255 250
0.17137 -0.173133 0.996 255 255 250
0.174639 -0.173307 0.997 255 255 249
0.176364 -0.173481 0.998 255 252 242
0.177914 -0.173481 0.998 190 183 173
0.179644 -0.173655 0.999 161 148 133
0.181195 -0.173655 0.999 163 150 135
0.18293 -0.173829 1 223 207 190
0.184483 -0.173829 1 245 229 212
0.186222 -0.174003 1.001 242 223 207
0.187777 -0.174003 1.001 235 216 200
0.189331 -0.174003 1.001 208 194 177
0.191076 -0.174176 1.002 210 196 179
0.192633 -0.174176 1.002 223 213 197
0.194189 -0.174176 1.002 255 255 240
0.195745 -0.174176 1.002 255 255 242
0.197301 -0.174176 1.002 255 255 242
0.198857 -0.174176 1.002 255 255 240
0.200413 -0.174176 1.002 255 255 241
0.201969 -0.174176 1.002 255 255 243
0.203526 -0.174176 1.002 255 255 244
0.205491 -0.174524 1.004 255 255 246
0.207256 -0.174698 1.005 255 255 246
0.209233 -0.175046 1.007 255 255 246
0.211215 -0.175393 1.009 255 255 246
0.213204 -0.175741 1.011 255 255 246
0.215412 -0.176262 1.014 255 255 245
0.217628 -0.176784 1.017 247 240 222
0.219639 -0.177131 1.019 226 219 201
0.221656 -0.177479 1.021 234 221 201
0.22346 -0.177653 1.022 236 223 203
0.225267 -0.177827 1.023 244 232 210
0.227078 -0.178001 1.024 250 238 216
0.229115 -0.178348 1.026 251 237 215
0.232528 -0.178522 1.027 245 231 209
0.234123 -0.178522 1.027 245 231 209
0.235947 -0.178696 1.028 244 229 209
0.237775 -0.17887 1.029 246 231 211
0.239606 -0.179044 1.03 249 234 214
0.24144 -0.179217 1.031 249 234 214
0.243512 -0.179565 1.033 250 235 215
0.245591 -0.179913 1.035 250 235 215
0.247437 -0.180087 1.036 244 229 209
0.249527 -0.180434 1.038 237 222 202
0.251623 -0.180782 1.04 241 226 206
0.253482 -0.180956 1.041 242 227 207
0.255588 -0.181303 1.043 240 227 207
0.257701 -0.181651 1.045 248 235 215
0.259821 -0.181999 1.047 245 230 210
0.264078 -0.182694 1.051 211 198 178
0.325627 -0.206161 1.186 31 32 17
0.330144 -0.206682 1.189 32 37 22
0.33199 -0.206682 1.189 30 39 23
0.333837 -0.206682 1.189 30 39 23
0.335966 -0.206856 1.19 26 41 21
0.338381 -0.207204 1.192 27 42 22
0.340518 -0.207378 1.193 27 42 22
0.342084 -0.207204 1.192 27 42 22
0.343935 -0.207204 1.192 26 41 21
0.345496 -0.20703 1.191 25 40 20
0.347054 -0.206856 1.19 25 40 20
0.348609 -0.206682 1.189 25 40 20
0.350161 -0.206509 1.188 24 39 19
0.351413 -0.206161 1.186 25 40 20
0.352957 -0.205987 1.185 24 39 19
0.354199 -0.205639 1.183 24 39 19
0.355735 -0.205466 1.182 25 40 20
0.356966 -0.205118 1.18 25 40 20
0.358494 -0.204944 1.179 19 31 12
0.36002 -0.20477 1.178 18 30 11
0.361542 -0.204596 1.177 56 66 47
0.362753 -0.204249 1.175 20 30 11
0.364577 -0.204249 1.175 24 27 12
0.36609 -0.204075 1.174 21 24 9
0.366033 -0.203032 1.168 19 22 9
0.365643 -0.201815 1.161 49 52 39
0.363206 -0.198512 1.142 87 92 79
0.363062 -0.197469 1.136 91 95 84
0.363221 -0.1966 1.131 121 125 114
0.364654 -0.196426 1.13 111 115 114
0.366733 -0.1966 1.131 36 40 39
-0.165319 -0.203283 1.18 8 16 9
-0.163625 -0.203455 1.181 8 16 9
-0.161928 -0.203628 1.182 8 16 9
-0.160363 -0.203972 1.184 8 16 9
-0.158659 -0.204144 1.185 8 17 8
-0.156951 -0.204317 1.186 8 17 8
-0.155239 -0.204489 1.187 8 18 6
-0.153396 -0.204489 1.187 10 20 8
-0.15168 -0.204661 1.188 11 21 9
-0.149835 -0.204661 1.188 13 23 11
-0.148115 -0.204834 1.189 14 25 11
-0.146391 -0.205006 1.19 17 28 14
-0.144543 -0.205006 1.19 18 29 13
-0.142695 -0.205006 1.19 19 30 14
-0.140847 -0.205006 1.19 17 28 12
-0.138999 -0.205006 1.19 18 29 13
-0.137151 -0.205006 1.19 18 29 13
-0.135303 -0.205006 1.19 18 29 13
-0.133342 -0.204834 1.189 17 28 12
-0.131385 -0.204661 1.188 18 29 13
-0.129431 -0.204489 1.187 18 29 13
-0.127588 -0.204489 1.187 18 29 13
-0.125744 -0.204489 1.187 18 29 13
-0.123796 -0.204317 1.186 17 28 12
-0.121852 -0.204144 1.185 15 26 10
-0.120011 -0.204144 1.185 15 26 10
-0.118071 -0.203972 1.184 17 28 12
-0.116232 -0.203972 1.184 17 28 12
-0.114297 -0.2038 1.183 19 30 14
-0.11246 -0.2038 1.183 19 30 14
-0.110623 -0.2038 1.183 15 26 10
-0.108785 -0.2038 1.183 15 26 10
-0.107038 -0.203972 1.184 15 26 10
-0.105289 -0.204144 1.185 15 26 10
-0.103448 -0.204144 1.185 17 28 12
-0.101608 -0.204144 1.185 15 26 10
-0.0997675 -0.204144 1.185 14 25 11
-0.0979272 -0.204144 1.185 15 26 12
-0.0960868 -0.204144 1.185 15 26 12
-0.0942465 -0.204144 1.185 14 25 11
-0.0923282 -0.203972 1.184 15 26 12
-0.0904129 -0.2038 1.183 14 25 11
-0.0885757 -0.2038 1.183 14 25 11
-0.0866651 -0.203628 1.182 14 25 11
-0.0848295 -0.203628 1.182 15 26 12
-0.0829938 -0.203628 1.182 13 24 10
-0.0810894 -0.203455 1.181 17 28 14
-0.0792553 -0.203455 1.181 14 25 11
-0.0773556 -0.203283 1.18 13 24 10
-0.075523 -0.203283 1.18 13 24 10
-0.073628 -0.203111 1.179 14 25 11
-0.071797 -0.203111 1.179 14 25 11
-0.0699066 -0.202939 1.178 13 24 10
-0.0680771 -0.202939 1.178 13 24 10
-0.0662476 -0.202939 1.178 12 23 9
-0.0644182 -0.202939 1.178 12 23 9
-0.0625356 -0.202766 1.177 12 23 9
-0.0607076 -0.202766 1.177 13 24 10
-0.0588797 -0.202766 1.177 13 24 10
-0.0570033 -0.202594 1.176 13 24 10
-0.055177 -0.202594 1.176 13 24 10
-0.0533506 -0.202594 1.176 12 23 9
-0.0515242 -0.202594 1.176 12 23 9
-0.0496979 -0.202594 1.176 11 22 8
-0.0479122 -0.202766 1.177 11 22 8
-0.0461234 -0.202939 1.178 8 19 5
-0.044294 -0.202939 1.178 10 21 7
-0.0425005 -0.203111 1.179 10 21 7
-0.040704 -0.203283 1.18 10 21 7
-0.0388714 -0.203283 1.18 10 21 7
-0.0370702 -0.203455 1.181 11 21 9
-0.0352063 -0.203283 1.18 12 22 10
-0.033402 -0.203455 1.181 10 23 10
-0.0315678 -0.203455 1.181 8 21 8
-0.0297589 -0.203628 1.182 8 21 8
-0.0279232 -0.203628 1.182 8 21 8
-0.0260654 -0.203455 1.181 8 21 8
-0.0242313 -0.203455 1.181 8 21 8
-0.0223782 -0.203283 1.18 8 21 8
-0.0205108 -0.202939 1.178 8 21 8
-0.0186496 -0.202594 1.176 9 22 9
-0.0167803 -0.202077 1.173 8 21 8
-0.0149203 -0.20156 1.17 8 21 8
-0.0130585 -0.200871 1.166 8 21 8
-0.0111705 -0.199493 1.158 6 19 6
-0.0093478 -0.198976 1.155 6 19 6
-0.00753442 -0.198459 1.152 6 19 6
-0.00574034 -0.198287 1.151 6 19 6
-0.00394593 -0.197943 1.149 5 17 7
-0.00215773 -0.197598 1.147 0 11 1
-0.000376402 -0.197598 1.147 0 5 1
0.00140125 -0.197081 1.144 3 8 4
0.00311959 -0.193464 1.123 40 40 40
0.00635469 -0.186056 1.08 81 81 82
0.00792041 -0.183472 1.065 91 91 92
0.00956541 -0.183299 1.064 89 88 92
0.0111967 -0.182955 1.062 79 78 82
0.012834 -0.182783 1.061 95 92 96
0.0144271 -0.182093 1.057 106 103 107
0.0160535 -0.181921 1.056 106 103 107
0.0176432 -0.181404 1.053 97 94 98
0.0192603 -0.181232 1.052 91 88 92
0.0208345 -0.180715 1.049 95 92 96
0.0224208 -0.180371 1.047 95 92 96
0.0239779 -0.179854 1.044 98 95 99
0.0255502 -0.179509 1.042 100 94 100
0.0270381 -0.178648 1.037 100 94 100
0.0285934 -0.178303 1.035 102 97 101
0.0301424 -0.177959 1.033 94 89 93
0.0316852 -0.177614 1.031 92 84 89
0.0332541 -0.177442 1.03 87 79 84
0.0347861 -0.177097 1.028 87 80 82
0.0363472 -0.176925 1.027 89 82 84
0.0378313 -0.176408 1.024 82 75 77
0.0393831 -0.176236 1.023 93 86 88
0.0409318 -0.176064 1.022 102 95 97
0.0424358 -0.175719 1.02 97 90 92
0.0439768 -0.175547 1.019 81 74 75
0.0455146 -0.175375 1.018 65 58 59
0.0470031 -0.17503 1.016 65 58 59
0.0485331 -0.174858 1.015 86 79 80
0.0500107 -0.174513 1.013 108 99 100
0.051533 -0.174341 1.012 110 101 102
0.0530522 -0.174169 1.011 105 96 97
0.0545683 -0.173997 1.01 99 90 91
0.0561369 -0.173997 1.01 106 98 96
0.0576483 -0.173824 1.009 113 105 103
0.0592153 -0.173824 1.009 110 102 100
0.0607221 -0.173652 1.008 111 103 101
0.0622258 -0.17348 1.007 116 108 106
0.0637897 -0.17348 1.007 116 108 106
0.0652887 -0.173307 1.006 115 107 105
0.066851 -0.173307 1.006 113 105 103
0.0683454 -0.173135 1.005 115 106 101
0.0699062 -0.173135 1.005 119 110 105
0.071467 -0.173135 1.005 119 110 105
0.0729551 -0.172963 1.004 91 82 77
0.0745143 -0.172963 1.004 83 71 67
0.0760736 -0.172963 1.004 88 76 72
0.0776328 -0.172963 1.004 93 82 76
0.0791921 -0.172963 1.004 103 92 86
0.0808318 -0.173135 1.005 151 141 132
0.0823926 -0.173135 1.005 157 147 138
0.0840369 -0.173307 1.006 145 136 125
0.0855992 -0.173307 1.006 142 133 122
0.0871616 -0.173307 1.006 147 138 127
0.0887239 -0.173307 1.006 152 143 132
0.0902863 -0.173307 1.006 157 147 138
0.0918487 -0.173307 1.006 157 147 138
0.0933182 -0.173135 1.005 145 131 127
0.094879 -0.173135 1.005 118 104 100
0.0963438 -0.172963 1.004 85 72 71
0.097903 -0.172963 1.004 85 72 71
0.0993632 -0.172791 1.003 109 99 104
0.100921 -0.172791 1.003 170 160 165
0.102479 -0.172791 1.003 163 158 162
0.103933 -0.172618 1.002 158 153 157
0.105489 -0.172618 1.002 151 146 150
0.106938 -0.172446 1.001 151 146 150
0.108493 -0.172446 1.001 151 145 151
0.110047 -0.172446 1.001 153 147 153
0.111602 -0.172446 1.001 151 145 151
0.113043 -0.172274 1 149 143 149
0.114596 -0.172274 1 147 140 149
0.116149 -0.172274 1 147 140 149
0.117702 -0.172274 1 147 140 149
0.119136 -0.172102 0.999 147 140 149
0.120688 -0.172102 0.999 143 136 145
0.122239 -0.172102 0.999 151 144 153
0.123791 -0.172102 0.999 163 153 163
0.125217 -0.171929 0.998 159 149 159
0.126767 -0.171929 0.998 160 150 160
0.128317 -0.171929 0.998 160 150 160
0.129866 -0.171929 0.998 165 155 165
0.131285 -0.171757 0.997 164 154 164
0.132833 -0.171757 0.997 165 156 163
0.134381 -0.171757 0.997 164 155 162
0.135793 -0.171585 0.996 165 156 163
0.13734 -0.171585 0.996 165 156 163
0.139027 -0.171757 0.997 174 166 171
0.140575 -0.171757 0.997 189 181 186
0.142123 -0.171757 0.997 189 182 184
0.143528 -0.171585 0.996 186 179 181
0.145074 -0.171585 0.996 191 184 185
0.146621 -0.171585 0.996 200 193 194
0.148317 -0.171757 0.997 207 198 199
0.149715 -0.171585 0.996 215 206 207
0.151414 -0.171757 0.997 219 211 209
0.152655 -0.171412 0.995 226 218 216
0.154045 -0.17124 0.994 232 225 220
0.155589 -0.17124 0.994 237 230 225
0.157133 -0.17124 0.994 244 237 232
0.158677 -0.17124 0.994 252 245 240
0.16022 -0.17124 0.994 255 253 247
0.161764 -0.17124 0.994 255 255 250
0.163308 -0.17124 0.994 255 255 250
0.164851 -0.17124 0.994 255 255 250
0.166563 -0.171412 0.995 254 255 250
0.168108 -0.171412 0.995 254 255 250
0.169824 -0.171585 0.996 254 255 250
0.173091 -0.171757 0.997 255 255 249
0.174639 -0.171757 0.997 255 255 249
0.176364 -0.171929 0.998 255 255 247
0.178092 -0.172102 0.999 252 249 239
0.179644 -0.172102 0.999 194 183 170
0.181377 -0.172274 1 200 189 176
0.18293 -0.172274 1 253 233 219
0.184667 -0.172446 1.001 250 230 216
0.186222 -0.172446 1.001 241 220 204
0.187964 -0.172618 1.002 223 202 186
0.18952 -0.172618 1.002 212 196 179
0.191076 -0.172618 1.002 210 194 177
0.192825 -0.172791 1.003 227 217 201
0.194382 -0.172791 1.003 255 255 241
0.19594 -0.172791 1.003 255 255 242
0.197498 -0.172791 1.003 255 255 241
0.199056 -0.172791 1.003 255 255 240
0.200613 -0.172791 1.003 255 255 241
0.202171 -0.172791 1.003 255 255 245
0.203729 -0.172791 1.003 255 255 246
0.205491 -0.172963 1.004 255 255 247
0.207463 -0.173307 1.006 255 255 247
0.209233 -0.17348 1.007 254 255 247
0.211215 -0.173824 1.009 253 255 246
0.213204 -0.174169 1.011 255 255 247
0.215412 -0.174686 1.014 255 255 247
0.217842 -0.175375 1.018 255 255 241
0.219854 -0.175719 1.02 241 236 219
0.221656 -0.175892 1.021 239 228 208
0.22346 -0.176064 1.022 245 234 214
0.225488 -0.176408 1.024 251 236 216
0.2273 -0.176581 1.025 252 237 217
0.229115 -0.176753 1.026 253 238 218
0.232528 -0.176925 1.027 246 231 211
0.234351 -0.177097 1.028 245 230 210
0.235947 -0.177097 1.028 241 226 206
0.237775 -0.17727 1.029 245 230 210
0.239606 -0.177442 1.03 250 235 215
0.24144 -0.177614 1.031 250 235 215
0.243512 -0.177959 1.033 249 234 214
0.245354 -0.178131 1.034 253 238 218
0.247437 -0.178476 1.036 251 236 216
0.249527 -0.17882 1.038 242 227 207
0.251865 -0.179337 1.041 243 228 208
0.253725 -0.179509 1.042 243 228 208
0.255588 -0.179682 1.043 244 229 209
0.257948 -0.180198 1.046 246 231 211
0.260069 -0.180543 1.048 216 200 183
0.262695 -0.181232 1.052 213 197 180
0.26458 -0.181404 1.053 215 203 186
0.328849 -0.205178 1.191 29 38 22
0.330977 -0.20535 1.192 29 38 22
0.332828 -0.20535 1.192 27 38 22
0.334398 -0.205178 1.191 28 39 23
0.335966 -0.205006 1.19 26 41 21
0.337814 -0.205006 1.19 27 42 22
0.339662 -0.205006 1.19 27 42 22
0.341223 -0.204834 1.189 26 41 21
0.342781 -0.204661 1.188 25 40 20
0.344336 -0.204489 1.187 25 40 20
0.346179 -0.204489 1.187 25 40 20
0.34773 -0.204317 1.186 25 40 20
0.349277 -0.204144 1.185 24 39 19
0.350821 -0.203972 1.184 25 40 20
0.352362 -0.2038 1.183 26 41 21
0.3539 -0.203628 1.182 25 40 20
0.355133 -0.203283 1.18 26 41 21
0.356663 -0.203111 1.179 25 40 20
0.35819 -0.202939 1.178 18 29 13
0.359714 -0.202766 1.177 20 31 15
0.361235 -0.202594 1.176 59 68 52
0.362753 -0.202422 1.175 21 30 14
0.363957 -0.202077 1.173 27 30 17
0.365779 -0.202077 1.173 22 25 12
0.365407 -0.200871 1.166 21 22 9
0.363438 -0.198804 1.154 62 63 50
0.363206 -0.196737 1.142 83 86 73
0.363062 -0.195703 1.136 97 100 92
0.363542 -0.195014 1.132 121 124 116
0.364654 -0.194669 1.13 113 117 116
0.366733 -0.194842 1.131 35 39 38
-0.165319 -0.201448 1.18 7 15 8
-0.163625 -0.201619 1.181 8 16 9
-0.161928 -0.20179 1.182 8 16 9
-0.160363 -0.202131 1.184 8 16 9
-0.158659 -0.202302 1.185 10 19 10
-0.156951 -0.202473 1.186 11 20 11
-0.155239 -0.202643 1.187 11 21 9
-0.153396 -0.202643 1.187 11 21 9
-0.151553 -0.202643 1.187 12 22 10
-0.149835 -0.202814 1.188 14 24 12
-0.14799 -0.202814 1.188 13 24 10
-0.146268 -0.202985 1.189 18 29 15
-0.144543 -0.203156 1.19 18 29 13
-0.142575 -0.202985 1.189 20 31 15
-0.140847 -0.203156 1.19 20 31 15
-0.138882 -0.202985 1.189 20 31 15
-0.137035 -0.202985 1.189 19 30 14
-0.135075 -0.202814 1.188 19 30 14
-0.13323 -0.202814 1.188 17 28 12
-0.131275 -0.202643 1.187 18 29 13
-0.129431 -0.202643 1.187 18 29 13
-0.127588 -0.202643 1.187 19 30 14
-0.125744 -0.202643 1.187 19 30 14
-0.123796 -0.202473 1.186 18 29 13
-0.121954 -0.202473 1.186 17 28 12
-0.120113 -0.202473 1.186 15 26 10
-0.118171 -0.202302 1.185 15 26 10
-0.116331 -0.202302 1.185 15 26 10
-0.114394 -0.202131 1.184 19 30 14
-0.112555 -0.202131 1.184 19 30 14
-0.110716 -0.202131 1.184 15 26 10
-0.108969 -0.202302 1.185 19 30 14
-0.107129 -0.202302 1.185 18 29 13
-0.105289 -0.202302 1.185 18 29 13
-0.103448 -0.202302 1.185 17 28 12
-0.101608 -0.202302 1.185 17 28 12
-0.0997675 -0.202302 1.185 15 26 12
-0.0979272 -0.202302 1.185 14 25 11
-0.0960868 -0.202302 1.185 15 26 12
-0.0942465 -0.202302 1.185 15 26 12
-0.0923282 -0.202131 1.184 15 26 10
-0.0904129 -0.201961 1.183 14 25 9
-0.0885757 -0.201961 1.183 14 25 11
-0.0866651 -0.20179 1.182 14 25 11
-0.0848295 -0.20179 1.182 14 25 11
-0.0829938 -0.20179 1.182 13 24 10
-0.0810894 -0.201619 1.181 17 28 14
-0.0792553 -0.201619 1.181 13 24 10
-0.0773556 -0.201448 1.18 13 24 10
-0.075459 -0.201278 1.179 13 24 10
-0.0736904 -0.201448 1.18 13 24 10
-0.0717361 -0.201107 1.178 13 24 10
-0.0699066 -0.201107 1.178 13 24 10
-0.0680771 -0.201107 1.178 14 25 11
-0.0661914 -0.200936 1.177 13 24 10
-0.0643635 -0.200936 1.177 13 24 10
-0.0624824 -0.200765 1.176 12 23 9
-0.0606045 -0.200595 1.175 11 22 8
-0.0587797 -0.200595 1.175 13 24 10
-0.0569549 -0.200595 1.175 13 24 10
-0.05513 -0.200595 1.175 13 24 10
-0.0533052 -0.200595 1.175 12 23 9
-0.0514804 -0.200595 1.175 12 23 9
-0.0496979 -0.200765 1.176 11 22 8
-0.0479122 -0.200936 1.177 11 22 8
-0.0461234 -0.201107 1.178 8 19 5
-0.044294 -0.201107 1.178 11 22 8
-0.0425005 -0.201278 1.179 11 22 8
-0.040704 -0.201448 1.18 10 21 7
-0.0388714 -0.201448 1.18 10 21 7
-0.0370702 -0.201619 1.181 11 22 8
-0.0352361 -0.201619 1.181 12 23 9
-0.033402 -0.201619 1.181 11 22 8
-0.0315678 -0.201619 1.181 10 21 7
-0.0297589 -0.20179 1.182 10 20 8
-0.0278996 -0.201619 1.181 10 20 8
-0.0260654 -0.201619 1.181 8 21 8
-0.0242108 -0.201448 1.18 8 21 8
-0.0223782 -0.201448 1.18 8 21 8
-0.0205108 -0.201107 1.178 8 21 8
-0.0186337 -0.200595 1.175 8 21 8
-0.0167517 -0.199912 1.171 9 22 9
-0.0148948 -0.1994 1.168 8 21 8
-0.0129913 -0.198034 1.16 8 21 8
-0.0111416 -0.19718 1.155 6 19 6
-0.00931543 -0.196498 1.151 6 19 6
-0.0075148 -0.196156 1.149 6 19 6
-0.00572039 -0.195815 1.147 8 21 8
-0.00393219 -0.195473 1.145 8 17 8
-0.00215209 -0.195302 1.144 0 9 0
-0.000374761 -0.194961 1.142 5 5 5
0.0013939 -0.194278 1.138 58 58 58
0.0063135 -0.183181 1.073 75 75 76
0.00792785 -0.181986 1.066 89 89 90
0.00956541 -0.181645 1.064 88 85 89
0.0111967 -0.181304 1.062 83 80 84
0.012834 -0.181133 1.061 102 99 103
0.0144271 -0.18045 1.057 110 107 111
0.0160535 -0.180279 1.056 109 106 110
0.0176432 -0.179767 1.053 104 101 105
0.019242 -0.179426 1.051 104 101 105
0.0208146 -0.178913 1.048 99 96 100
0.0223994 -0.178572 1.046 98 94 100
0.0239549 -0.17806 1.043 99 95 101
0.0254522 -0.177206 1.038 98 94 100
0.0270121 -0.176865 1.036 98 94 100
0.0285658 -0.176523 1.034 104 96 101
0.0301132 -0.176182 1.032 101 93 98
0.0316545 -0.175841 1.03 88 80 85
0.0332218 -0.17567 1.029 82 74 79
0.0347861 -0.175499 1.028 88 81 83
0.0363118 -0.175158 1.026 89 82 84
0.0378313 -0.174816 1.024 92 85 87
0.0393831 -0.174645 1.023 101 94 96
0.0408918 -0.174304 1.021 102 95 96
0.0424358 -0.174133 1.02 103 96 97
0.0439336 -0.173792 1.018 85 78 79
0.0454699 -0.173621 1.017 47 40 41
0.0469568 -0.17328 1.015 55 46 47
0.0484375 -0.172938 1.013 62 53 54
0.0499614 -0.172768 1.012 97 88 89
0.0514821 -0.172597 1.011 111 102 103
0.0529997 -0.172426 1.01 104 96 94
0.0545143 -0.172255 1.009 101 93 91
0.0560813 -0.172255 1.009 115 107 105
0.0576483 -0.172255 1.009 123 115 113
0.0591566 -0.172085 1.008 110 102 100
0.0607221 -0.172085 1.008 111 103 101
0.0622258 -0.171914 1.007 116 108 106
0.0637897 -0.171914 1.007 116 108 106
0.0652887 -0.171743 1.006 115 107 105
0.0667846 -0.171573 1.005 113 105 103
0.0683454 -0.171573 1.005 114 105 100
0.0698366 -0.171402 1.004 118 109 104
0.0713959 -0.171402 1.004 112 100 96
0.0729551 -0.171402 1.004 88 76 72
0.0745143 -0.171402 1.004 91 82 77
0.0760736 -0.171402 1.004 86 77 72
0.0776328 -0.171402 1.004 93 83 74
0.0791921 -0.171402 1.004 145 135 126
0.0808318 -0.171573 1.005 155 145 136
0.0823926 -0.171573 1.005 148 138 129
0.0839534 -0.171573 1.005 143 134 123
0.0855992 -0.171743 1.006 138 129 118
0.0871616 -0.171743 1.006 145 136 125
0.0887239 -0.171743 1.006 151 142 131
0.0902863 -0.171743 1.006 156 146 137
0.0917574 -0.171573 1.005 159 149 140
0.0933182 -0.171573 1.005 139 123 118
0.0947845 -0.171402 1.004 81 65 60
0.0963438 -0.171402 1.004 70 61 56
0.097903 -0.171402 1.004 84 75 70
0.0993632 -0.171231 1.003 160 153 155
0.100921 -0.171231 1.003 177 170 172
0.102376 -0.17106 1.002 163 159 160
0.103933 -0.17106 1.002 158 154 155
0.105489 -0.17106 1.002 155 150 154
0.106938 -0.17089 1.001 150 145 149
0.108493 -0.17089 1.001 153 147 153
0.110047 -0.17089 1.001 153 147 153
0.111602 -0.17089 1.001 151 145 151
0.113156 -0.17089 1.001 144 138 144
0.114596 -0.170719 1 148 141 150
0.116149 -0.170719 1 149 142 151
0.117702 -0.170719 1 149 142 151
0.119255 -0.170719 1 147 140 149
0.120688 -0.170548 0.999 144 137 146
0.122239 -0.170548 0.999 148 141 150
0.123791 -0.170548 0.999 158 148 158
0.125217 -0.170378 0.998 164 154 164
0.126767 -0.170378 0.998 164 155 162
0.128317 -0.170378 0.998 161 152 159
0.129736 -0.170207 0.997 161 152 159
0.131285 -0.170207 0.997 157 148 155
0.132833 -0.170207 0.997 164 155 162
0.134247 -0.170036 0.996 167 158 165
0.135793 -0.170036 0.996 165 156 163
0.13734 -0.170036 0.996 165 156 163
0.138887 -0.170036 0.996 181 173 178
0.140434 -0.170036 0.996 192 184 189
0.142123 -0.170207 0.997 186 179 181
0.143528 -0.170036 0.996 184 177 179
0.145074 -0.170036 0.996 191 182 183
0.146621 -0.170036 0.996 203 194 195
0.148168 -0.170036 0.996 208 199 200
0.149715 -0.170036 0.996 214 205 206
0.151262 -0.170036 0.996 224 216 214
0.152655 -0.169865 0.995 234 226 224
0.154045 -0.169695 0.994 241 234 229
0.155589 -0.169695 0.994 241 234 229
0.157133 -0.169695 0.994 250 243 238
0.158836 -0.169865 0.995 255 250 245
0.16022 -0.169695 0.994 255 255 250
0.161927 -0.169865 0.995 255 255 250
0.163472 -0.169865 0.995 254 255 250
0.165017 -0.169865 0.995 254 255 250
0.166563 -0.169865 0.995 254 255 250
0.168277 -0.170036 0.996 254 255 250
0.171542 -0.170207 0.997 254 255 250
0.173091 -0.170207 0.997 254 255 250
0.174639 -0.170207 0.997 254 255 250
0.176364 -0.170378 0.998 255 255 249
0.178092 -0.170548 0.999 255 255 249
0.179644 -0.170548 0.999 255 255 242
0.181377 -0.170719 1 245 236 223
0.183113 -0.17089 1.001 250 236 219
0.184667 -0.17089 1.001 247 233 216
0.186408 -0.17106 1.002 229 210 194
0.187964 -0.17106 1.002 217 198 182
0.189709 -0.171231 1.003 213 197 180
0.191267 -0.171231 1.003 212 196 179
0.192825 -0.171231 1.003 243 234 216
0.194576 -0.171402 1.004 255 255 241
0.196136 -0.171402 1.004 255 255 242
0.197695 -0.171402 1.004 255 254 237
0.199254 -0.171402 1.004 253 255 239
0.200813 -0.171402 1.004 255 255 242
0.202373 -0.171402 1.004 255 255 244
0.203932 -0.171402 1.004 255 255 244
0.205696 -0.171573 1.005 254 255 247
0.207463 -0.171743 1.006 254 255 247
0.209441 -0.172085 1.008 254 255 249
0.211425 -0.172426 1.01 254 255 249
0.213415 -0.172768 1.012 254 255 249
0.215624 -0.17328 1.015 254 255 249
0.217842 -0.173792 1.018 255 255 246
0.219854 -0.174133 1.02 255 253 241
0.221873 -0.174475 1.022 249 241 220
0.223679 -0.174645 1.023 255 249 228
0.225708 -0.174987 1.025 255 248 228
0.227521 -0.175158 1.026 241 226 206
0.230933 -0.175328 1.027 255 242 220
0.232528 -0.175328 1.027 255 237 218
0.234351 -0.175499 1.028 248 230 211
0.235947 -0.175499 1.028 245 230 210
0.237775 -0.17567 1.029 250 235 215
0.239606 -0.175841 1.03 253 238 218
0.24144 -0.176011 1.031 252 237 217
0.243512 -0.176353 1.033 250 235 215
0.245591 -0.176694 1.035 255 242 222
0.247676 -0.177036 1.037 249 234 214
0.249767 -0.177377 1.039 244 229 209
0.251865 -0.177718 1.041 243 228 208
0.253969 -0.17806 1.043 249 234 214
0.255833 -0.178231 1.044 253 235 216
0.258195 -0.178743 1.047 239 221 202
0.260813 -0.179426 1.051 212 199 179
0.328297 -0.202985 1.189 30 39 23
0.330421 -0.203156 1.19 33 42 26
0.332269 -0.203156 1.19 31 42 26
0.334117 -0.203156 1.19 31 42 26
0.335683 -0.202985 1.189 27 41 24
0.33753 -0.202985 1.189 27 41 24
0.339091 -0.202814 1.188 27 42 22
0.340649 -0.202643 1.187 26 41 21
0.342492 -0.202643 1.187 25 40 20
0.344046 -0.202473 1.186 26 41 21
0.345596 -0.202302 1.185 26 41 21
0.347436 -0.202302 1.185 25 40 20
0.348982 -0.202131 1.184 25 41 19
0.350524 -0.201961 1.183 25 41 19
0.352064 -0.20179 1.182 25 41 19
0.3536 -0.201619 1.181 26 42 20
0.355133 -0.201448 1.18 26 42 20
0.356663 -0.201278 1.179 24 40 18
0.35819 -0.201107 1.178 19 30 14
0.359714 -0.200936 1.177 29 40 24
0.361235 -0.200765 1.176 65 74 60
0.362753 -0.200595 1.175 20 29 15
0.363957 -0.200253 1.173 26 29 14
0.365779 -0.200253 1.173 24 27 12
0.365407 -0.199058 1.166 21 22 7
0.363438 -0.19701 1.154 69 70 55
0.363206 -0.194961 1.142 81 86 73
0.363062 -0.193937 1.136 95 102 93
0.363542 -0.193254 1.132 118 125 116
0.364654 -0.192912 1.13 112 116 115
0.366733 -0.193083 1.131 34 38 37
-0.163487 -0.199614 1.18 8 16 9
-0.161928 -0.199952 1.182 8 17 8
-0.160228 -0.200121 1.183 8 17 8
-0.158659 -0.200459 1.185 8 17 8
-0.156951 -0.200629 1.186 10 19 10
-0.155239 -0.200798 1.187 11 21 9
-0.153396 -0.200798 1.187 12 22 10
-0.151553 -0.200798 1.187 13 24 10
-0.149709 -0.200798 1.187 13 24 10
-0.14799 -0.200967 1.188 13 24 10
-0.146145 -0.200967 1.188 17 28 14
-0.1443 -0.200967 1.188 18 29 13
-0.142575 -0.201136 1.189 19 30 14
-0.14061 -0.200967 1.188 19 30 14
-0.138882 -0.201136 1.189 18 29 13
-0.13692 -0.200967 1.188 17 28 12
-0.135075 -0.200967 1.188 17 28 12
-0.133118 -0.200798 1.187 15 26 10
-0.131275 -0.200798 1.187 18 29 13
-0.129431 -0.200798 1.187 19 30 14
-0.127588 -0.200798 1.187 19 30 14
-0.125744 -0.200798 1.187 19 30 14
-0.123901 -0.200798 1.187 19 30 14
-0.122057 -0.200798 1.187 19 30 14
-0.120113 -0.200629 1.186 18 29 13
-0.118271 -0.200629 1.186 17 28 12
-0.116331 -0.200459 1.185 17 28 12
-0.11449 -0.200459 1.185 18 29 13
-0.11265 -0.200459 1.185 19 30 14
-0.11081 -0.200459 1.185 17 28 12
-0.108969 -0.200459 1.185 18 29 13
-0.107129 -0.200459 1.185 18 29 13
-0.105289 -0.200459 1.185 18 29 13
-0.103448 -0.200459 1.185 18 29 13
-0.101608 -0.200459 1.185 18 29 13
-0.0997675 -0.200459 1.185 17 28 14
-0.0979272 -0.200459 1.185 15 26 12
-0.0960868 -0.200459 1.185 14 25 11
-0.0942465 -0.200459 1.185 14 25 11
-0.0923282 -0.20029 1.184 13 24 10
-0.0904129 -0.200121 1.183 14 25 11
-0.0885757 -0.200121 1.183 13 24 10
-0.0867385 -0.200121 1.183 13 24 10
-0.0848295 -0.199952 1.182 13 24 10
-0.0829938 -0.199952 1.182 13 24 10
-0.0811581 -0.199952 1.182 17 28 14
-0.0791882 -0.199614 1.18 15 26 12
-0.0773556 -0.199614 1.18 14 25 11
-0.075523 -0.199614 1.18 13 24 10
-0.073628 -0.199444 1.179 13 24 10
-0.071797 -0.199444 1.179 13 24 10
-0.0699066 -0.199275 1.178 12 23 9
-0.0680193 -0.199106 1.177 12 23 9
-0.0661352 -0.198937 1.176 12 23 9
-0.0642541 -0.198768 1.175 12 23 9
-0.0624293 -0.198768 1.175 11 22 8
-0.0606045 -0.198768 1.175 11 22 8
-0.0587797 -0.198768 1.175 12 23 9
-0.0569549 -0.198768 1.175 12 23 9
-0.05513 -0.198768 1.175 12 23 9
-0.0533052 -0.198768 1.175 11 22 8
-0.0514804 -0.198768 1.175 11 22 8
-0.0496979 -0.198937 1.176 11 22 8
-0.0479122 -0.199106 1.177 11 22 8
-0.0461234 -0.199275 1.178 11 22 8
-0.044294 -0.199275 1.178 12 23 9
-0.0424645 -0.199275 1.178 11 22 8
-0.040704 -0.199614 1.18 11 22 8
-0.0388714 -0.199614 1.18 10 21 7
-0.0370388 -0.199614 1.18 10 21 7
-0.0352063 -0.199614 1.18 10 21 7
-0.033402 -0.199783 1.181 8 19 5
-0.0315678 -0.199783 1.181 10 21 7
-0.0297337 -0.199783 1.181 8 22 7
-0.0278996 -0.199783 1.181 8 22 7
-0.0260434 -0.199614 1.18 6 19 6
-0.0242108 -0.199614 1.18 8 21 8
-0.0223403 -0.199275 1.178 8 21 8
-0.0204934 -0.199106 1.177 8 21 8
-0.018602 -0.198429 1.173 8 21 8
-0.0167374 -0.197922 1.17 8 21 8
-0.0148693 -0.197245 1.166 6 19 6
-0.0129577 -0.195723 1.157 8 21 8
-0.011103 -0.194708 1.151 6 19 6
-0.00928305 -0.194031 1.147 8 21 8
-0.00748864 -0.193693 1.145 9 22 9
-0.00569546 -0.193185 1.142 6 19 6
-0.00391159 -0.192678 1.139 5 10 6
-0.00213516 -0.192001 1.135 0 5 1
-0.000371479 -0.191494 1.132 45 45 45
0.00136573 -0.188618 1.115 80 80 80
0.00630174 -0.181175 1.071 77 74 78
0.00792041 -0.18016 1.065 89 86 90
0.00956541 -0.179991 1.064 92 89 93
0.0111967 -0.179652 1.062 102 99 103
0.0128098 -0.179145 1.059 109 106 110
0.0144271 -0.178806 1.057 93 90 94
0.0160383 -0.178468 1.055 105 102 106
0.0176432 -0.17813 1.053 110 107 111
0.0192237 -0.177622 1.05 110 107 111
0.0208146 -0.177284 1.048 106 103 107
0.022378 -0.176776 1.045 100 97 101
0.023932 -0.176269 1.042 99 96 100
0.0254276 -0.175423 1.037 100 95 99
0.026986 -0.175085 1.035 92 87 91
0.0285381 -0.174746 1.033 87 78 85
0.030084 -0.174408 1.031 85 76 83
0.0316545 -0.174239 1.03 83 75 80
0.0331895 -0.173901 1.028 87 79 84
0.0347522 -0.173731 1.027 90 82 87
0.0362764 -0.173393 1.025 92 84 89
0.0377944 -0.173055 1.023 93 86 88
0.0393446 -0.172886 1.022 97 90 92
0.0408517 -0.172547 1.02 90 83 84
0.0423942 -0.172378 1.019 92 85 86
0.0439336 -0.172209 1.018 92 85 86
0.0454252 -0.171871 1.016 83 76 77
0.0468643 -0.171363 1.013 51 42 43
0.0483897 -0.171194 1.012 69 60 61
0.049912 -0.171025 1.011 109 100 101
0.0514312 -0.170856 1.01 113 104 105
0.0529473 -0.170687 1.009 106 98 96
0.0544603 -0.170517 1.008 110 102 100
0.0560257 -0.170517 1.008 120 112 110
0.057534 -0.170348 1.007 122 114 112
0.0590979 -0.170348 1.007 108 100 98
0.0606618 -0.170348 1.007 113 105 103
0.062164 -0.170179 1.006 116 109 104
0.0637263 -0.170179 1.006 115 108 103
0.0652238 -0.17001 1.005 115 108 103
0.0667846 -0.17001 1.005 115 108 103
0.0682774 -0.169841 1.004 115 108 103
0.0698366 -0.169841 1.004 120 113 108
0.0713959 -0.169841 1.004 126 114 110
0.0728824 -0.169672 1.003 127 115 111
0.0744401 -0.169672 1.003 128 117 111
0.0760736 -0.169841 1.004 117 106 100
0.0776328 -0.169841 1.004 106 95 89
0.0791921 -0.169841 1.004 151 140 134
0.0807513 -0.169841 1.004 149 139 130
0.0823926 -0.17001 1.005 143 133 124
0.0839534 -0.17001 1.005 147 137 128
0.0855142 -0.17001 1.005 147 137 128
0.087075 -0.17001 1.005 151 141 132
0.0886358 -0.17001 1.005 156 146 137
0.0901966 -0.17001 1.005 160 147 141
0.0917574 -0.17001 1.005 152 139 133
0.0932253 -0.169841 1.004 88 75 69
0.0947845 -0.169841 1.004 46 33 27
0.0963438 -0.169841 1.004 66 58 56
0.0978055 -0.169672 1.003 147 139 137
0.0993632 -0.169672 1.003 185 178 180
0.100921 -0.169672 1.003 172 165 167
0.102376 -0.169502 1.002 161 157 158
0.103933 -0.169502 1.002 162 158 159
0.105489 -0.169502 1.002 161 156 160
0.106938 -0.169333 1.001 155 150 154
0.108493 -0.169333 1.001 151 146 150
0.110047 -0.169333 1.001 154 149 153
0.111602 -0.169333 1.001 153 147 153
0.113156 -0.169333 1.001 151 145 151
0.114596 -0.169164 1 151 145 151
0.116149 -0.169164 1 151 145 151
0.117702 -0.169164 1 151 145 151
0.119255 -0.169164 1 150 144 150
0.120688 -0.168995 0.999 148 142 148
0.122239 -0.168995 0.999 148 142 148
0.123791 -0.168995 0.999 152 142 152
0.125217 -0.168826 0.998 163 153 163
0.126767 -0.168826 0.998 167 158 165
0.128317 -0.168826 0.998 165 156 163
0.129736 -0.168657 0.997 165 156 163
0.131285 -0.168657 0.997 161 152 159
0.132833 -0.168657 0.997 171 162 169
0.134247 -0.168487 0.996 174 165 172
0.135793 -0.168487 0.996 172 163 170
0.13734 -0.168487 0.996 167 158 165
0.138887 -0.168487 0.996 185 177 182
0.140434 -0.168487 0.996 191 183 188
0.141981 -0.168487 0.996 188 181 183
0.143528 -0.168487 0.996 189 182 184
0.145074 -0.168487 0.996 190 181 182
0.146621 -0.168487 0.996 203 194 195
0.148168 -0.168487 0.996 221 213 211
0.149715 -0.168487 0.996 228 220 218
0.15111 -0.168318 0.995 230 223 218
0.152502 -0.168149 0.994 237 230 225
0.154045 -0.168149 0.994 241 234 229
0.155746 -0.168318 0.995 246 239 234
0.157291 -0.168318 0.995 252 247 242
0.158836 -0.168318 0.995 255 255 250
0.160381 -0.168318 0.995 255 255 250
0.161927 -0.168318 0.995 255 255 250
0.163472 -0.168318 0.995 254 255 250
0.165183 -0.168487 0.996 254 255 250
0.16673 -0.168487 0.996 254 255 252
0.169994 -0.168657 0.997 254 255 252
0.171542 -0.168657 0.997 254 255 252
0.173091 -0.168657 0.997 254 255 250
0.174814 -0.168826 0.998 254 255 250
0.176364 -0.168826 0.998 255 255 248
0.178092 -0.168995 0.999 255 255 249
0.179824 -0.169164 1 255 255 244
0.181377 -0.169164 1 255 254 241
0.183113 -0.169333 1.001 255 240 225
0.184852 -0.169502 1.002 245 228 213
0.186408 -0.169502 1.002 223 204 188
0.188152 -0.169672 1.003 221 202 186
0.189899 -0.169841 1.004 213 197 180
0.191458 -0.169841 1.004 219 203 186
0.193017 -0.169841 1.004 255 251 233
0.19477 -0.17001 1.005 255 255 241
0.196331 -0.17001 1.005 255 255 240
0.197892 -0.17001 1.005 251 249 230
0.199651 -0.170179 1.006 244 247 232
0.201013 -0.17001 1.005 255 255 244
0.202776 -0.170179 1.006 255 255 246
0.204338 -0.170179 1.006 255 255 246
0.2059 -0.170179 1.006 254 255 247
0.207669 -0.170348 1.007 254 255 247
0.209441 -0.170517 1.008 254 255 249
0.211425 -0.170856 1.01 254 255 249
0.213415 -0.171194 1.012 254 255 249
0.215837 -0.171871 1.016 254 255 249
0.218056 -0.172378 1.019 255 255 246
0.22007 -0.172717 1.021 255 255 245
0.221873 -0.172886 1.022 255 250 232
0.223897 -0.173224 1.024 255 251 233
0.225928 -0.173562 1.026 255 246 229
0.229338 -0.173731 1.027 164 146 127
0.230933 -0.173731 1.027 219 201 182
0.232754 -0.173901 1.028 255 242 222
0.234351 -0.173901 1.028 250 235 215
0.235947 -0.173901 1.028 249 234 214
0.237775 -0.17407 1.029 255 241 221
0.239606 -0.174239 1.03 253 238 218
0.241674 -0.174577 1.032 252 237 217
0.243512 -0.174746 1.033 251 236 216
0.245591 -0.175085 1.035 248 233 213
0.247676 -0.175423 1.037 240 225 205
0.250008 -0.175931 1.04 243 228 208
0.252107 -0.176269 1.042 240 225 205
0.253969 -0.176438 1.043 252 237 217
0.255833 -0.176607 1.044 255 240 220
0.258441 -0.177284 1.048 216 201 181
0.261558 -0.178299 1.054 214 198 181
0.265585 -0.178806 1.057 226 214 197
0.272813 -0.180329 1.066 240 228 211
0.3214 -0.20029 1.184 30 35 22
0.330421 -0.201305 1.19 29 40 24
0.331711 -0.200967 1.188 27 42 22
0.333556 -0.200967 1.188 29 44 24
0.335401 -0.200967 1.188 29 44 24
0.336962 -0.200798 1.187 29 44 24
0.338806 -0.200798 1.187 29 44 24
0.340075 -0.200459 1.185 26 41 21
0.341915 -0.200459 1.185 24 39 19
0.343756 -0.200459 1.185 25 40 20
0.345304 -0.20029 1.184 24 40 18
0.34685 -0.200121 1.183 25 41 19
0.348393 -0.199952 1.182 25 41 19
0.350228 -0.199952 1.182 25 41 19
0.351766 -0.199783 1.181 25 41 19
