ply
format ascii 1.0
comment Created by Open3D
element vertex 1399
property double x
property double y
property double z
property uchar red
property uchar green
property uchar blue
end_header
0.184111 -0.333965 1.188 21 41 12
0.185799 -0.333684 1.187 21 41 12
0.187643 -0.333684 1.187 21 41 12
0.189326 -0.333403 1.186 21 41 12
0.191168 -0.333403 1.186 20 40 11
0.192847 -0.333122 1.185 18 38 9
0.194688 -0.333122 1.185 18 38 9
0.196362 -0.332841 1.184 18 38 9
0.198034 -0.33256 1.183 16 36 7
0.199702 -0.332278 1.182 17 37 8
0.201367 -0.331997 1.181 18 38 9
0.203029 -0.331716 1.18 20 40 11
0.204862 -0.331716 1.18 21 41 12
0.206694 -0.331716 1.18 21 41 12
0.208527 -0.331716 1.18 20 42 13
0.210359 -0.331716 1.18 19 41 12
0.212192 -0.331716 1.18 19 41 12
0.214025 -0.331716 1.18 19 41 12
0.215857 -0.331716 1.18 20 42 13
0.217874 -0.331997 1.181 20 42 13
0.219708 -0.331997 1.181 19 41 12
0.22173 -0.332278 1.182 19 41 12
0.223755 -0.33256 1.183 19 41 12
0.225783 -0.332841 1.184 15 37 8
0.229654 -0.333122 1.185 15 37 10
0.231495 -0.333122 1.185 15 37 10
0.233335 -0.333122 1.185 15 37 10
0.235374 -0.333403 1.186 15 37 10
0.237416 -0.333684 1.187 15 37 10
0.239259 -0.333684 1.187 14 35 10
0.241306 -0.333965 1.188 13 34 9
0.243151 -0.333965 1.188 11 28 8
0.244996 -0.333965 1.188 11 28 8
0.246841 -0.333965 1.188 10 27 7
0.248686 -0.333965 1.188 11 28 8
0.250531 -0.333965 1.188 10 27 7
0.252376 -0.333965 1.188 10 27 7
0.254007 -0.333684 1.187 9 25 8
0.25585 -0.333684 1.187 10 26 9
0.257694 -0.333684 1.187 9 25 8
0.259537 -0.333684 1.187 9 25 8
0.26116 -0.333403 1.186 9 25 10
0.262781 -0.333122 1.185 9 25 10
0.264621 -0.333122 1.185 9 25 10
0.266461 -0.333122 1.185 9 25 10
0.268302 -0.333122 1.185 9 25 10
0.270142 -0.333122 1.185 10 26 11
0.271982 -0.333122 1.185 12 26 11
0.273823 -0.333122 1.185 11 25 10
0.275663 -0.333122 1.185 10 24 7
0.277503 -0.333122 1.185 10 24 7
0.279344 -0.333122 1.185 10 24 7
0.281184 -0.333122 1.185 10 24 7
0.283024 -0.333122 1.185 10 24 7
0.284865 -0.333122 1.185 11 25 8
0.286705 -0.333122 1.185 12 26 9
0.288545 -0.333122 1.185 12 26 9
0.290386 -0.333122 1.185 13 27 10
0.292226 -0.333122 1.185 12 26 9
0.294066 -0.333122 1.185 13 27 10
0.295907 -0.333122 1.185 12 26 9
0.297747 -0.333122 1.185 12 26 11
0.299335 -0.332841 1.184 12 26 11
0.300919 -0.33256 1.183 11 25 10
0.3025 -0.332278 1.182 12 26 11
0.304079 -0.331997 1.181 10 24 9
0.305654 -0.331716 1.18 11 25 10
0.307486 -0.331716 1.18 13 27 12
0.309319 -0.331716 1.18 13 27 12
0.310888 -0.331435 1.179 13 27 12
0.312719 -0.331435 1.179 13 27 12
0.314817 -0.331716 1.18 13 27 12
0.316649 -0.331716 1.18 13 27 12
0.318482 -0.331716 1.18 13 27 12
0.320586 -0.331997 1.181 12 26 11
0.322693 -0.332278 1.182 13 27 12
0.324529 -0.332278 1.182 13 27 12
0.32664 -0.33256 1.183 13 27 10
0.328478 -0.33256 1.183 16 30 13
0.330315 -0.33256 1.183 16 30 13
0.331871 -0.332278 1.182 17 31 14
0.333707 -0.332278 1.182 18 32 15
0.335543 -0.332278 1.182 20 34 17
0.337093 -0.331997 1.181 22 36 19
0.33864 -0.331716 1.18 20 34 17
0.340184 -0.331435 1.179 20 34 17
0.341725 -0.331154 1.178 18 32 15
0.343555 -0.331154 1.178 18 32 15
0.344798 -0.330592 1.176 17 31 14
0.346624 -0.330592 1.176 17 31 14
0.348154 -0.330311 1.175 18 32 15
0.349979 -0.330311 1.175 18 32 17
0.351804 -0.330311 1.175 17 31 16
0.353629 -0.330311 1.175 16 29 16
0.355151 -0.330029 1.174 17 30 17
0.356974 -0.330029 1.174 9 19 14
0.358492 -0.329748 1.173 9 19 14
0.360313 -0.329748 1.173 39 48 46
0.361826 -0.329467 1.172 45 54 52
0.363647 -0.329467 1.172 36 45 44
0.365155 -0.329186 1.171 32 41 40
0.366974 -0.329186 1.171 33 40 44
0.368477 -0.328905 1.17 34 41 45
0.369661 -0.328343 1.168 33 40 44
0.371475 -0.328343 1.168 29 36 40
0.37297 -0.328062 1.167 27 34 38
0.374461 -0.327781 1.166 27 34 38
0.375626 -0.327218 1.164 27 33 40
0.37711 -0.326937 1.163 26 32 39
-0.164899 -0.329043 1.177 29 44 36
-0.16321 -0.329322 1.178 18 33 25
-0.159822 -0.329881 1.18 20 37 24
-0.158123 -0.330161 1.181 20 38 21
-0.156421 -0.330441 1.182 19 37 20
-0.154586 -0.330441 1.182 21 38 18
-0.152879 -0.33072 1.183 22 39 19
-0.15117 -0.331 1.184 22 39 19
-0.149457 -0.331279 1.185 20 37 17
-0.147617 -0.331279 1.185 34 46 27
-0.145776 -0.331279 1.185 45 57 38
-0.144057 -0.331559 1.186 42 54 35
-0.142335 -0.331838 1.187 33 45 26
-0.140492 -0.331838 1.187 31 43 24
-0.138648 -0.331838 1.187 31 43 24
-0.136805 -0.331838 1.187 30 45 25
-0.134961 -0.331838 1.187 30 45 25
-0.133118 -0.331838 1.187 30 45 25
-0.131275 -0.331838 1.187 26 41 21
-0.129431 -0.331838 1.187 26 41 21
-0.127588 -0.331838 1.187 25 40 20
-0.125744 -0.331838 1.187 27 43 21
-0.123901 -0.331838 1.187 31 47 25
-0.122057 -0.331838 1.187 30 46 24
-0.120214 -0.331838 1.187 27 43 21
-0.11847 -0.332118 1.188 26 43 18
-0.116723 -0.332397 1.189 26 43 18
-0.114877 -0.332397 1.189 25 42 17
-0.11303 -0.332397 1.189 25 42 17
-0.111277 -0.332677 1.19 25 42 17
-0.109429 -0.332677 1.19 25 42 17
-0.107581 -0.332677 1.19 26 44 17
-0.105822 -0.332957 1.191 25 43 16
-0.103972 -0.332957 1.191 22 42 15
-0.102122 -0.332957 1.191 22 42 15
-0.100273 -0.332957 1.191 22 42 13
-0.098423 -0.332957 1.191 21 41 12
-0.0965733 -0.332957 1.191 22 42 13
-0.0946442 -0.332677 1.19 21 41 12
-0.092796 -0.332677 1.19 22 42 13
-0.0907186 -0.331838 1.187 22 42 13
-0.0888752 -0.331838 1.187 21 41 12
-0.0869584 -0.331559 1.186 22 42 13
-0.0850448 -0.331279 1.185 22 42 13
-0.0831342 -0.331 1.184 22 42 13
-0.0812954 -0.331 1.184 22 42 13
-0.0794566 -0.331 1.184 22 42 13
-0.0775523 -0.33072 1.183 22 42 15
-0.075715 -0.33072 1.183 21 41 14
-0.0738778 -0.33072 1.183 21 41 14
-0.0720405 -0.33072 1.183 21 41 14
-0.0702627 -0.331 1.184 21 41 14
-0.0684239 -0.331 1.184 22 42 15
-0.0665851 -0.331 1.184 22 42 15
-0.064801 -0.331279 1.185 22 42 15
-0.0629606 -0.331279 1.185 20 40 13
-0.0611203 -0.331279 1.185 17 37 10
-0.0592799 -0.331279 1.185 17 37 10
-0.0574881 -0.331559 1.186 17 37 10
-0.0556462 -0.331559 1.186 18 38 11
-0.0538043 -0.331559 1.186 20 40 13
-0.0520062 -0.331838 1.187 20 40 13
-0.0501627 -0.331838 1.187 20 40 13
-0.0483193 -0.331838 1.187 17 37 10
-0.0464758 -0.331838 1.187 18 38 11
-0.0446324 -0.331838 1.187 18 38 11
-0.042825 -0.332118 1.188 18 38 11
-0.04098 -0.332118 1.188 18 38 11
-0.0391679 -0.332397 1.189 17 37 10
-0.0373213 -0.332397 1.189 17 37 10
-0.0354748 -0.332397 1.189 17 37 10
-0.0336282 -0.332397 1.189 18 38 11
-0.0317549 -0.332118 1.188 20 40 13
-0.0299099 -0.332118 1.188 20 40 13
-0.0280649 -0.332118 1.188 21 41 14
-0.0262199 -0.332118 1.188 17 37 10
-0.0243954 -0.332397 1.189 17 37 10
-0.0225489 -0.332397 1.189 17 37 10
-0.0207023 -0.332397 1.189 18 38 11
-0.0188558 -0.332397 1.189 17 37 10
-0.0170092 -0.332397 1.189 17 37 10
-0.0151754 -0.332677 1.19 16 36 9
-0.0133273 -0.332677 1.19 16 36 9
-0.0114792 -0.332677 1.19 16 36 9
-0.00963916 -0.332957 1.191 15 35 8
-0.00779604 -0.333236 1.192 17 37 10
-0.00594482 -0.333236 1.192 17 37 10
-0.0040936 -0.333236 1.192 18 38 11
-0.00224427 -0.333516 1.193 18 38 11
-0.000391825 -0.333795 1.194 18 38 11
0.0014625 -0.333795 1.194 18 38 11
0.00331682 -0.333795 1.194 18 38 11
0.00517547 -0.334075 1.195 20 40 13
0.00703135 -0.334075 1.195 20 40 13
0.00887979 -0.333795 1.194 17 37 10
0.0107251 -0.333516 1.193 16 36 9
0.0125673 -0.333236 1.192 17 37 10
0.0144065 -0.332957 1.191 17 37 10
0.0162425 -0.332677 1.19 16 36 9
0.0180754 -0.332397 1.189 17 37 10
0.0198884 -0.331838 1.187 16 36 9
0.0216953 -0.331279 1.185 18 36 9
0.0235158 -0.331 1.184 18 36 9
0.0253117 -0.330441 1.182 19 37 10
0.0271244 -0.330161 1.181 19 37 10
0.0289341 -0.329881 1.18 19 37 10
0.0307406 -0.329602 1.179 19 37 10
0.0325716 -0.329602 1.179 20 38 11
0.0344026 -0.329602 1.179 22 40 13
0.0362029 -0.329322 1.178 21 41 14
0.0380647 -0.329602 1.179 21 41 14
0.0398957 -0.329602 1.179 21 41 14
0.0417267 -0.329602 1.179 21 41 14
0.0435947 -0.329881 1.18 20 40 13
0.0454658 -0.330161 1.181 20 40 13
0.04734 -0.330441 1.182 18 38 11
0.0492172 -0.33072 1.183 18 38 11
0.0510976 -0.331 1.184 20 40 13
0.0529811 -0.331279 1.185 18 38 11
0.0548678 -0.331559 1.186 16 36 9
0.0567097 -0.331559 1.186 15 35 8
0.0586009 -0.331838 1.187 16 36 7
0.0604444 -0.331838 1.187 17 37 8
0.0623403 -0.332118 1.188 17 37 8
0.0642934 -0.332677 1.19 18 38 9
0.066197 -0.332957 1.191 17 37 8
0.0681038 -0.333236 1.192 17 37 8
0.0699551 -0.333236 1.192 18 38 9
0.0718665 -0.333516 1.193 18 38 9
0.0738429 -0.334075 1.195 18 38 9
0.0756988 -0.334075 1.195 17 37 8
0.0775546 -0.334075 1.195 17 37 8
0.0794105 -0.334075 1.195 17 37 8
0.0812664 -0.334075 1.195 17 37 8
0.0831223 -0.334075 1.195 16 36 7
0.0849781 -0.334075 1.195 15 35 6
0.086834 -0.334075 1.195 18 38 9
0.0886899 -0.334075 1.195 20 40 11
0.0905458 -0.334075 1.195 20 40 11
0.0923243 -0.333795 1.194 20 40 11
0.0941786 -0.333795 1.194 20 40 11
0.096033 -0.333795 1.194 18 38 9
0.0978873 -0.333795 1.194 20 40 11
0.0995745 -0.333236 1.192 20 40 11
0.101426 -0.333236 1.192 18 38 9
0.103277 -0.333236 1.192 18 38 9
0.10504 -0.332957 1.191 18 38 9
0.1068 -0.332677 1.19 18 38 9
0.108557 -0.332397 1.189 18 38 9
0.11031 -0.332118 1.188 18 38 9
0.112061 -0.331838 1.187 18 38 9
0.113904 -0.331838 1.187 17 37 8
0.115553 -0.331279 1.185 17 37 8
0.117393 -0.331279 1.185 17 37 8
0.119133 -0.331 1.184 17 37 8
0.120767 -0.330441 1.182 17 37 10
0.122603 -0.330441 1.182 17 37 10
0.124334 -0.330161 1.181 17 37 10
0.126061 -0.329881 1.18 16 36 9
0.127893 -0.329881 1.18 17 37 10
0.129616 -0.329602 1.179 18 38 11
0.131447 -0.329602 1.179 18 38 11
0.133165 -0.329322 1.178 20 40 13
0.134995 -0.329322 1.178 18 38 9
0.136824 -0.329322 1.178 20 40 11
0.138418 -0.328763 1.176 20 40 11
0.140125 -0.328484 1.175 20 40 11
0.14195 -0.328484 1.175 18 38 9
0.143652 -0.328204 1.174 18 38 9
0.145476 -0.328204 1.174 20 40 11
0.147299 -0.328204 1.174 21 41 12
0.148995 -0.327925 1.173 20 40 11
0.150945 -0.328204 1.174 20 40 11
0.152899 -0.328484 1.175 21 41 12
0.154855 -0.328763 1.176 21 41 12
0.156948 -0.329322 1.178 21 41 12
0.160743 -0.329602 1.179 21 41 12
0.16285 -0.330161 1.181 21 41 12
0.164824 -0.330441 1.182 21 41 12
0.167083 -0.331279 1.185 21 41 12
0.169065 -0.331559 1.186 20 40 11
0.171051 -0.331838 1.187 20 40 11
0.173186 -0.332397 1.189 21 41 12
0.17518 -0.332677 1.19 21 41 12
0.177028 -0.332677 1.19 20 40 11
0.178876 -0.332677 1.19 18 38 9
0.180724 -0.332677 1.19 20 40 11
0.182572 -0.332677 1.19 21 41 12
0.184421 -0.332677 1.19 21 41 12
0.186112 -0.332397 1.189 21 41 12
0.187801 -0.332118 1.188 21 41 12
0.189486 -0.331838 1.187 21 41 12
0.191329 -0.331838 1.187 21 41 12
0.19301 -0.331559 1.186 21 41 12
0.194688 -0.331279 1.185 20 40 11
0.196528 -0.331279 1.185 20 40 11
0.198034 -0.33072 1.183 17 37 8
0.199702 -0.330441 1.182 16 36 7
0.201538 -0.330441 1.182 17 37 8
0.203373 -0.330441 1.182 18 38 9
0.205209 -0.330441 1.182 16 38 9
0.206869 -0.330161 1.181 18 40 11
0.208527 -0.329881 1.18 19 41 12
0.210538 -0.330161 1.181 19 41 12
0.212372 -0.330161 1.181 19 41 12
0.214206 -0.330161 1.181 16 38 9
0.216223 -0.330441 1.182 19 41 12
0.218059 -0.330441 1.182 20 42 13
0.219708 -0.330161 1.181 20 42 13
0.22173 -0.330441 1.182 20 42 13
0.223566 -0.330441 1.182 19 41 12
0.225592 -0.33072 1.183 15 37 8
0.227429 -0.33072 1.183 14 36 7
0.22946 -0.331 1.184 15 37 8
0.233335 -0.331279 1.185 16 38 11
0.235175 -0.331279 1.185 15 37 10
0.237216 -0.331559 1.186 14 36 9
0.239259 -0.331838 1.187 13 34 9
0.241103 -0.331838 1.187 12 33 8
0.243151 -0.332118 1.188 11 31 9
0.244996 -0.332118 1.188 12 32 10
0.247049 -0.332397 1.189 9 28 8
0.248895 -0.332397 1.189 11 30 10
0.250742 -0.332397 1.189 10 27 7
0.252588 -0.332397 1.189 9 26 6
0.254221 -0.332118 1.188 7 25 8
0.25585 -0.331838 1.187 7 25 8
0.257694 -0.331838 1.187 9 25 10
0.259537 -0.331838 1.187 10 26 11
0.261381 -0.331838 1.187 10 26 9
0.263002 -0.331559 1.186 9 25 8
0.264844 -0.331559 1.186 9 25 8
0.266686 -0.331559 1.186 9 25 8
0.268528 -0.331559 1.186 9 25 8
0.27037 -0.331559 1.186 10 26 9
0.272212 -0.331559 1.186 9 25 8
0.274054 -0.331559 1.186 8 24 7
0.275896 -0.331559 1.186 8 24 7
0.277737 -0.331559 1.186 8 24 7
0.279344 -0.331279 1.185 10 24 7
0.281184 -0.331279 1.185 10 24 7
0.283024 -0.331279 1.185 10 24 7
0.284865 -0.331279 1.185 11 25 8
0.286705 -0.331279 1.185 12 26 9
0.288545 -0.331279 1.185 12 26 9
0.290386 -0.331279 1.185 13 27 10
0.292226 -0.331279 1.185 13 27 10
0.294066 -0.331279 1.185 13 27 12
0.295407 -0.33072 1.183 12 26 11
0.296993 -0.330441 1.182 12 26 11
0.298829 -0.330441 1.182 11 25 10
0.30041 -0.330161 1.181 12 26 11
0.301989 -0.329881 1.18 13 27 12
0.303306 -0.329322 1.178 12 26 11
0.304877 -0.329043 1.177 11 25 10
0.306704 -0.329043 1.177 11 25 10
0.308008 -0.328484 1.175 12 26 11
0.309833 -0.328484 1.175 12 26 11
0.311658 -0.328484 1.175 13 27 12
0.313483 -0.328484 1.175 13 26 13
0.315844 -0.329043 1.177 13 26 13
0.317942 -0.329322 1.178 13 26 13
0.319771 -0.329322 1.178 13 26 13
0.321874 -0.329602 1.179 13 27 12
0.323979 -0.329881 1.18 13 27 12
0.326364 -0.330441 1.182 13 27 12
0.3282 -0.330441 1.182 15 29 14
0.330036 -0.330441 1.182 15 29 12
0.331871 -0.330441 1.182 15 29 12
0.333707 -0.330441 1.182 16 32 15
0.335543 -0.330441 1.182 20 36 19
0.337093 -0.330161 1.181 20 36 19
0.33864 -0.329881 1.18 20 36 19
0.340184 -0.329602 1.179 18 34 17
0.341725 -0.329322 1.178 16 32 15
0.343263 -0.329043 1.177 16 32 15
0.345091 -0.329043 1.177 15 31 14
0.346624 -0.328763 1.176 18 32 15
0.348154 -0.328484 1.175 18 32 15
0.349979 -0.328484 1.175 18 32 15
0.351804 -0.328484 1.175 17 31 14
0.353328 -0.328204 1.174 16 29 16
0.354848 -0.327925 1.173 17 30 17
0.35667 -0.327925 1.173 15 25 20
0.358186 -0.327645 1.172 10 20 15
0.359699 -0.327365 1.171 39 48 46
0.361518 -0.327365 1.171 45 54 52
0.363026 -0.327086 1.17 38 47 46
0.364219 -0.326527 1.168 32 41 40
0.366033 -0.326527 1.168 33 40 44
0.367532 -0.326247 1.167 34 41 45
0.369028 -0.325968 1.166 32 39 43
0.370203 -0.325408 1.164 26 33 37
0.372011 -0.325408 1.164 27 34 38
0.373176 -0.324849 1.162 26 33 37
0.37369 -0.323731 1.158 27 33 40
0.37484 -0.323172 1.156 26 32 39
-0.165039 -0.327491 1.178 25 41 31
-0.161654 -0.328047 1.18 20 37 24
-0.159822 -0.328047 1.18 20 37 24
-0.158257 -0.328603 1.182 20 38 21
-0.156554 -0.328881 1.183 19 37 20
-0.154847 -0.329159 1.184 20 39 19
-0.153008 -0.329159 1.184 20 39 19
-0.151297 -0.329437 1.185 22 40 18
-0.149457 -0.329437 1.185 21 39 17
-0.147617 -0.329437 1.185 34 47 26
-0.145899 -0.329715 1.186 43 56 35
-0.144057 -0.329715 1.186 43 56 35
-0.142335 -0.329993 1.187 38 51 30
-0.140492 -0.329993 1.187 33 46 25
-0.138648 -0.329993 1.187 33 46 25
-0.136805 -0.329993 1.187 33 46 25
-0.134961 -0.329993 1.187 32 45 24
-0.133118 -0.329993 1.187 30 46 24
-0.131275 -0.329993 1.187 26 42 20
-0.129431 -0.329993 1.187 26 42 20
-0.127588 -0.329993 1.187 26 42 20
-0.125744 -0.329993 1.187 29 45 23
-0.123901 -0.329993 1.187 30 46 24
-0.122057 -0.329993 1.187 30 47 22
-0.120315 -0.330271 1.188 27 44 19
-0.11857 -0.330549 1.189 27 44 19
-0.116723 -0.330549 1.189 26 43 18
-0.114877 -0.330549 1.189 25 42 17
-0.113125 -0.330827 1.19 25 42 17
-0.111277 -0.330827 1.19 26 43 18
-0.109521 -0.331105 1.191 26 43 18
-0.107671 -0.331105 1.191 27 45 18
-0.105822 -0.331105 1.191 25 43 16
-0.104059 -0.331383 1.192 23 43 16
-0.102208 -0.331383 1.192 22 42 15
-0.100357 -0.331383 1.192 21 41 12
-0.0985056 -0.331383 1.192 22 42 13
-0.0966544 -0.331383 1.192 23 43 14
-0.0947237 -0.331105 1.191 22 42 13
-0.092796 -0.330827 1.19 22 42 13
-0.0908715 -0.330549 1.189 21 41 12
-0.0888752 -0.329993 1.187 21 41 12
-0.0870317 -0.329993 1.187 21 41 12
-0.0850448 -0.329437 1.185 20 40 11
-0.0832044 -0.329437 1.185 18 38 9
-0.0812954 -0.329159 1.184 17 37 8
-0.0794566 -0.329159 1.184 18 38 9
-0.0776178 -0.329159 1.184 18 38 11
-0.075779 -0.329159 1.184 20 40 13
-0.0738778 -0.328881 1.183 22 42 15
-0.0720405 -0.328881 1.183 21 41 14
-0.0702627 -0.329159 1.184 22 42 15
-0.0684239 -0.329159 1.184 21 41 14
-0.0665851 -0.329159 1.184 18 38 11
-0.064801 -0.329437 1.185 20 40 13
-0.0629606 -0.329437 1.185 18 38 11
-0.0611203 -0.329437 1.185 20 40 13
-0.0592799 -0.329437 1.185 21 41 14
-0.0574396 -0.329437 1.185 21 41 14
-0.0555992 -0.329437 1.185 21 41 14
-0.0537589 -0.329437 1.185 20 40 13
-0.0519185 -0.329437 1.185 20 40 13
-0.0501205 -0.329715 1.186 20 40 13
-0.0482786 -0.329715 1.186 18 38 11
-0.0464758 -0.329993 1.187 18 38 11
-0.0446324 -0.329993 1.187 20 40 13
-0.0427889 -0.329993 1.187 20 40 13
-0.0409455 -0.329993 1.187 18 38 11
-0.039135 -0.330271 1.188 17 37 10
-0.0372899 -0.330271 1.188 17 37 10
-0.0354151 -0.329993 1.187 18 38 11
-0.0335717 -0.329993 1.187 18 38 11
-0.0317282 -0.329993 1.187 20 40 13
-0.0298848 -0.329993 1.187 20 40 13
-0.0280413 -0.329993 1.187 21 41 14
-0.0261978 -0.329993 1.187 18 38 11
-0.0243544 -0.329993 1.187 17 37 10
-0.0225109 -0.329993 1.187 17 37 10
-0.0206675 -0.329993 1.187 17 37 10
-0.0188399 -0.330271 1.188 17 37 10
-0.0169949 -0.330271 1.188 16 36 9
-0.0151626 -0.330549 1.189 16 36 9
-0.0133161 -0.330549 1.189 16 36 9
-0.0114792 -0.330827 1.19 16 36 9
-0.00963107 -0.330827 1.19 15 35 8
-0.0077895 -0.331105 1.191 17 37 10
-0.00594482 -0.331383 1.192 16 36 9
-0.0040936 -0.331383 1.192 15 35 8
-0.00224427 -0.331661 1.193 15 35 8
-0.000391825 -0.331939 1.194 15 35 8
0.0014625 -0.331939 1.194 16 36 9
0.0033196 -0.332217 1.195 17 37 10
0.00517547 -0.332217 1.195 18 38 11
0.00703135 -0.332217 1.195 21 41 14
0.00888723 -0.332217 1.195 20 40 13
0.0107251 -0.331661 1.193 21 41 14
0.0125673 -0.331383 1.192 18 38 11
0.0144186 -0.331383 1.192 16 36 9
0.0162561 -0.331105 1.191 16 36 9
0.0180906 -0.330827 1.19 16 36 9
0.0199387 -0.330827 1.19 17 37 10
0.0217502 -0.330271 1.188 17 37 10
0.0235555 -0.329715 1.186 17 37 10
0.025376 -0.329437 1.185 17 37 10
0.0271704 -0.328881 1.183 17 37 10
0.0290076 -0.328881 1.183 17 37 10
0.0308188 -0.328603 1.182 18 38 11
0.0326268 -0.328325 1.181 18 38 11
0.0344318 -0.328047 1.18 20 40 13
0.0362644 -0.328047 1.18 20 40 13
0.038097 -0.328047 1.18 18 38 11
0.0399295 -0.328047 1.18 17 37 10
0.0417621 -0.328047 1.18 20 40 13
0.0436316 -0.328325 1.181 20 40 13
0.0455043 -0.328603 1.182 20 40 13
0.04734 -0.328603 1.182 18 38 11
0.0492172 -0.328881 1.183 20 40 13
0.0510976 -0.329159 1.184 20 40 13
0.0529811 -0.329437 1.185 18 38 11
0.0548678 -0.329715 1.186 17 37 10
0.0567097 -0.329715 1.186 16 36 9
0.0586009 -0.329993 1.187 15 35 8
0.0604953 -0.330271 1.188 16 36 9
0.0623928 -0.330549 1.189 16 36 7
0.0642934 -0.330827 1.19 17 37 8
0.066197 -0.331105 1.191 17 37 8
0.0681038 -0.331383 1.192 17 37 8
0.0699551 -0.331383 1.192 16 36 7
0.0718665 -0.331661 1.193 17 37 8
0.0737811 -0.331939 1.194 18 38 9
0.0756354 -0.331939 1.194 17 37 8
0.0774897 -0.331939 1.194 17 37 8
0.079344 -0.331939 1.194 17 37 8
0.0811984 -0.331939 1.194 15 35 6
0.0830527 -0.331939 1.194 16 36 7
0.084907 -0.331939 1.194 15 35 6
0.0867613 -0.331939 1.194 17 37 8
0.0886899 -0.332217 1.195 20 40 11
0.0905458 -0.332217 1.195 18 38 9
0.0924016 -0.332217 1.195 17 37 8
0.0942575 -0.332217 1.195 18 38 9
0.0961134 -0.332217 1.195 17 37 8
0.0979693 -0.332217 1.195 20 40 11
0.0997416 -0.331939 1.194 21 41 12
0.101596 -0.331939 1.194 20 40 11
0.103364 -0.331661 1.193 21 41 12
0.105128 -0.331383 1.192 20 40 11
0.106979 -0.331383 1.192 18 38 9
0.108831 -0.331383 1.192 18 38 9
0.110589 -0.331105 1.191 18 38 9
0.112344 -0.330827 1.19 17 37 8
0.114096 -0.330549 1.189 17 37 8
0.115845 -0.330271 1.188 17 37 8
0.117591 -0.329993 1.187 17 37 8
0.119334 -0.329715 1.186 18 38 9
0.121074 -0.329437 1.185 17 37 10
0.122707 -0.328881 1.183 17 37 10
0.124439 -0.328603 1.182 17 37 10
0.126274 -0.328603 1.182 17 37 10
0.128002 -0.328325 1.181 16 36 9
0.129726 -0.328047 1.18 17 37 10
0.131559 -0.328047 1.18 17 37 10
0.133278 -0.327769 1.179 18 38 11
0.135109 -0.327769 1.179 18 38 11
0.136824 -0.327491 1.178 20 40 13
0.138418 -0.326935 1.176 18 38 9
0.140125 -0.326657 1.175 18 38 9
0.14195 -0.326657 1.175 18 38 9
0.143775 -0.326657 1.175 18 38 9
0.1456 -0.326657 1.175 20 40 11
0.147424 -0.326657 1.175 20 40 11
0.149249 -0.326657 1.175 18 38 9
0.151074 -0.326657 1.175 20 40 11
0.153029 -0.326935 1.176 20 40 11
0.155119 -0.327491 1.178 20 40 11
0.158912 -0.327769 1.179 20 40 11
0.16088 -0.328047 1.18 21 41 12
0.162988 -0.328603 1.182 21 41 12
0.165103 -0.329159 1.184 21 41 12
0.167083 -0.329437 1.185 21 41 12
0.169208 -0.329993 1.187 21 41 12
0.17134 -0.330549 1.189 21 41 12
0.173332 -0.330827 1.19 23 43 14
0.175327 -0.331105 1.191 22 42 13
0.177326 -0.331383 1.192 22 42 13
0.179177 -0.331383 1.192 20 40 11
0.181028 -0.331383 1.192 18 38 9
0.182879 -0.331383 1.192 21 41 12
0.184576 -0.331105 1.191 22 42 13
0.186269 -0.330827 1.19 21 41 12
0.188117 -0.330827 1.19 20 40 11
0.189805 -0.330549 1.189 21 41 12
0.191329 -0.329993 1.187 21 41 12
0.193173 -0.329993 1.187 21 41 12
0.194852 -0.329715 1.186 20 40 11
0.196528 -0.329437 1.185 18 38 9
0.198201 -0.329159 1.184 16 36 7
0.20004 -0.329159 1.184 18 38 9
0.201708 -0.328881 1.183 18 38 9
0.203373 -0.328603 1.182 18 38 9
0.205209 -0.328603 1.182 18 40 11
0.207045 -0.328603 1.182 19 41 12
0.20888 -0.328603 1.182 19 41 12
0.210716 -0.328603 1.182 19 41 12
0.212552 -0.328603 1.182 19 41 12
0.214387 -0.328603 1.182 16 38 9
0.216223 -0.328603 1.182 16 38 9
0.218059 -0.328603 1.182 20 42 13
0.219894 -0.328603 1.182 20 42 13
0.22173 -0.328603 1.182 19 41 12
0.223566 -0.328603 1.182 16 38 9
0.225402 -0.328603 1.182 15 37 8
0.227237 -0.328603 1.182 15 37 8
0.229267 -0.328881 1.183 16 38 9
0.233335 -0.329437 1.185 16 38 9
0.235175 -0.329437 1.185 16 38 11
0.237216 -0.329715 1.186 15 37 10
0.239259 -0.329993 1.187 12 33 8
0.241103 -0.329993 1.187 12 33 8
0.243151 -0.330271 1.188 11 31 9
0.245202 -0.330549 1.189 11 31 9
0.247049 -0.330549 1.189 11 31 9
0.249104 -0.330827 1.19 11 31 9
0.250953 -0.330827 1.19 11 28 8
0.252801 -0.330827 1.19 10 27 7
0.254649 -0.330827 1.19 7 25 8
0.256281 -0.330549 1.189 7 25 8
0.258128 -0.330549 1.189 9 25 10
0.259756 -0.330271 1.188 10 26 11
0.261601 -0.330271 1.188 10 26 11
0.263224 -0.329993 1.187 10 26 11
0.265067 -0.329993 1.187 10 26 11
0.266911 -0.329993 1.187 9 25 10
0.268754 -0.329993 1.187 9 25 10
0.270598 -0.329993 1.187 9 25 10
0.272441 -0.329993 1.187 9 25 8
0.274285 -0.329993 1.187 8 24 7
0.276128 -0.329993 1.187 8 24 7
0.277972 -0.329993 1.187 8 24 7
0.279815 -0.329993 1.187 10 24 7
0.281659 -0.329993 1.187 11 25 8
0.283263 -0.329715 1.186 11 25 8
0.285105 -0.329715 1.186 11 25 8
0.286705 -0.329437 1.185 11 25 8
0.288545 -0.329437 1.185 12 26 9
0.290386 -0.329437 1.185 13 27 10
0.291979 -0.329159 1.184 12 26 9
0.293818 -0.329159 1.184 12 26 11
0.295158 -0.328603 1.182 12 26 11
0.296993 -0.328603 1.182 12 26 11
0.298323 -0.328047 1.18 12 26 11
0.299902 -0.327769 1.179 11 25 10
0.301477 -0.327491 1.178 13 27 12
0.303049 -0.327213 1.177 13 27 12
0.304359 -0.326657 1.175 12 26 11
0.305923 -0.326379 1.174 11 25 10
0.307746 -0.326379 1.174 12 26 11
0.309306 -0.326101 1.173 12 26 11
0.311127 -0.326101 1.173 12 26 11
0.312949 -0.326101 1.173 13 26 13
0.315307 -0.326657 1.175 15 28 15
0.317132 -0.326657 1.175 15 29 14
0.319228 -0.326935 1.176 13 27 12
0.321601 -0.327491 1.178 12 26 11
0.323979 -0.328047 1.18 12 26 11
0.325812 -0.328047 1.18 12 26 11
0.327922 -0.328325 1.181 13 27 12
0.330036 -0.328603 1.182 13 27 10
0.331871 -0.328603 1.182 16 30 13
0.333707 -0.328603 1.182 16 32 15
0.335543 -0.328603 1.182 18 34 17
0.337093 -0.328325 1.181 20 36 19
0.33864 -0.328047 1.18 18 34 17
0.340473 -0.328047 1.18 18 34 17
0.341725 -0.327491 1.178 17 33 16
0.343555 -0.327491 1.178 18 34 17
0.345091 -0.327213 1.177 17 33 16
0.346624 -0.326935 1.176 18 32 15
0.348154 -0.326657 1.175 18 32 15
0.349979 -0.326657 1.175 18 32 15
0.351804 -0.326657 1.175 17 31 14
0.353328 -0.326379 1.174 16 29 16
0.354848 -0.326101 1.173 16 29 16
0.356366 -0.325823 1.172 13 23 18
0.35788 -0.325545 1.171 11 21 16
0.359699 -0.325545 1.171 40 49 47
0.3609 -0.324989 1.169 45 54 52
0.362405 -0.324711 1.168 34 43 42
0.363908 -0.324433 1.167 33 42 41
0.365407 -0.324155 1.166 33 40 44
0.366588 -0.323599 1.164 33 40 44
0.368079 -0.323321 1.163 30 37 41
0.369567 -0.323043 1.162 27 34 38
0.370093 -0.321931 1.158 22 28 35
0.371249 -0.321375 1.156 23 29 36
0.372399 -0.320819 1.154 22 28 35
0.373219 -0.319985 1.151 20 26 33
-0.165039 -0.325659 1.178 18 35 22
-0.161654 -0.326212 1.18 21 39 24
-0.159957 -0.326488 1.181 20 38 23
-0.158257 -0.326765 1.182 19 38 18
-0.156686 -0.327318 1.184 20 39 19
-0.154978 -0.327594 1.185 19 38 18
-0.153138 -0.327594 1.185 20 39 19
-0.151297 -0.327594 1.185 22 40 18
-0.149583 -0.327871 1.186 18 36 14
-0.147741 -0.327871 1.186 31 44 23
-0.145899 -0.327871 1.186 40 53 32
-0.144057 -0.327871 1.186 39 52 31
-0.142335 -0.328147 1.187 33 46 25
-0.140492 -0.328147 1.187 33 46 25
-0.138532 -0.327871 1.186 32 45 24
-0.136805 -0.328147 1.187 32 45 24
-0.134961 -0.328147 1.187 29 42 21
-0.133118 -0.328147 1.187 27 43 21
-0.131275 -0.328147 1.187 26 42 20
-0.129431 -0.328147 1.187 26 42 20
-0.127588 -0.328147 1.187 29 45 23
-0.125744 -0.328147 1.187 29 45 23
-0.123901 -0.328147 1.187 27 43 21
-0.12216 -0.328424 1.188 29 45 23
-0.120416 -0.3287 1.189 29 45 23
-0.11857 -0.3287 1.189 29 46 21
-0.116821 -0.328976 1.19 25 42 17
-0.114973 -0.328976 1.19 26 44 17
-0.113125 -0.328976 1.19 25 43 16
-0.111371 -0.329253 1.191 26 44 17
-0.109521 -0.329253 1.191 25 43 16
-0.107671 -0.329253 1.191 26 44 17
-0.105911 -0.329529 1.192 25 43 16
-0.104059 -0.329529 1.192 25 43 16
-0.102208 -0.329529 1.192 24 42 15
-0.100357 -0.329529 1.192 22 42 13
-0.0985056 -0.329529 1.192 22 42 13
-0.0966544 -0.329529 1.192 22 42 13
-0.0948032 -0.329529 1.192 23 43 14
-0.092796 -0.328976 1.19 22 42 13
-0.0909479 -0.328976 1.19 20 40 11
-0.0889501 -0.328424 1.188 21 41 12
-0.0870317 -0.328147 1.187 18 38 9
-0.0851165 -0.327871 1.186 22 40 11
-0.0832044 -0.327594 1.185 23 41 12
-0.0813641 -0.327594 1.185 22 40 13
-0.0795237 -0.327594 1.185 19 37 10
-0.0776178 -0.327318 1.184 19 37 10
-0.075779 -0.327318 1.184 20 38 11
-0.0739402 -0.327318 1.184 23 41 14
-0.0721014 -0.327318 1.184 23 41 14
-0.0702627 -0.327318 1.184 23 41 14
-0.0684239 -0.327318 1.184 20 38 11
-0.0665851 -0.327318 1.184 20 38 11
-0.0647463 -0.327318 1.184 22 40 13
-0.0629606 -0.327594 1.185 22 40 13
-0.0611203 -0.327594 1.185 22 40 13
-0.0592799 -0.327594 1.185 21 41 14
-0.0574396 -0.327594 1.185 21 41 14
-0.0555992 -0.327594 1.185 21 41 14
-0.0537589 -0.327594 1.185 20 40 13
-0.0519185 -0.327594 1.185 20 40 13
-0.0500782 -0.327594 1.185 20 40 13
-0.0482379 -0.327594 1.185 20 40 13
-0.0464367 -0.327871 1.186 18 38 11
-0.0445948 -0.327871 1.186 20 40 13
-0.0427889 -0.328147 1.187 20 40 13
-0.0409455 -0.328147 1.187 18 38 11
-0.039102 -0.328147 1.187 17 37 10
-0.0372586 -0.328147 1.187 18 38 11
-0.0354151 -0.328147 1.187 21 41 14
-0.0335717 -0.328147 1.187 20 40 13
-0.0317282 -0.328147 1.187 21 41 14
-0.0298848 -0.328147 1.187 21 41 14
-0.0280413 -0.328147 1.187 21 41 14
-0.0261978 -0.328147 1.187 20 40 13
-0.0243544 -0.328147 1.187 17 37 10
-0.0225109 -0.328147 1.187 17 37 10
-0.0206675 -0.328147 1.187 16 36 9
-0.018824 -0.328147 1.187 16 36 9
-0.0169806 -0.328147 1.187 15 35 8
-0.0151499 -0.328424 1.188 16 36 9
-0.0133161 -0.3287 1.189 15 35 8
-0.0114695 -0.3287 1.189 15 35 8
-0.00963107 -0.328976 1.19 15 35 8
-0.00778295 -0.328976 1.19 16 36 9
-0.00593983 -0.329253 1.191 16 36 9
-0.0040936 -0.329529 1.192 16 36 9
-0.00224239 -0.329529 1.192 16 36 9
-0.000391497 -0.329806 1.193 17 37 10
0.0014625 -0.330082 1.194 20 40 13
0.0033196 -0.330359 1.195 18 38 11
0.00517547 -0.330359 1.195 18 38 11
0.00703135 -0.330359 1.195 20 40 13
0.00888723 -0.330359 1.195 18 38 11
0.0107341 -0.330082 1.194 20 40 13
0.0125779 -0.329806 1.193 20 40 13
0.0144307 -0.329806 1.193 18 38 11
0.0162698 -0.329529 1.192 21 41 14
0.018121 -0.329529 1.192 18 38 11
0.0199387 -0.328976 1.19 17 37 10
0.0217868 -0.328976 1.19 17 37 10
0.0236151 -0.3287 1.189 18 38 11
0.0254188 -0.328147 1.187 18 38 11
0.0272393 -0.327871 1.186 18 38 11
0.0290567 -0.327594 1.185 18 38 9
0.0308709 -0.327318 1.184 17 37 8
0.0326821 -0.327041 1.183 17 37 8
0.0344902 -0.326765 1.182 17 37 8
0.0362951 -0.326488 1.181 17 37 8
0.0381292 -0.326488 1.181 17 37 8
0.0399634 -0.326488 1.181 17 37 8
0.0417975 -0.326488 1.181 17 37 8
0.0436316 -0.326488 1.181 18 38 9
0.0455043 -0.326765 1.182 20 40 11
0.04734 -0.326765 1.182 18 38 9
0.0492172 -0.327041 1.183 18 38 9
0.0510976 -0.327318 1.184 20 40 11
0.0529811 -0.327594 1.185 17 37 8
0.0548678 -0.327871 1.186 16 36 9
0.0567097 -0.327871 1.186 16 36 9
0.0586009 -0.328147 1.187 15 35 6
0.0604953 -0.328424 1.188 15 35 6
0.0623928 -0.3287 1.189 16 36 7
0.0642934 -0.328976 1.19 15 35 6
0.066197 -0.329253 1.191 16 36 7
0.0681038 -0.329529 1.192 17 37 8
0.0699551 -0.329529 1.192 16 36 7
0.0718063 -0.329529 1.192 18 38 9
0.0736575 -0.329529 1.192 18 38 9
0.0755087 -0.329529 1.192 18 38 9
0.0773599 -0.329529 1.192 18 38 9
0.0792111 -0.329529 1.192 18 38 9
0.0810624 -0.329529 1.192 17 37 8
0.0829136 -0.329529 1.192 17 37 8
0.0847648 -0.329529 1.192 15 35 6
0.0866887 -0.329806 1.193 17 37 8
0.0886157 -0.330082 1.194 18 38 9
0.09047 -0.330082 1.194 17 37 8
0.0924016 -0.330359 1.195 20 40 11
0.0942575 -0.330359 1.195 21 41 12
0.0961134 -0.330359 1.195 20 40 11
0.0979693 -0.330359 1.195 20 40 11
0.0998251 -0.330359 1.195 20 40 11
0.101681 -0.330359 1.195 18 38 9
0.103537 -0.330359 1.195 20 40 11
0.105393 -0.330359 1.195 20 40 11
0.107159 -0.330082 1.194 18 38 9
0.109013 -0.330082 1.194 18 38 9
0.110775 -0.329806 1.193 17 37 8
0.112533 -0.329529 1.192 17 37 8
0.114288 -0.329253 1.191 17 37 8
0.11604 -0.328976 1.19 18 38 9
0.117789 -0.3287 1.189 18 38 9
0.119535 -0.328424 1.188 20 40 11
0.121278 -0.328147 1.187 20 40 13
0.122914 -0.327594 1.185 20 40 13
0.124755 -0.327594 1.185 20 40 13
0.126381 -0.327041 1.183 18 38 11
0.12811 -0.326765 1.182 18 38 11
0.129836 -0.326488 1.181 18 38 11
0.13167 -0.326488 1.181 18 38 11
0.133391 -0.326212 1.18 20 40 13
0.135224 -0.326212 1.18 20 40 13
0.136824 -0.325659 1.178 21 41 14
0.138653 -0.325659 1.178 20 40 11
0.140244 -0.325106 1.176 21 41 12
0.14195 -0.32483 1.175 20 40 11
0.143897 -0.325106 1.176 20 40 11
0.145724 -0.325106 1.176 20 40 11
0.14755 -0.325106 1.176 18 38 9
0.149376 -0.325106 1.176 20 40 11
0.151331 -0.325383 1.177 20 40 11
0.153289 -0.325659 1.178 20 40 11
0.155119 -0.325659 1.178 20 40 11
0.159047 -0.326212 1.18 18 38 9
0.161153 -0.326765 1.182 20 40 11
0.163126 -0.327041 1.183 21 41 12
0.165103 -0.327318 1.184 21 41 12
0.167224 -0.327871 1.186 22 42 13
0.169208 -0.328147 1.187 22 42 13
0.171484 -0.328976 1.19 21 41 12
0.173478 -0.329253 1.191 22 42 13
0.175474 -0.329529 1.192 23 43 14
0.177326 -0.329529 1.192 22 42 13
0.179327 -0.329806 1.193 21 41 12
0.181028 -0.329529 1.192 21 41 12
0.183033 -0.329806 1.193 23 43 14
0.18473 -0.329529 1.192 22 42 13
0.186425 -0.329253 1.191 22 42 13
0.188117 -0.328976 1.19 20 40 11
0.189965 -0.328976 1.19 20 40 11
0.191491 -0.328424 1.188 21 41 12
0.193173 -0.328147 1.187 21 41 12
0.195016 -0.328147 1.187 18 38 9
0.196694 -0.327871 1.186 17 37 8
0.198368 -0.327594 1.185 18 38 9
0.200209 -0.327594 1.185 21 41 12
0.202049 -0.327594 1.185 21 41 12
0.203717 -0.327318 1.184 22 42 13
0.205556 -0.327318 1.184 19 41 12
0.20722 -0.327041 1.183 19 41 12
0.20888 -0.326765 1.182 19 41 12
0.210716 -0.326765 1.182 19 41 12
0.212552 -0.326765 1.182 19 41 12
0.214387 -0.326765 1.182 16 38 9
0.216223 -0.326765 1.182 16 38 9
0.218059 -0.326765 1.182 20 42 13
0.219894 -0.326765 1.182 19 41 12
0.22173 -0.326765 1.182 19 41 12
0.223566 -0.326765 1.182 16 38 9
0.225402 -0.326765 1.182 16 38 9
0.227237 -0.326765 1.182 15 37 8
0.229267 -0.327041 1.183 16 38 9
0.231104 -0.327041 1.183 15 37 8
0.233138 -0.327318 1.184 15 37 8
0.237016 -0.327594 1.185 15 37 10
0.239058 -0.327871 1.186 12 33 8
0.241103 -0.328147 1.187 12 33 8
0.243151 -0.328424 1.188 11 31 9
0.245408 -0.328976 1.19 11 31 9
0.247256 -0.328976 1.19 11 30 10
0.249104 -0.328976 1.19 11 30 10
0.251163 -0.329253 1.191 13 30 10
0.253013 -0.329253 1.191 11 28 8
0.254649 -0.328976 1.19 10 26 9
0.256497 -0.328976 1.19 11 27 10
0.258345 -0.328976 1.19 10 26 11
0.260193 -0.328976 1.19 10 26 11
0.262041 -0.328976 1.19 10 26 9
0.263668 -0.3287 1.189 10 26 9
0.265291 -0.328424 1.188 10 26 9
0.267136 -0.328424 1.188 10 26 9
0.268754 -0.328147 1.187 10 26 9
0.270598 -0.328147 1.187 9 25 8
0.272441 -0.328147 1.187 9 25 8
0.274285 -0.328147 1.187 8 24 7
0.276128 -0.328147 1.187 10 24 7
0.277972 -0.328147 1.187 10 24 7
0.279815 -0.328147 1.187 11 25 8
0.281659 -0.328147 1.187 12 26 9
0.283502 -0.328147 1.187 12 26 9
0.285345 -0.328147 1.187 11 25 8
0.286947 -0.327871 1.186 11 25 8
0.288789 -0.327871 1.186 11 25 8
0.290386 -0.327594 1.185 12 26 11
0.292226 -0.327594 1.185 12 26 11
0.293818 -0.327318 1.184 12 26 11
0.295158 -0.326765 1.182 12 26 11
0.296742 -0.326488 1.181 12 26 11
0.298323 -0.326212 1.18 13 27 12
0.299647 -0.325659 1.178 11 25 10
0.300965 -0.325106 1.176 12 26 11
0.302534 -0.32483 1.175 13 27 12
0.304099 -0.324553 1.174 11 25 10
0.305662 -0.324277 1.173 11 25 10
0.307222 -0.324 1.172 13 27 12
0.309042 -0.324 1.172 12 26 11
0.310862 -0.324 1.172 12 26 11
0.312682 -0.324 1.172 13 26 13
0.314771 -0.324277 1.173 15 28 15
0.316862 -0.324553 1.174 15 28 15
0.318957 -0.32483 1.175 13 26 13
0.321055 -0.325106 1.176 12 25 12
0.32343 -0.325659 1.178 12 25 12
0.325536 -0.325935 1.179 13 27 12
0.327645 -0.326212 1.18 13 27 12
0.329756 -0.326488 1.181 11 27 12
0.331871 -0.326765 1.182 15 31 16
0.333707 -0.326765 1.182 16 32 15
0.335543 -0.326765 1.182 17 33 16
0.337093 -0.326488 1.181 16 32 15
0.33864 -0.326212 1.18 16 32 15
0.340473 -0.326212 1.18 16 32 15
0.342015 -0.325935 1.179 17 33 16
0.343555 -0.325659 1.178 18 34 17
0.345091 -0.325383 1.177 18 34 17
0.346919 -0.325383 1.177 18 32 15
0.34845 -0.325106 1.176 19 33 16
0.349979 -0.32483 1.175 18 32 15
0.351804 -0.32483 1.175 17 31 14
0.353328 -0.324553 1.174 16 29 16
0.354848 -0.324277 1.173 15 28 15
0.356366 -0.324 1.172 9 19 14
0.35788 -0.323724 1.171 11 21 16
0.359392 -0.323447 1.17 40 49 47
0.360592 -0.322895 1.168 45 54 52
0.362095 -0.322618 1.167 33 42 41
0.363596 -0.322342 1.166 34 43 42
0.36478 -0.321789 1.164 33 40 44
0.366273 -0.321512 1.163 33 40 44
0.367446 -0.320959 1.161 24 31 35
0.367977 -0.319854 1.157 20 27 31
0.368815 -0.319024 1.154 24 30 37
0.369965 -0.318471 1.152 33 39 46
0.370786 -0.317642 1.149 24 29 38
0.371922 -0.317089 1.147 22 27 36
-0.165039 -0.323827 1.178 22 40 25
-0.163487 -0.324377 1.18 22 40 25
-0.161791 -0.324652 1.181 20 38 21
-0.160093 -0.324927 1.182 19 37 20
-0.158391 -0.325202 1.183 15 34 14
-0.156686 -0.325477 1.184 19 38 18
-0.154978 -0.325752 1.185 19 38 18
-0.153267 -0.326027 1.186 20 39 19
-0.151425 -0.326027 1.186 22 40 18
-0.149583 -0.326027 1.186 22 40 18
-0.147741 -0.326027 1.186 22 38 16
-0.145899 -0.326027 1.186 30 46 24
-0.144179 -0.326301 1.187 30 46 24
-0.142335 -0.326301 1.187 30 46 24
-0.140492 -0.326301 1.187 32 46 22
-0.138648 -0.326301 1.187 32 46 22
-0.136805 -0.326301 1.187 32 46 22
-0.134961 -0.326301 1.187 28 42 18
-0.133118 -0.326301 1.187 28 42 18
-0.131275 -0.326301 1.187 28 42 18
-0.129431 -0.326301 1.187 27 44 19
-0.127588 -0.326301 1.187 29 46 21
-0.125744 -0.326301 1.187 30 47 22
-0.124005 -0.326576 1.188 27 44 19
-0.122263 -0.326851 1.189 27 44 19
-0.120416 -0.326851 1.189 29 46 21
-0.11867 -0.327126 1.19 29 46 21
-0.116821 -0.327126 1.19 29 46 21
-0.114973 -0.327126 1.19 29 47 20
-0.11322 -0.327401 1.191 27 45 18
-0.111371 -0.327401 1.191 25 43 16
-0.109613 -0.327676 1.192 25 43 16
-0.107762 -0.327676 1.192 26 44 17
-0.105911 -0.327676 1.192 25 43 16
-0.104059 -0.327676 1.192 24 42 15
-0.102208 -0.327676 1.192 24 42 15
-0.100357 -0.327676 1.192 22 42 13
-0.0985056 -0.327676 1.192 22 42 13
-0.0966544 -0.327676 1.192 22 42 13
-0.0947237 -0.327401 1.191 22 42 13
-0.092796 -0.327126 1.19 23 43 14
-0.0909479 -0.327126 1.19 21 41 12
-0.0889501 -0.326576 1.188 21 41 12
-0.0870317 -0.326301 1.187 21 41 12
-0.0851165 -0.326027 1.186 21 41 12
-0.0832044 -0.325752 1.185 21 41 12
-0.0813641 -0.325752 1.185 21 41 12
-0.0795237 -0.325752 1.185 20 40 11
-0.0776834 -0.325752 1.185 20 40 13
-0.075843 -0.325752 1.185 20 40 13
-0.0739402 -0.325477 1.184 21 41 14
-0.0721014 -0.325477 1.184 21 41 14
-0.0702627 -0.325477 1.184 20 40 13
-0.0684239 -0.325477 1.184 20 40 13
-0.0665851 -0.325477 1.184 20 40 13
-0.064801 -0.325752 1.185 20 40 13
-0.0629606 -0.325752 1.185 21 41 14
-0.0611203 -0.325752 1.185 20 40 13
-0.0592799 -0.325752 1.185 20 40 13
-0.0574396 -0.325752 1.185 20 40 13
-0.0555523 -0.325477 1.184 20 40 13
-0.0537589 -0.325752 1.185 18 38 11
-0.0519185 -0.325752 1.185 18 38 11
-0.0500782 -0.325752 1.185 20 40 13
-0.0482379 -0.325752 1.185 21 41 14
-0.0463975 -0.325752 1.185 20 40 13
-0.0445572 -0.325752 1.185 18 38 11
-0.0427529 -0.326027 1.186 20 40 13
-0.040911 -0.326027 1.186 18 38 11
-0.0390691 -0.326027 1.186 18 38 11
-0.0372272 -0.326027 1.186 20 40 13
-0.0353853 -0.326027 1.186 21 41 14
-0.0335434 -0.326027 1.186 21 41 14
-0.0316747 -0.325752 1.185 21 41 14
-0.0298344 -0.325752 1.185 21 41 14
-0.0279941 -0.325752 1.185 20 40 13
-0.0261537 -0.325752 1.185 20 40 13
-0.0243339 -0.326027 1.186 18 38 11
-0.022492 -0.326027 1.186 16 36 9
-0.0206675 -0.326301 1.187 16 36 9
-0.018824 -0.326301 1.187 16 36 9
-0.0169806 -0.326301 1.187 16 36 9
-0.0151371 -0.326301 1.187 16 36 9
-0.0133049 -0.326576 1.188 15 35 8
-0.0114695 -0.326851 1.189 14 34 7
-0.00963107 -0.327126 1.19 16 36 9
-0.00778295 -0.327126 1.19 17 37 10
-0.00593983 -0.327401 1.191 17 37 10
-0.0040936 -0.327676 1.192 17 37 10
-0.00224239 -0.327676 1.192 17 37 10
-0.000391497 -0.327951 1.193 17 37 10
0.0014625 -0.328226 1.194 20 40 13
0.0033196 -0.328501 1.195 18 38 11
0.00517547 -0.328501 1.195 18 38 11
0.00703135 -0.328501 1.195 17 37 10
0.00888723 -0.328501 1.195 18 38 11
0.0107431 -0.328501 1.195 18 38 11
0.0125884 -0.328226 1.194 18 38 11
0.0144307 -0.327951 1.193 18 38 11
0.0162834 -0.327951 1.193 21 41 14
0.018121 -0.327676 1.192 21 41 14
0.0199722 -0.327676 1.192 18 38 11
0.0218051 -0.327401 1.191 17 37 10
0.0236349 -0.327126 1.19 18 38 11
0.0254402 -0.326576 1.188 18 38 9
0.0272622 -0.326301 1.187 20 40 11
0.0290812 -0.326027 1.186 20 40 11
0.030897 -0.325752 1.185 18 38 9
0.0327097 -0.325477 1.184 18 38 9
0.0345485 -0.325477 1.184 18 38 9
0.0363258 -0.324927 1.182 20 40 11
0.0381615 -0.324927 1.182 20 40 11
0.0399972 -0.324927 1.182 20 40 11
0.0418329 -0.324927 1.182 18 38 9
0.0436686 -0.324927 1.182 18 38 9
0.0455043 -0.324927 1.182 20 40 11
0.04734 -0.324927 1.182 20 40 11
0.0492172 -0.325202 1.183 20 40 11
0.0510976 -0.325477 1.184 20 40 13
0.0529811 -0.325752 1.185 18 38 11
0.0548215 -0.325752 1.185 16 36 9
0.0567097 -0.326027 1.186 17 37 10
0.0585515 -0.326027 1.186 17 37 8
0.0604444 -0.326301 1.187 17 37 8
0.0623403 -0.326576 1.188 17 37 8
0.0642393 -0.326851 1.189 16 36 7
0.0661415 -0.327126 1.19 16 36 7
0.0679896 -0.327126 1.19 16 36 7
0.0698377 -0.327126 1.19 16 36 7
0.071746 -0.327401 1.191 18 38 9
0.0735957 -0.327401 1.191 18 38 9
0.0754454 -0.327401 1.191 18 38 9
0.077295 -0.327401 1.191 18 38 9
0.0790782 -0.327126 1.19 20 40 11
0.0809264 -0.327126 1.19 20 40 11
0.0827745 -0.327126 1.19 18 38 9
0.0846226 -0.327126 1.19 16 36 7
0.0865433 -0.327401 1.191 18 38 9
0.0884672 -0.327676 1.192 21 41 12
0.0903184 -0.327676 1.192 20 40 11
0.092247 -0.327951 1.193 21 41 12
0.0942575 -0.328501 1.195 21 41 12
0.0961134 -0.328501 1.195 21 41 12
0.0979693 -0.328501 1.195 20 40 11
0.0998251 -0.328501 1.195 18 38 9
0.101766 -0.328775 1.196 18 38 9
0.103624 -0.328775 1.196 20 40 11
0.105481 -0.328775 1.196 20 40 11
0.107338 -0.328775 1.196 20 40 11
0.109196 -0.328775 1.196 18 38 9
0.11096 -0.328501 1.195 17 37 8
0.112816 -0.328501 1.195 17 37 8
0.11448 -0.327951 1.193 16 36 7
0.116235 -0.327676 1.192 16 36 7
0.118087 -0.327676 1.192 17 37 8
0.119737 -0.327126 1.19 20 40 11
0.121483 -0.326851 1.189 18 38 9
0.123122 -0.326301 1.187 20 40 11
0.12486 -0.326027 1.186 21 41 14
0.126595 -0.325752 1.185 20 40 13
0.128327 -0.325477 1.184 18 38 11
0.129946 -0.324927 1.182 20 40 13
0.131782 -0.324927 1.182 21 41 14
0.133504 -0.324652 1.181 21 41 14
0.135224 -0.324377 1.18 20 40 13
0.13694 -0.324102 1.179 20 40 13
0.138653 -0.323827 1.178 18 38 11
0.140483 -0.323827 1.178 20 40 13
0.142192 -0.323552 1.177 20 40 11
0.14402 -0.323552 1.177 20 40 11
0.145847 -0.323552 1.177 18 38 9
0.14963 -0.323827 1.178 20 40 11
0.15146 -0.323827 1.178 20 40 11
0.153289 -0.323827 1.178 20 40 11
0.15525 -0.324102 1.179 20 40 11
0.157215 -0.324377 1.18 20 40 11
0.159047 -0.324377 1.18 18 38 9
0.161153 -0.324927 1.182 20 40 11
0.163264 -0.325477 1.184 21 41 12
0.165242 -0.325752 1.185 21 41 12
0.167365 -0.326301 1.187 22 42 13
0.169351 -0.326576 1.188 22 42 13
0.171484 -0.327126 1.19 21 41 12
0.173478 -0.327401 1.191 21 41 12
0.175474 -0.327676 1.192 21 41 12
0.177474 -0.327951 1.193 21 41 12
0.179477 -0.328226 1.194 22 42 13
0.18118 -0.327951 1.193 23 43 14
0.183186 -0.328226 1.194 23 43 14
0.18473 -0.327676 1.192 21 41 12
0.186582 -0.327676 1.192 21 41 12
0.188275 -0.327401 1.191 20 40 11
0.189965 -0.327126 1.19 21 41 12
0.191652 -0.326851 1.189 21 41 12
0.193336 -0.326576 1.188 21 41 12
0.195016 -0.326301 1.187 18 38 9
0.19686 -0.326301 1.187 18 38 9
0.198536 -0.326027 1.186 20 40 11
0.200209 -0.325752 1.185 21 41 12
0.202049 -0.325752 1.185 21 41 12
0.203889 -0.325752 1.185 22 42 13
0.20573 -0.325752 1.185 20 42 13
0.20757 -0.325752 1.185 20 42 13
0.209234 -0.325477 1.184 20 42 13
0.210894 -0.325202 1.183 19 41 12
0.212732 -0.325202 1.183 19 41 12
0.216406 -0.325202 1.183 16 38 9
0.218243 -0.325202 1.183 16 38 9
0.220081 -0.325202 1.183 16 38 9
0.22173 -0.324927 1.182 16 38 9
0.223566 -0.324927 1.182 18 40 11
0.225402 -0.324927 1.182 16 38 9
0.227237 -0.324927 1.182 15 37 8
0.229073 -0.324927 1.182 15 37 8
0.230909 -0.324927 1.182 15 37 10
0.232941 -0.325202 1.183 14 36 9
0.237016 -0.325752 1.185 14 35 10
0.238856 -0.325752 1.185 12 33 8
0.241103 -0.326301 1.187 12 33 8
0.243355 -0.326851 1.189 13 31 9
0.245408 -0.327126 1.19 13 31 9
0.247256 -0.327126 1.19 13 30 10
0.249314 -0.327401 1.191 13 30 10
0.251374 -0.327676 1.192 13 30 10
0.253226 -0.327676 1.192 11 28 8
0.255077 -0.327676 1.192 9 25 8
0.256712 -0.327401 1.191 10 26 9
0.258562 -0.327401 1.191 9 25 10
0.260412 -0.327401 1.191 10 26 11
0.262041 -0.327126 1.19 10 26 9
0.263889 -0.327126 1.19 10 26 9
0.265737 -0.327126 1.19 10 26 9
0.267361 -0.326851 1.189 10 26 9
0.269207 -0.326851 1.189 10 26 9
0.271054 -0.326851 1.189 9 25 8
0.2729 -0.326851 1.189 11 25 8
0.274747 -0.326851 1.189 10 24 7
0.276593 -0.326851 1.189 10 24 7
0.27844 -0.326851 1.189 10 24 7
0.280051 -0.326576 1.188 10 24 7
0.281896 -0.326576 1.188 12 26 9
0.283741 -0.326576 1.188 12 26 9
0.285345 -0.326301 1.187 12 26 9
0.287189 -0.326301 1.187 12 26 9
0.289032 -0.326301 1.187 11 25 8
0.290631 -0.326027 1.186 11 25 10
0.292226 -0.325752 1.185 12 26 11
0.293818 -0.325477 1.184 12 26 9
0.295158 -0.324927 1.182 13 27 10
0.296993 -0.324927 1.182 13 27 10
0.298323 -0.324377 1.18 12 26 9
0.299647 -0.323827 1.178 11 25 10
0.300965 -0.323278 1.176 12 26 11
0.302534 -0.323003 1.175 12 25 12
0.30384 -0.322453 1.173 12 25 12
0.305402 -0.322178 1.172 12 26 11
0.30696 -0.321903 1.171 13 27 12
0.308778 -0.321903 1.171 12 26 11
0.310597 -0.321903 1.171 12 26 11
0.312415 -0.321903 1.171 13 27 12
0.314234 -0.321903 1.171 13 27 12
0.316592 -0.322453 1.173 15 29 14
0.318414 -0.322453 1.173 13 27 12
0.320782 -0.323003 1.175 12 26 11
0.322881 -0.323278 1.176 12 26 11
0.32526 -0.323827 1.178 13 27 12
0.327645 -0.324377 1.18 15 29 14
0.329477 -0.324377 1.18 13 27 12
0.33131 -0.324377 1.18 16 30 15
0.333707 -0.324927 1.182 14 30 13
0.335543 -0.324927 1.182 15 31 14
0.337093 -0.324652 1.181 14 30 13
0.33864 -0.324377 1.18 15 31 14
0.340473 -0.324377 1.18 17 33 16
0.342015 -0.324102 1.179 18 34 17
0.343555 -0.323827 1.178 18 34 17
0.345384 -0.323827 1.178 17 33 16
0.347214 -0.323827 1.178 18 32 15
0.348747 -0.323552 1.177 19 33 16
0.350277 -0.323278 1.176 20 34 17
0.351804 -0.323003 1.175 18 32 15
0.353629 -0.323003 1.175 16 29 16
0.354848 -0.322453 1.173 16 29 16
0.356366 -0.322178 1.172 12 19 15
0.35788 -0.321903 1.171 14 21 17
0.359085 -0.321353 1.169 40 49 47
0.360592 -0.321078 1.168 45 54 52
0.361785 -0.320529 1.166 32 41 40
0.362972 -0.319979 1.164 33 42 41
0.364466 -0.319704 1.163 34 41 45
0.365643 -0.319154 1.161 30 37 41
0.365863 -0.31778 1.156 19 26 30
0.367023 -0.31723 1.154 20 27 31
0.368176 -0.31668 1.152 66 72 79
0.369001 -0.315855 1.149 61 67 74
0.37014 -0.315306 1.147 62 65 73
0.370949 -0.314481 1.144 46 49 57
-0.165039 -0.321996 1.178 23 41 24
-0.163487 -0.322542 1.18 22 40 23
-0.161928 -0.323089 1.182 30 49 29
-0.160228 -0.323362 1.183 33 52 32
-0.158525 -0.323636 1.184 22 41 21
-0.156818 -0.323909 1.185 15 34 14
-0.155109 -0.324182 1.186 20 39 19
-0.153396 -0.324456 1.187 20 39 19
-0.151553 -0.324456 1.187 22 40 18
-0.149709 -0.324456 1.187 18 36 14
-0.147866 -0.324456 1.187 26 42 20
-0.146022 -0.324456 1.187 29 45 23
-0.144179 -0.324456 1.187 30 46 24
-0.142335 -0.324456 1.187 30 46 24
-0.140492 -0.324456 1.187 29 46 21
-0.138648 -0.324456 1.187 29 46 21
-0.136805 -0.324456 1.187 27 44 19
-0.134961 -0.324456 1.187 26 43 18
-0.133118 -0.324456 1.187 27 44 19
-0.131275 -0.324456 1.187 29 46 21
-0.129431 -0.324456 1.187 29 46 21
-0.127588 -0.324456 1.187 30 47 22
-0.125744 -0.324456 1.187 30 47 22
-0.12411 -0.325002 1.189 27 44 19
-0.122263 -0.325002 1.189 27 44 19
-0.120518 -0.325276 1.19 26 43 18
-0.11867 -0.325276 1.19 29 46 21
-0.116821 -0.325276 1.19 30 47 22
-0.11507 -0.325549 1.191 29 46 21
-0.11322 -0.325549 1.191 29 46 21
-0.111371 -0.325549 1.191 26 44 17
-0.109613 -0.325822 1.192 25 43 16
-0.107762 -0.325822 1.192 25 43 16
-0.105911 -0.325822 1.192 24 42 15
-0.104059 -0.325822 1.192 24 42 15
-0.102208 -0.325822 1.192 24 42 15
-0.100357 -0.325822 1.192 23 41 14
-0.0985056 -0.325822 1.192 23 41 14
-0.0966544 -0.325822 1.192 21 41 12
-0.0947237 -0.325549 1.191 21 41 12
-0.092796 -0.325276 1.19 22 42 13
-0.0909479 -0.325276 1.19 21 41 12
-0.0889501 -0.324729 1.188 22 42 13
-0.0870317 -0.324456 1.187 23 43 14
-0.0851883 -0.324456 1.187 24 42 13
-0.0832746 -0.324182 1.186 23 41 12
-0.0813641 -0.323909 1.185 23 41 12
-0.0795237 -0.323909 1.185 23 41 12
-0.0776834 -0.323909 1.185 23 41 14
-0.075843 -0.323909 1.185 23 41 14
-0.0740027 -0.323909 1.185 24 42 15
-0.0721623 -0.323909 1.185 24 42 15
-0.070322 -0.323909 1.185 23 41 14
-0.0684817 -0.323909 1.185 22 40 13
-0.0666413 -0.323909 1.185 22 40 13
-0.064801 -0.323909 1.185 22 40 13
-0.0629606 -0.323909 1.185 20 40 13
-0.0611203 -0.323909 1.185 18 38 11
-0.0592799 -0.323909 1.185 20 40 13
-0.0574396 -0.323909 1.185 22 42 15
-0.0555992 -0.323909 1.185 20 40 13
-0.0537589 -0.323909 1.185 18 38 11
-0.0519185 -0.323909 1.185 18 38 11
-0.0500782 -0.323909 1.185 18 38 11
-0.0482379 -0.323909 1.185 21 41 14
-0.0463975 -0.323909 1.185 22 42 15
-0.0445572 -0.323909 1.185 21 41 14
-0.0427168 -0.323909 1.185 22 42 15
-0.0408765 -0.323909 1.185 20 40 13
-0.0390691 -0.324182 1.186 18 38 11
-0.0371958 -0.323909 1.185 20 40 13
-0.0353554 -0.323909 1.185 18 38 11
-0.0335151 -0.323909 1.185 18 38 11
-0.0316747 -0.323909 1.185 17 37 10
-0.0298344 -0.323909 1.185 18 38 11
-0.0279941 -0.323909 1.185 17 37 10
-0.0261537 -0.323909 1.185 18 38 11
-0.0243134 -0.323909 1.185 20 40 13
-0.022492 -0.324182 1.186 17 37 10
-0.0206501 -0.324182 1.186 17 37 10
-0.018824 -0.324456 1.187 17 37 10
-0.0169806 -0.324456 1.187 17 37 10
-0.0151371 -0.324456 1.187 17 37 10
-0.0133049 -0.324729 1.188 17 37 10
-0.0114695 -0.325002 1.189 16 36 9
-0.00963107 -0.325276 1.19 17 37 10
-0.00778295 -0.325276 1.19 17 37 10
-0.00593983 -0.325549 1.191 17 37 10
-0.0040936 -0.325822 1.192 17 37 10
-0.00224239 -0.325822 1.192 21 41 14
-0.000391825 -0.326369 1.194 21 41 14
0.0014625 -0.326369 1.194 21 41 14
0.0033196 -0.326643 1.195 18 38 11
0.00517547 -0.326643 1.195 18 38 11
0.00703135 -0.326643 1.195 17 37 10
0.00888723 -0.326643 1.195 20 40 13
0.0107431 -0.326643 1.195 18 38 11
0.0125884 -0.326369 1.194 18 38 11
0.0144428 -0.326369 1.194 18 38 11
0.0162834 -0.326096 1.193 21 41 14
0.0181362 -0.326096 1.193 20 40 13
0.0199722 -0.325822 1.192 18 38 11
