ply
format ascii 1.0
comment Created by Open3D
element vertex 1453
property double x
property double y
property double z
property uchar red
property uchar green
property uchar blue
end_header
0.12507 -0.319188 1.188 8 27 2
0.126809 -0.318919 1.187 11 30 5
0.128652 -0.318919 1.187 14 33 8
0.130276 -0.318382 1.185 13 32 7
0.132116 -0.318382 1.185 13 33 6
0.13373 -0.317844 1.183 15 35 8
0.135567 -0.317844 1.183 15 35 8
0.137289 -0.317575 1.182 16 36 9
0.139007 -0.317307 1.181 15 35 8
0.140721 -0.317038 1.18 15 35 8
0.142554 -0.317038 1.18 15 35 8
0.144387 -0.317038 1.18 16 36 9
0.146219 -0.317038 1.18 17 37 10
0.148052 -0.317038 1.18 16 36 9
0.149884 -0.317038 1.18 15 35 8
0.151717 -0.317038 1.18 16 36 9
0.15355 -0.317038 1.18 16 36 9
0.155514 -0.317307 1.181 16 36 9
0.157481 -0.317575 1.182 13 33 6
0.159317 -0.317575 1.182 17 37 10
0.161153 -0.317575 1.182 16 36 9
0.162988 -0.317575 1.182 16 36 9
0.164824 -0.317575 1.182 16 36 9
0.16666 -0.317575 1.182 15 35 8
0.168495 -0.317575 1.182 15 35 8
0.170331 -0.317575 1.182 15 35 8
0.172167 -0.317575 1.182 14 34 7
0.173855 -0.317307 1.181 15 35 8
0.17554 -0.317038 1.18 16 35 10
0.177373 -0.317038 1.18 16 35 10
0.179054 -0.316769 1.179 15 34 9
0.180731 -0.316501 1.178 16 35 10
0.182561 -0.316501 1.178 16 35 10
0.18439 -0.316501 1.178 16 35 10
0.18622 -0.316501 1.178 16 35 10
0.18789 -0.316232 1.177 14 33 8
0.189879 -0.316501 1.178 10 29 4
0.191708 -0.316501 1.178 14 33 8
0.193702 -0.316769 1.179 14 33 8
0.195699 -0.317038 1.18 14 33 8
0.197531 -0.317038 1.18 15 34 9
0.199533 -0.317307 1.181 14 33 8
0.201538 -0.317575 1.182 15 34 9
0.205209 -0.317575 1.182 16 35 10
0.209057 -0.317844 1.183 16 35 10
0.210894 -0.317844 1.183 16 35 10
0.212732 -0.317844 1.183 16 35 10
0.214569 -0.317844 1.183 15 34 9
0.216406 -0.317844 1.183 13 32 7
0.218243 -0.317844 1.183 13 32 7
0.220081 -0.317844 1.183 16 33 8
0.221918 -0.317844 1.183 16 33 8
0.223755 -0.317844 1.183 12 28 6
0.225592 -0.317844 1.183 13 29 7
0.227429 -0.317844 1.183 15 31 9
0.229267 -0.317844 1.183 13 29 7
0.231104 -0.317844 1.183 11 27 5
0.232941 -0.317844 1.183 13 29 7
0.234778 -0.317844 1.183 12 27 7
0.236616 -0.317844 1.183 11 26 6
0.238453 -0.317844 1.183 10 25 5
0.24029 -0.317844 1.183 9 24 4
0.242127 -0.317844 1.183 11 22 6
0.243965 -0.317844 1.183 11 22 6
0.245802 -0.317844 1.183 11 22 8
0.247848 -0.318113 1.184 11 22 8
0.249687 -0.318113 1.184 10 20 8
0.251314 -0.317844 1.183 7 17 5
0.253151 -0.317844 1.183 6 15 6
0.254988 -0.317844 1.183 5 14 5
0.256825 -0.317844 1.183 5 15 3
0.258663 -0.317844 1.183 6 16 4
0.2605 -0.317844 1.183 5 15 3
0.262559 -0.318113 1.184 7 17 5
0.264174 -0.317844 1.183 8 17 8
0.266236 -0.318113 1.184 7 16 7
0.268075 -0.318113 1.184 5 14 5
0.269914 -0.318113 1.184 5 14 5
0.271982 -0.318382 1.185 3 15 5
0.273823 -0.318382 1.185 5 17 7
0.275663 -0.318382 1.185 5 17 7
0.277503 -0.318382 1.185 5 17 7
0.279344 -0.318382 1.185 5 17 7
0.281184 -0.318382 1.185 5 17 7
0.283024 -0.318382 1.185 4 16 6
0.284865 -0.318382 1.185 5 17 7
0.286705 -0.318382 1.185 7 16 7
0.288302 -0.318113 1.184 7 16 7
0.289651 -0.317575 1.182 7 16 7
0.29124 -0.317307 1.181 8 17 8
0.292826 -0.317038 1.18 7 16 7
0.294159 -0.316501 1.178 7 16 7
0.295737 -0.316232 1.177 7 16 7
0.297059 -0.315695 1.175 6 15 6
0.298375 -0.315157 1.173 5 14 5
0.299685 -0.31462 1.171 5 14 5
0.300731 -0.313814 1.168 5 14 5
0.302027 -0.313277 1.166 7 16 7
0.303317 -0.312739 1.164 6 15 6
0.305125 -0.312739 1.164 6 15 6
0.306932 -0.312739 1.164 5 14 5
0.309005 -0.313008 1.165 6 15 6
0.311081 -0.313277 1.166 5 14 5
0.313161 -0.313545 1.167 6 15 6
0.315513 -0.314083 1.169 6 15 6
0.318143 -0.314889 1.172 7 16 7
0.320509 -0.315426 1.174 8 17 8
0.322881 -0.315963 1.176 8 17 8
0.32526 -0.316501 1.178 7 16 7
0.327367 -0.316769 1.179 7 16 7
0.329477 -0.317038 1.18 8 17 8
0.33131 -0.317038 1.18 7 16 7
0.333142 -0.317038 1.18 7 16 7
0.335543 -0.317575 1.182 7 16 7
0.337378 -0.317575 1.182 4 16 6
0.339214 -0.317575 1.182 5 17 7
0.34105 -0.317575 1.182 6 18 8
0.342885 -0.317575 1.182 5 17 7
0.344721 -0.317575 1.182 4 16 6
0.346264 -0.317307 1.181 5 17 7
0.348098 -0.317307 1.181 6 18 8
0.349636 -0.317038 1.18 8 20 10
0.351468 -0.317038 1.18 9 21 11
0.353001 -0.316769 1.179 9 21 11
0.354531 -0.316501 1.178 10 22 12
0.356361 -0.316501 1.178 9 21 11
0.357582 -0.315963 1.176 9 21 11
0.359103 -0.315695 1.175 4 16 6
0.360313 -0.315157 1.173 31 40 38
0.361518 -0.31462 1.171 32 41 39
0.363026 -0.314351 1.17 27 35 37
0.364219 -0.313814 1.168 22 30 32
0.365407 -0.313277 1.166 13 15 25
0.366588 -0.312739 1.164 10 12 22
0.367762 -0.312202 1.162 15 7 12
0.367341 -0.310321 1.155 26 18 23
0.367856 -0.309247 1.151 79 79 80
0.368359 -0.308172 1.147 74 74 75
0.369495 -0.307634 1.145 69 72 75
0.369976 -0.30656 1.141 61 64 67
-0.165039 -0.314669 1.178 6 14 7
-0.161654 -0.315203 1.18 6 14 7
-0.159822 -0.315203 1.18 7 15 8
-0.157989 -0.315203 1.18 6 17 9
-0.156289 -0.31547 1.181 4 15 7
-0.154586 -0.315738 1.182 4 15 7
-0.15275 -0.315738 1.182 6 17 9
-0.150914 -0.315738 1.182 6 17 9
-0.149205 -0.316005 1.183 10 21 13
-0.147367 -0.316005 1.183 10 22 12
-0.145653 -0.316272 1.184 10 22 12
-0.143814 -0.316272 1.184 12 26 11
-0.141976 -0.316272 1.184 12 26 11
-0.140137 -0.316272 1.184 12 26 11
-0.138298 -0.316272 1.184 12 26 11
-0.136574 -0.316539 1.185 11 25 10
-0.13462 -0.316272 1.184 11 25 10
-0.132782 -0.316272 1.184 10 24 9
-0.131053 -0.316539 1.185 10 24 9
-0.129213 -0.316539 1.185 10 24 9
-0.127373 -0.316539 1.185 10 24 9
-0.125532 -0.316539 1.185 10 24 9
-0.123692 -0.316539 1.185 10 24 9
-0.121852 -0.316539 1.185 10 24 9
-0.120011 -0.316539 1.185 10 24 9
-0.118171 -0.316539 1.185 12 23 9
-0.116331 -0.316539 1.185 12 23 9
-0.11449 -0.316539 1.185 11 22 8
-0.11265 -0.316539 1.185 11 22 8
-0.11081 -0.316539 1.185 11 22 8
-0.108969 -0.316539 1.185 11 22 8
-0.107129 -0.316539 1.185 11 22 8
-0.105289 -0.316539 1.185 11 22 8
-0.103448 -0.316539 1.185 11 22 8
-0.101608 -0.316539 1.185 11 22 8
-0.0997675 -0.316539 1.185 11 22 8
-0.0979272 -0.316539 1.185 11 22 8
-0.0960057 -0.316272 1.184 10 21 7
-0.0940874 -0.316005 1.183 10 21 7
-0.0922502 -0.316005 1.183 8 19 5
-0.0903365 -0.315738 1.182 8 19 5
-0.0885008 -0.315738 1.182 8 19 5
-0.0866651 -0.315738 1.182 7 18 4
-0.0848295 -0.315738 1.182 7 18 4
-0.0829938 -0.315738 1.182 8 19 5
-0.0811581 -0.315738 1.182 8 19 5
-0.0793895 -0.316005 1.183 7 18 4
-0.0775523 -0.316005 1.183 6 17 3
-0.075715 -0.316005 1.183 6 17 3
-0.0739402 -0.316272 1.184 7 18 4
-0.0721014 -0.316272 1.184 10 21 7
-0.0702627 -0.316272 1.184 8 19 5
-0.0684239 -0.316272 1.184 8 19 5
-0.0665851 -0.316272 1.184 8 18 6
-0.064801 -0.316539 1.185 8 18 6
-0.0629075 -0.316272 1.184 8 18 6
-0.0610687 -0.316272 1.184 7 17 5
-0.0592299 -0.316272 1.184 6 19 6
-0.0573911 -0.316272 1.184 6 19 6
-0.0555054 -0.316005 1.183 6 19 6
-0.0536228 -0.315738 1.182 5 18 5
-0.0517871 -0.315738 1.182 5 18 5
-0.0499514 -0.315738 1.182 5 18 5
-0.048075 -0.31547 1.181 4 17 4
-0.0462017 -0.315203 1.18 3 16 3
-0.0443692 -0.315203 1.18 6 16 4
-0.0425366 -0.315203 1.18 6 16 4
-0.0406695 -0.314936 1.179 5 15 3
-0.0388385 -0.314936 1.179 5 15 3
-0.0370388 -0.315203 1.18 6 16 4
-0.0352063 -0.315203 1.18 6 16 4
-0.0333737 -0.315203 1.18 6 16 4
-0.0315411 -0.315203 1.18 6 16 4
-0.0297337 -0.31547 1.181 6 16 4
-0.0279232 -0.315738 1.182 7 17 5
-0.0260875 -0.315738 1.182 7 17 5
-0.0242518 -0.315738 1.182 6 16 4
-0.0224161 -0.315738 1.182 6 16 4
-0.0205978 -0.316005 1.183 6 16 4
-0.0187606 -0.316005 1.183 6 16 4
-0.0169234 -0.316005 1.183 5 15 3
-0.0150861 -0.316005 1.183 5 15 3
-0.0132601 -0.316272 1.184 4 14 2
-0.0114213 -0.316272 1.184 5 15 3
-0.0095906 -0.316539 1.185 5 15 3
-0.00774371 -0.316272 1.184 6 15 6
-0.00590991 -0.316539 1.185 6 15 6
-0.00406956 -0.316539 1.185 6 15 6
-0.00222922 -0.316539 1.185 5 14 5
-0.000388872 -0.316539 1.185 5 14 5
0.00145147 -0.316539 1.185 5 14 5
0.00329182 -0.316539 1.185 5 14 5
0.0051365 -0.316806 1.186 4 13 4
0.00697839 -0.316806 1.186 7 16 7
0.00882029 -0.316806 1.186 7 16 7
0.0106622 -0.316806 1.186 6 15 6
0.0125146 -0.317073 1.187 5 14 5
0.0143581 -0.317073 1.187 6 15 6
0.0162152 -0.31734 1.188 5 14 5
0.0180754 -0.317607 1.189 5 14 5
0.0199219 -0.317607 1.189 6 15 6
0.0217685 -0.317607 1.189 5 14 5
0.0235952 -0.31734 1.188 4 13 4
0.0254402 -0.31734 1.188 4 13 4
0.0272852 -0.31734 1.188 6 15 6
0.0291302 -0.31734 1.188 6 15 6
0.0309752 -0.31734 1.188 5 14 5
0.0327926 -0.317073 1.187 7 16 7
0.034636 -0.317073 1.187 5 14 5
0.0364795 -0.317073 1.187 5 14 5
0.038323 -0.317073 1.187 5 14 5
0.0401664 -0.317073 1.187 6 15 6
0.0420452 -0.31734 1.188 7 16 7
0.0438903 -0.31734 1.188 6 15 6
0.0457738 -0.317607 1.189 5 14 5
0.0476203 -0.317607 1.189 5 14 5
0.0495085 -0.317875 1.19 5 14 5
0.0513566 -0.317875 1.19 5 14 5
0.0532047 -0.317875 1.19 5 14 5
0.0550528 -0.317875 1.19 4 13 4
0.0569009 -0.317875 1.19 3 12 3
0.058749 -0.317875 1.19 4 13 4
0.0605971 -0.317875 1.19 4 13 4
0.0624452 -0.317875 1.19 5 14 5
0.0643474 -0.318142 1.191 5 14 5
0.066197 -0.318142 1.191 5 14 5
0.0679896 -0.317875 1.19 5 14 5
0.0698377 -0.317875 1.19 5 14 5
0.0715653 -0.31734 1.188 4 13 4
0.0733485 -0.317073 1.187 4 13 4
0.075192 -0.317073 1.187 5 14 5
0.0769056 -0.316539 1.185 5 14 5
0.078746 -0.316539 1.185 4 13 4
0.0805183 -0.316272 1.184 5 14 5
0.0822876 -0.316005 1.183 7 16 7
0.0841248 -0.316005 1.183 6 16 4
0.0858894 -0.315738 1.182 5 15 3
0.0877251 -0.315738 1.182 6 16 4
0.0895607 -0.315738 1.182 6 16 4
0.0913964 -0.315738 1.182 6 16 4
0.0932321 -0.315738 1.182 6 16 4
0.0950678 -0.315738 1.182 6 17 3
0.0969035 -0.315738 1.182 6 17 3
0.0987392 -0.315738 1.182 4 18 3
0.10066 -0.316005 1.183 4 18 3
0.102584 -0.316272 1.184 5 19 4
0.104511 -0.316539 1.185 6 20 5
0.106351 -0.316539 1.185 6 20 5
0.108283 -0.316806 1.186 6 20 5
0.110218 -0.317073 1.187 9 23 6
0.112061 -0.317073 1.187 10 24 7
0.114 -0.31734 1.188 10 25 5
0.115845 -0.31734 1.188 4 19 0
0.117789 -0.317607 1.189 11 27 5
0.119636 -0.317607 1.189 11 27 5
0.121483 -0.317607 1.189 11 27 5
0.123225 -0.31734 1.188 13 29 7
0.12507 -0.31734 1.188 10 28 6
0.126809 -0.317073 1.187 11 29 7
0.128652 -0.317073 1.187 11 29 7
0.130386 -0.316806 1.186 13 31 9
0.132116 -0.316539 1.185 13 32 7
0.133843 -0.316272 1.184 14 33 8
0.135567 -0.316005 1.183 14 33 8
0.137289 -0.315738 1.182 16 35 10
0.139124 -0.315738 1.182 15 34 9
0.140841 -0.31547 1.181 16 35 10
0.142675 -0.31547 1.181 16 35 10
0.144509 -0.31547 1.181 16 35 10
0.146343 -0.31547 1.181 16 36 9
0.148177 -0.31547 1.181 17 37 10
0.150011 -0.31547 1.181 15 35 8
0.151845 -0.31547 1.181 16 36 9
0.15381 -0.315738 1.182 16 36 9
0.155645 -0.315738 1.182 16 36 9
0.157481 -0.315738 1.182 13 33 6
0.159317 -0.315738 1.182 17 37 10
0.161289 -0.316005 1.183 16 36 9
0.163126 -0.316005 1.183 16 36 9
0.164963 -0.316005 1.183 15 35 8
0.16666 -0.315738 1.182 14 34 7
0.168495 -0.315738 1.182 14 34 7
0.170331 -0.315738 1.182 14 34 7
0.172167 -0.315738 1.182 14 34 7
0.173855 -0.31547 1.181 14 34 7
0.175689 -0.31547 1.181 15 34 9
0.177373 -0.315203 1.18 16 35 10
0.179054 -0.314936 1.179 15 34 9
0.180885 -0.314936 1.179 16 35 10
0.182561 -0.314669 1.178 16 35 10
0.18439 -0.314669 1.178 16 35 10
0.18622 -0.314669 1.178 15 34 9
0.188049 -0.314669 1.178 15 34 9
0.189879 -0.314669 1.178 13 32 7
0.191871 -0.314936 1.179 15 34 9
0.193866 -0.315203 1.18 14 33 8
0.195699 -0.315203 1.18 14 33 8
0.197531 -0.315203 1.18 15 34 9
0.199533 -0.31547 1.181 14 33 8
0.201538 -0.315738 1.182 16 35 10
0.205383 -0.316005 1.183 16 35 10
0.207395 -0.316272 1.184 16 35 10
0.209234 -0.316272 1.184 16 35 10
0.210894 -0.316005 1.183 16 35 10
0.212911 -0.316272 1.184 15 34 9
0.214569 -0.316005 1.183 14 33 8
0.218428 -0.316272 1.184 13 32 7
0.220267 -0.316272 1.184 16 32 10
0.222105 -0.316272 1.184 18 34 12
0.223944 -0.316272 1.184 15 31 9
0.225783 -0.316272 1.184 12 28 6
0.227622 -0.316272 1.184 15 31 9
0.22946 -0.316272 1.184 15 31 9
0.231299 -0.316272 1.184 13 28 8
0.234977 -0.316272 1.184 12 27 7
0.236816 -0.316272 1.184 10 25 5
0.238654 -0.316272 1.184 10 24 7
0.240493 -0.316272 1.184 9 23 6
0.242332 -0.316272 1.184 11 22 6
0.244171 -0.316272 1.184 11 22 6
0.24601 -0.316272 1.184 10 21 7
0.247848 -0.316272 1.184 11 22 8
0.249687 -0.316272 1.184 8 21 8
0.251526 -0.316272 1.184 5 18 5
0.253151 -0.316005 1.183 4 16 6
0.254988 -0.316005 1.183 5 17 7
0.256825 -0.316005 1.183 4 17 4
0.258663 -0.316005 1.183 5 18 5
0.2605 -0.316005 1.183 3 16 3
0.262337 -0.316005 1.183 5 18 5
0.264174 -0.316005 1.183 6 18 8
0.266236 -0.316272 1.184 5 17 7
0.268075 -0.316272 1.184 3 15 5
0.269914 -0.316272 1.184 3 15 5
0.271982 -0.316539 1.185 3 15 5
0.273823 -0.316539 1.185 5 17 7
0.275663 -0.316539 1.185 7 16 7
0.277503 -0.316539 1.185 7 16 7
0.279344 -0.316539 1.185 7 16 7
0.281184 -0.316539 1.185 8 17 8
0.283024 -0.316539 1.185 6 15 6
0.284865 -0.316539 1.185 8 17 8
0.286705 -0.316539 1.185 7 16 7
0.288302 -0.316272 1.184 7 16 7
0.289896 -0.316005 1.183 7 16 7
0.29124 -0.31547 1.181 8 17 8
0.292826 -0.315203 1.18 6 17 9
0.294408 -0.314936 1.179 6 17 9
0.295988 -0.314669 1.178 6 18 8
0.297059 -0.313868 1.175 5 17 7
0.298375 -0.313334 1.173 4 16 6
0.299685 -0.312799 1.171 3 15 5
0.300989 -0.312265 1.169 4 16 6
0.302286 -0.311731 1.167 5 17 7
0.303838 -0.311464 1.166 4 16 6
0.305125 -0.310929 1.164 4 16 6
0.306932 -0.310929 1.164 6 15 6
0.30874 -0.310929 1.164 7 16 7
0.310815 -0.311197 1.165 7 16 7
0.313161 -0.311731 1.167 7 16 7
0.315513 -0.312265 1.169 7 16 7
0.317871 -0.312799 1.171 11 20 11
0.320236 -0.313334 1.173 11 20 11
0.322607 -0.313868 1.175 11 20 11
0.324984 -0.314402 1.177 8 17 8
0.327089 -0.314669 1.178 7 16 7
0.328919 -0.314669 1.178 7 16 7
0.331029 -0.314936 1.179 8 17 8
0.333142 -0.315203 1.18 7 16 7
0.334975 -0.315203 1.18 7 16 7
0.336808 -0.315203 1.18 6 15 6
0.338927 -0.31547 1.181 7 16 7
0.340761 -0.31547 1.181 8 17 8
0.342595 -0.31547 1.181 7 16 7
0.344429 -0.31547 1.181 4 16 6
0.346264 -0.31547 1.181 5 17 7
0.348098 -0.31547 1.181 5 17 7
0.349636 -0.315203 1.18 6 18 8
0.351468 -0.315203 1.18 6 18 8
0.353301 -0.315203 1.18 6 18 8
0.354832 -0.314936 1.179 8 20 10
0.356361 -0.314669 1.178 9 21 11
0.357886 -0.314402 1.177 9 21 11
0.359103 -0.313868 1.175 4 16 6
0.360621 -0.313601 1.174 29 39 34
0.362135 -0.313334 1.173 32 42 37
0.363336 -0.312799 1.171 26 33 37
0.364843 -0.312532 1.17 16 23 27
0.366033 -0.311998 1.168 8 9 17
0.367217 -0.311464 1.166 8 9 17
0.368395 -0.310929 1.164 12 4 9
0.367659 -0.308792 1.156 33 25 30
0.367856 -0.307457 1.151 80 80 81
0.369172 -0.305587 1.144 66 69 72
0.369652 -0.304519 1.14 59 62 65
-0.165039 -0.312837 1.178 7 15 8
-0.163348 -0.313103 1.179 6 14 7
-0.161654 -0.313369 1.18 5 13 6
-0.159957 -0.313634 1.181 6 14 7
-0.158257 -0.3139 1.182 8 16 9
-0.156421 -0.3139 1.182 5 13 6
-0.154586 -0.3139 1.182 3 14 6
-0.15275 -0.3139 1.182 6 17 9
-0.151042 -0.314165 1.183 8 19 11
-0.149205 -0.314165 1.183 10 21 13
-0.147367 -0.314165 1.183 9 21 11
-0.145653 -0.314431 1.184 10 22 12
-0.143814 -0.314431 1.184 10 23 10
-0.141976 -0.314431 1.184 11 24 11
-0.140137 -0.314431 1.184 12 26 11
-0.138298 -0.314431 1.184 12 26 11
-0.136344 -0.314165 1.183 10 24 9
-0.13462 -0.314431 1.184 10 24 9
-0.132669 -0.314165 1.183 10 24 9
-0.130832 -0.314165 1.183 10 24 9
-0.129104 -0.314431 1.184 10 24 9
-0.127265 -0.314431 1.184 10 24 9
-0.125532 -0.314696 1.185 9 23 8
-0.123692 -0.314696 1.185 9 23 8
-0.121749 -0.314431 1.184 9 23 8
-0.11991 -0.314431 1.184 9 23 8
-0.118071 -0.314431 1.184 12 23 9
-0.11449 -0.314696 1.185 11 22 8
-0.11265 -0.314696 1.185 11 22 8
-0.11081 -0.314696 1.185 11 22 8
-0.108969 -0.314696 1.185 11 22 8
-0.107219 -0.314962 1.186 11 22 8
-0.105377 -0.314962 1.186 10 21 7
-0.103536 -0.314962 1.186 10 21 7
-0.101694 -0.314962 1.186 8 19 5
-0.0997675 -0.314696 1.185 8 19 5
-0.0979272 -0.314696 1.185 8 19 5
-0.0960868 -0.314696 1.185 8 19 5
-0.0942465 -0.314696 1.185 10 21 7
-0.0924061 -0.314696 1.185 10 21 7
-0.0904894 -0.314431 1.184 8 19 5
-0.0885757 -0.314165 1.183 8 19 5
-0.0868118 -0.314431 1.184 8 19 5
-0.084973 -0.314431 1.184 8 19 5
-0.0831342 -0.314431 1.184 8 19 5
-0.0812954 -0.314431 1.184 7 18 4
-0.0794566 -0.314431 1.184 8 19 5
-0.0776178 -0.314431 1.184 7 18 4
-0.075779 -0.314431 1.184 6 17 3
-0.0739402 -0.314431 1.184 6 17 3
-0.0721623 -0.314696 1.185 10 21 7
-0.070322 -0.314696 1.185 7 17 5
-0.0684817 -0.314696 1.185 8 18 6
-0.0666413 -0.314696 1.185 8 18 6
-0.064801 -0.314696 1.185 8 18 6
-0.0629606 -0.314696 1.185 10 20 8
-0.0611203 -0.314696 1.185 8 18 6
-0.0592799 -0.314696 1.185 5 18 5
-0.0574396 -0.314696 1.185 6 19 6
-0.0555523 -0.314431 1.184 6 19 6
-0.0536682 -0.314165 1.183 5 18 5
-0.0518309 -0.314165 1.183 4 17 4
-0.0499514 -0.3139 1.182 4 17 4
-0.0481157 -0.3139 1.182 3 16 3
-0.0462017 -0.313369 1.18 2 15 2
-0.0443692 -0.313369 1.18 6 16 4
-0.0425366 -0.313369 1.18 5 15 3
-0.0406695 -0.313103 1.179 4 14 2
-0.0388385 -0.313103 1.179 5 15 3
-0.0370074 -0.313103 1.179 5 15 3
-0.0351764 -0.313103 1.179 6 16 4
-0.0333454 -0.313103 1.179 6 16 4
-0.0315144 -0.313103 1.179 6 16 4
-0.0297085 -0.313369 1.18 6 16 4
-0.0278759 -0.313369 1.18 6 16 4
-0.0260875 -0.3139 1.182 6 16 4
-0.0242518 -0.3139 1.182 6 16 4
-0.0224161 -0.3139 1.182 6 16 4
-0.0205978 -0.314165 1.183 6 16 4
-0.0187606 -0.314165 1.183 6 16 4
-0.0169234 -0.314165 1.183 5 15 3
-0.0150861 -0.314165 1.183 5 14 5
-0.0132601 -0.314431 1.184 5 14 5
-0.0114213 -0.314431 1.184 6 15 6
-0.00958251 -0.314431 1.184 6 15 6
-0.00774371 -0.314431 1.184 6 15 6
-0.00590492 -0.314431 1.184 6 15 6
-0.00406613 -0.314431 1.184 6 15 6
-0.00222734 -0.314431 1.184 5 14 5
-0.000388544 -0.314431 1.184 4 13 4
0.00144902 -0.314165 1.183 4 13 4
0.00328904 -0.314431 1.184 4 13 4
0.00512783 -0.314431 1.184 5 14 5
0.00697251 -0.314696 1.185 7 16 7
0.00881286 -0.314696 1.185 6 15 6
0.0106532 -0.314696 1.185 6 15 6
0.0124935 -0.314696 1.185 6 15 6
0.014346 -0.314962 1.186 6 15 6
0.0162015 -0.315228 1.187 6 15 6
0.018045 -0.315228 1.187 5 14 5
0.0198884 -0.315228 1.187 6 15 6
0.0217319 -0.315228 1.187 7 16 7
0.0235753 -0.315228 1.187 5 14 5
0.0254188 -0.315228 1.187 4 13 4
0.0272622 -0.315228 1.187 5 14 5
0.0291057 -0.315228 1.187 4 13 4
0.0309491 -0.315228 1.187 6 15 6
0.0327926 -0.315228 1.187 7 16 7
0.034636 -0.315228 1.187 7 16 7
0.0364795 -0.315228 1.187 7 16 7
0.038323 -0.315228 1.187 6 15 6
0.0401664 -0.315228 1.187 7 16 7
0.0420099 -0.315228 1.187 7 16 7
0.0438533 -0.315228 1.187 7 16 7
0.0456968 -0.315228 1.187 7 16 7
0.0475803 -0.315493 1.188 7 16 7
0.0494253 -0.315493 1.188 6 15 6
0.0513134 -0.315759 1.189 5 14 5
0.05316 -0.315759 1.189 5 14 5
0.0550065 -0.315759 1.189 5 14 5
0.0568531 -0.315759 1.189 3 12 3
0.058749 -0.316024 1.19 3 12 3
0.0605971 -0.316024 1.19 5 14 5
0.0624452 -0.316024 1.19 5 14 5
0.0642934 -0.316024 1.19 5 14 5
0.0661415 -0.316024 1.19 5 14 5
0.0679896 -0.316024 1.19 5 14 5
0.0698377 -0.316024 1.19 5 14 5
0.0716256 -0.315759 1.189 6 15 6
0.0733485 -0.315228 1.187 6 15 6
0.0751286 -0.314962 1.186 6 15 6
0.0769705 -0.314962 1.186 5 14 5
0.078746 -0.314696 1.185 4 13 4
0.0805183 -0.314431 1.184 6 15 6
0.0823571 -0.314431 1.184 6 15 6
0.0841248 -0.314165 1.183 5 15 3
0.085962 -0.314165 1.183 6 16 4
0.0877993 -0.314165 1.183 6 16 4
0.0896365 -0.314165 1.183 6 16 4
0.0913964 -0.3139 1.182 5 15 3
0.093311 -0.314165 1.183 5 15 3
0.0951482 -0.314165 1.183 6 16 4
0.0969855 -0.314165 1.183 6 16 4
0.0989062 -0.314431 1.184 6 16 4
0.10083 -0.314696 1.185 7 17 5
0.10267 -0.314696 1.185 5 19 4
0.104511 -0.314696 1.185 5 19 4
0.106441 -0.314962 1.186 6 20 5
0.108374 -0.315228 1.187 6 20 5
0.110218 -0.315228 1.187 8 22 5
0.112155 -0.315493 1.188 8 22 5
0.114 -0.315493 1.188 9 23 6
0.115943 -0.315759 1.189 8 22 5
0.117789 -0.315759 1.189 13 28 8
0.119636 -0.315759 1.189 11 26 6
0.12138 -0.315493 1.188 11 26 6
0.123329 -0.315759 1.189 12 27 7
0.125176 -0.315759 1.189 13 28 8
0.126915 -0.315493 1.188 15 30 10
0.128652 -0.315228 1.187 13 31 9
0.130496 -0.315228 1.187 13 31 9
0.132116 -0.314696 1.185 11 29 7
0.133956 -0.314696 1.185 13 31 9
0.135797 -0.314696 1.185 11 30 5
0.137521 -0.314431 1.184 13 32 7
0.139242 -0.314165 1.183 13 32 7
0.14096 -0.3139 1.182 15 34 9
0.142796 -0.3139 1.182 20 39 14
0.144631 -0.3139 1.182 14 33 8
0.146467 -0.3139 1.182 13 32 7
0.148303 -0.3139 1.182 15 34 9
0.150138 -0.3139 1.182 13 32 7
0.151974 -0.3139 1.182 14 33 8
0.15381 -0.3139 1.182 15 34 9
0.155777 -0.314165 1.183 16 35 10
0.157614 -0.314165 1.183 13 32 7
0.159452 -0.314165 1.183 16 35 10
0.161289 -0.314165 1.183 16 35 10
0.163126 -0.314165 1.183 15 34 9
0.164963 -0.314165 1.183 13 32 7
0.166801 -0.314165 1.183 14 33 8
0.168495 -0.3139 1.182 15 34 9
0.170331 -0.3139 1.182 15 34 9
0.172167 -0.3139 1.182 15 34 9
0.173855 -0.313634 1.181 15 34 9
0.17554 -0.313369 1.18 16 35 10
0.177373 -0.313369 1.18 16 35 10
0.179054 -0.313103 1.179 15 34 9
0.180885 -0.313103 1.179 15 34 9
0.182561 -0.312837 1.178 14 33 8
0.18439 -0.312837 1.178 14 33 8
0.18622 -0.312837 1.178 14 33 8
0.188049 -0.312837 1.178 14 33 8
0.189879 -0.312837 1.178 10 29 4
0.191871 -0.313103 1.179 14 33 8
0.193866 -0.313369 1.18 16 35 10
0.195699 -0.313369 1.18 14 33 8
0.197699 -0.313634 1.181 14 33 8
0.201538 -0.3139 1.182 16 35 10
0.203373 -0.3139 1.182 16 35 10
0.205383 -0.314165 1.183 17 36 11
0.207395 -0.314431 1.184 16 35 10
0.209234 -0.314431 1.184 16 35 10
0.211073 -0.314431 1.184 16 35 10
0.212911 -0.314431 1.184 14 33 8
0.21475 -0.314431 1.184 14 33 8
0.216772 -0.314696 1.185 14 33 8
0.218612 -0.314696 1.185 14 33 8
0.220453 -0.314696 1.185 15 33 11
0.222293 -0.314696 1.185 16 34 12
0.224133 -0.314696 1.185 17 33 11
0.225974 -0.314696 1.185 13 29 7
0.228006 -0.314962 1.186 17 29 10
0.229654 -0.314696 1.185 15 27 8
0.231495 -0.314696 1.185 12 27 7
0.233335 -0.314696 1.185 12 27 7
0.235175 -0.314696 1.185 12 27 7
0.237016 -0.314696 1.185 10 25 5
0.238856 -0.314696 1.185 10 24 7
0.240696 -0.314696 1.185 10 24 7
0.242537 -0.314696 1.185 10 21 5
0.244377 -0.314696 1.185 10 21 5
0.246217 -0.314696 1.185 10 21 7
0.247848 -0.314431 1.184 10 21 7
0.249687 -0.314431 1.184 10 20 8
0.251526 -0.314431 1.184 8 18 6
0.253365 -0.314431 1.184 6 15 6
0.254988 -0.314165 1.183 8 17 8
0.256825 -0.314165 1.183 7 17 5
0.258663 -0.314165 1.183 7 17 5
0.2605 -0.314165 1.183 5 15 3
0.262337 -0.314165 1.183 7 17 5
0.264398 -0.314431 1.184 7 16 7
0.266236 -0.314431 1.184 7 16 7
0.268302 -0.314696 1.185 5 14 5
0.270142 -0.314696 1.185 5 14 5
0.271982 -0.314696 1.185 5 14 5
0.273823 -0.314696 1.185 6 15 6
0.275896 -0.314962 1.186 5 17 7
0.277503 -0.314696 1.185 5 17 7
0.279579 -0.314962 1.186 5 17 7
0.281184 -0.314696 1.185 5 17 7
0.283024 -0.314696 1.185 4 16 6
0.284865 -0.314696 1.185 5 17 7
0.286705 -0.314696 1.185 5 17 7
0.288302 -0.314431 1.184 5 17 7
0.289896 -0.314165 1.183 5 17 7
0.291486 -0.3139 1.182 6 18 8
0.292826 -0.313369 1.18 6 17 9
0.294408 -0.313103 1.179 6 17 9
0.295988 -0.312837 1.178 6 18 8
0.297565 -0.312572 1.177 5 17 7
0.298884 -0.312041 1.175 5 17 7
0.299941 -0.311244 1.172 4 16 6
0.301246 -0.310713 1.17 6 15 6
0.302545 -0.310182 1.168 7 16 7
0.303838 -0.309651 1.166 7 16 7
0.305387 -0.309385 1.165 7 16 7
0.306932 -0.30912 1.164 6 15 6
0.30874 -0.30912 1.164 7 16 7
0.310815 -0.309385 1.165 7 16 7
0.313161 -0.309916 1.167 7 16 7
0.315513 -0.310447 1.169 6 15 6
0.317871 -0.310979 1.171 10 19 10
0.319963 -0.311244 1.172 8 17 8
0.322332 -0.311775 1.174 8 17 8
0.324431 -0.312041 1.175 8 17 8
0.326534 -0.312306 1.176 7 16 7
0.328919 -0.312837 1.178 7 16 7
0.330748 -0.312837 1.178 7 16 7
0.332578 -0.312837 1.178 8 17 8
0.334691 -0.313103 1.179 7 16 7
0.336808 -0.313369 1.18 6 15 6
0.33864 -0.313369 1.18 7 16 7
0.340473 -0.313369 1.18 5 17 7
0.342595 -0.313634 1.181 5 17 7
0.344429 -0.313634 1.181 4 16 6
0.346264 -0.313634 1.181 5 17 7
0.348098 -0.313634 1.181 5 17 7
0.349932 -0.313634 1.181 5 17 7
0.351468 -0.313369 1.18 5 17 7
0.353301 -0.313369 1.18 5 17 7
0.355133 -0.313369 1.18 8 20 10
0.356361 -0.312837 1.178 8 20 10
0.35819 -0.312837 1.178 8 20 10
0.359409 -0.312306 1.176 1 13 3
0.360928 -0.312041 1.175 23 32 30
0.362444 -0.311775 1.174 31 40 38
0.363957 -0.31151 1.173 25 30 33
0.365155 -0.310979 1.171 10 15 18
0.36666 -0.310713 1.17 5 7 12
0.367847 -0.310182 1.168 6 8 13
0.369028 -0.309651 1.166 8 4 5
0.367659 -0.306995 1.156 36 32 33
0.367856 -0.305667 1.151 81 79 80
0.369172 -0.303808 1.144 64 64 65
0.369652 -0.302746 1.14 64 64 65
-0.165179 -0.31127 1.179 6 14 7
-0.163487 -0.311534 1.18 6 14 7
-0.161791 -0.311798 1.181 6 14 7
-0.160093 -0.312062 1.182 5 13 6
-0.158257 -0.312062 1.182 6 14 7
-0.156554 -0.312326 1.183 5 13 6
-0.154716 -0.312326 1.183 4 15 7
-0.152879 -0.312326 1.183 6 17 9
-0.151042 -0.312326 1.183 8 19 11
-0.149205 -0.312326 1.183 9 20 12
-0.147367 -0.312326 1.183 9 21 11
-0.145653 -0.31259 1.184 10 22 12
-0.143693 -0.312326 1.183 10 23 10
-0.141856 -0.312326 1.183 10 23 10
-0.140018 -0.312326 1.183 12 26 11
-0.138181 -0.312326 1.183 12 26 11
-0.136229 -0.312062 1.182 11 25 10
-0.134393 -0.312062 1.182 9 23 8
-0.132557 -0.312062 1.182 10 24 9
-0.128995 -0.312326 1.183 10 24 9
-0.127158 -0.312326 1.183 11 25 10
-0.12532 -0.312326 1.183 9 23 8
-0.123483 -0.312326 1.183 9 23 8
-0.121646 -0.312326 1.183 9 23 8
-0.11991 -0.31259 1.184 9 23 8
-0.118071 -0.31259 1.184 10 24 9
-0.11449 -0.312854 1.185 12 23 9
-0.11265 -0.312854 1.185 11 22 8
-0.11081 -0.312854 1.185 11 22 8
-0.107219 -0.313118 1.186 11 22 8
-0.105466 -0.313382 1.187 10 21 7
-0.103623 -0.313382 1.187 10 21 7
-0.101779 -0.313382 1.187 10 21 7
-0.0999359 -0.313382 1.187 8 19 5
-0.0980098 -0.313118 1.186 8 19 5
-0.0961679 -0.313118 1.186 10 21 7
-0.094326 -0.313118 1.186 10 21 7
-0.0924841 -0.313118 1.186 10 21 7
-0.0905658 -0.312854 1.185 8 19 5
-0.0887254 -0.312854 1.185 8 19 5
-0.0868851 -0.312854 1.185 8 19 5
-0.0850448 -0.312854 1.185 8 19 5
-0.0832044 -0.312854 1.185 8 19 5
-0.0813641 -0.312854 1.185 8 19 5
-0.0795237 -0.312854 1.185 8 19 5
-0.0776834 -0.312854 1.185 8 19 5
-0.075843 -0.312854 1.185 8 19 5
-0.0740027 -0.312854 1.185 8 18 6
-0.0721623 -0.312854 1.185 10 20 8
-0.070322 -0.312854 1.185 7 17 5
-0.0684817 -0.312854 1.185 6 16 4
-0.0666413 -0.312854 1.185 5 15 3
-0.064801 -0.312854 1.185 5 15 3
-0.0629606 -0.312854 1.185 8 18 6
-0.0611718 -0.313118 1.186 8 18 6
-0.0593299 -0.313118 1.186 6 19 6
-0.0574396 -0.312854 1.185 6 19 6
-0.0555992 -0.312854 1.185 6 18 8
-0.0537135 -0.31259 1.184 5 17 7
-0.0518747 -0.31259 1.184 4 17 4
-0.0499937 -0.312326 1.183 5 18 5
-0.0481157 -0.312062 1.182 3 16 3
-0.0462409 -0.311798 1.181 2 15 2
-0.0443692 -0.311534 1.18 3 16 3
-0.0425366 -0.311534 1.18 2 15 2
-0.0406695 -0.31127 1.179 4 14 2
-0.0388055 -0.311006 1.178 6 16 4
-0.0369761 -0.311006 1.178 5 14 5
-0.0351466 -0.311006 1.178 6 15 6
-0.0333454 -0.31127 1.179 6 15 6
-0.0315144 -0.31127 1.179 5 14 5
-0.0297085 -0.311534 1.18 6 15 6
-0.0278759 -0.311534 1.18 6 15 6
-0.0260875 -0.312062 1.182 7 16 7
-0.0242518 -0.312062 1.182 7 16 7
-0.0224161 -0.312062 1.182 5 14 5
-0.0205978 -0.312326 1.183 4 13 4
-0.0187765 -0.31259 1.184 4 13 4
-0.0169377 -0.31259 1.184 5 14 5
-0.0150989 -0.31259 1.184 5 14 5
-0.0132601 -0.31259 1.184 4 13 4
-0.0114213 -0.31259 1.184 7 16 7
-0.00958251 -0.31259 1.184 6 15 6
-0.00774371 -0.31259 1.184 7 16 7
-0.00590492 -0.31259 1.184 5 14 5
-0.00406269 -0.312326 1.183 4 13 4
-0.00222545 -0.312326 1.183 4 13 4
-0.000387887 -0.312062 1.182 4 13 4
0.0014478 -0.312062 1.182 3 12 3
0.00328349 -0.312062 1.182 5 14 5
0.00511917 -0.312062 1.182 6 15 6
0.00695486 -0.312062 1.182 6 15 6
0.00879798 -0.312326 1.183 6 15 6
0.0106352 -0.312326 1.183 6 15 6
0.0124725 -0.312326 1.183 5 14 5
0.0143097 -0.312326 1.183 5 14 5
0.0161606 -0.31259 1.184 4 13 4
0.0180146 -0.312854 1.185 5 14 5
0.0198549 -0.312854 1.185 5 14 5
0.0216953 -0.312854 1.185 6 15 6
0.0235356 -0.312854 1.185 7 16 7
0.025376 -0.312854 1.185 5 14 5
0.0272163 -0.312854 1.185 5 14 5
0.0290567 -0.312854 1.185 5 14 5
0.0309231 -0.313118 1.186 6 15 6
0.032765 -0.313118 1.186 6 15 6
0.0345777 -0.312854 1.185 6 15 6
0.0364488 -0.313118 1.186 6 15 6
0.0382907 -0.313118 1.186 5 14 5
0.0401664 -0.313382 1.187 6 15 6
0.0420099 -0.313382 1.187 7 16 7
0.0438533 -0.313382 1.187 7 16 7
0.0456968 -0.313382 1.187 8 17 8
0.0475402 -0.313382 1.187 7 16 7
0.0493837 -0.313382 1.187 6 15 6
0.0512271 -0.313382 1.187 5 14 5
0.0530706 -0.313382 1.187 6 15 6
0.0549603 -0.313646 1.188 5 14 5
0.0568053 -0.313646 1.188 4 13 4
0.0586503 -0.313646 1.188 4 13 4
0.0604953 -0.313646 1.188 5 14 5
0.0623928 -0.31391 1.189 6 15 6
0.0642393 -0.31391 1.189 6 15 6
0.0660859 -0.31391 1.189 5 14 5
0.0679324 -0.31391 1.189 5 14 5
0.069779 -0.31391 1.189 6 15 6
0.0715653 -0.313646 1.188 6 15 6
0.0733485 -0.313382 1.187 7 16 7
0.075192 -0.313382 1.187 7 16 7
0.0769056 -0.312854 1.185 5 14 5
0.078746 -0.312854 1.185 4 13 4
0.0805183 -0.31259 1.184 6 15 6
0.0824267 -0.312854 1.185 6 15 6
0.0841248 -0.312326 1.183 7 16 7
0.085962 -0.312326 1.183 7 16 7
0.0877993 -0.312326 1.183 7 17 5
0.0895607 -0.312062 1.182 7 17 5
0.0913964 -0.312062 1.182 4 14 2
0.0932321 -0.312062 1.182 5 15 3
0.0951482 -0.312326 1.183 6 16 4
0.0969855 -0.312326 1.183 7 17 5
0.0989062 -0.31259 1.184 7 17 5
0.10083 -0.312854 1.185 7 17 5
0.10267 -0.312854 1.185 5 18 5
0.104599 -0.313118 1.186 5 18 5
0.106531 -0.313382 1.187 6 20 5
0.108374 -0.313382 1.187 6 20 5
0.110218 -0.313382 1.187 6 20 5
0.112155 -0.313646 1.188 6 20 5
0.114096 -0.31391 1.189 6 20 5
0.115943 -0.31391 1.189 6 20 5
0.117789 -0.31391 1.189 8 22 5
0.119636 -0.31391 1.189 9 23 6
0.121483 -0.31391 1.189 9 24 4
0.123225 -0.313646 1.188 8 23 3
0.12507 -0.313646 1.188 13 28 8
0.126809 -0.313382 1.187 16 31 11
0.128652 -0.313382 1.187 13 30 10
0.130496 -0.313382 1.187 13 30 10
0.132339 -0.313382 1.187 13 31 9
0.134069 -0.313118 1.186 14 32 10
0.135911 -0.313118 1.186 13 31 9
0.137637 -0.312854 1.185 11 29 7
0.139477 -0.312854 1.185 11 29 7
0.141318 -0.312854 1.185 8 26 4
0.143158 -0.312854 1.185 10 29 4
0.144876 -0.31259 1.184 11 30 5
0.146715 -0.31259 1.184 13 32 7
0.148428 -0.312326 1.183 15 34 9
0.150392 -0.31259 1.184 13 32 7
0.152231 -0.31259 1.184 13 32 7
0.15407 -0.31259 1.184 15 34 9
0.155909 -0.31259 1.184 16 35 10
0.157748 -0.31259 1.184 15 34 9
0.159586 -0.31259 1.184 15 34 9
0.161425 -0.31259 1.184 14 33 8
0.163264 -0.31259 1.184 13 32 7
0.164963 -0.312326 1.183 14 33 8
0.166801 -0.312326 1.183 15 34 9
0.168495 -0.312062 1.182 15 34 9
0.170331 -0.312062 1.182 15 34 9
0.172167 -0.312062 1.182 15 34 9
0.173855 -0.311798 1.181 14 33 8
0.17554 -0.311534 1.18 16 35 10
0.177223 -0.31127 1.179 16 35 10
0.179054 -0.31127 1.179 16 35 10
0.180731 -0.311006 1.178 16 35 10
0.182561 -0.311006 1.178 17 36 11
0.18439 -0.311006 1.178 17 36 11
0.18622 -0.311006 1.178 16 35 10
0.188209 -0.31127 1.179 15 34 9
0.19004 -0.31127 1.179 8 27 2
0.191871 -0.31127 1.179 7 26 1
0.193866 -0.311534 1.18 16 35 10
0.195865 -0.311798 1.181 15 34 9
0.199702 -0.312062 1.182 15 34 9
0.201538 -0.312062 1.182 15 34 9
0.203545 -0.312326 1.183 15 34 9
0.205556 -0.31259 1.184 17 36 11
0.207395 -0.31259 1.184 17 36 11
0.209411 -0.312854 1.185 17 36 11
0.211251 -0.312854 1.185 17 36 11
0.213091 -0.312854 1.185 17 36 11
0.214932 -0.312854 1.185 17 36 11
0.216772 -0.312854 1.185 15 33 11
0.218612 -0.312854 1.185 16 34 12
0.220639 -0.313118 1.186 15 33 11
0.222481 -0.313118 1.186 15 33 11
0.224322 -0.313118 1.186 17 33 11
0.226355 -0.313382 1.187 15 31 9
0.228198 -0.313382 1.187 15 30 10
0.230042 -0.313382 1.187 11 26 6
0.231885 -0.313382 1.187 11 26 6
0.233729 -0.313382 1.187 12 27 7
0.235572 -0.313382 1.187 12 27 7
0.237416 -0.313382 1.187 10 25 5
0.239058 -0.313118 1.186 11 25 8
0.240899 -0.313118 1.186 11 25 8
0.242537 -0.312854 1.185 10 24 7
0.244377 -0.312854 1.185 9 23 6
0.246217 -0.312854 1.185 10 21 7
0.248058 -0.312854 1.185 10 21 7
0.249687 -0.31259 1.184 10 20 8
0.251526 -0.31259 1.184 8 18 6
0.253365 -0.31259 1.184 6 19 6
0.255204 -0.31259 1.184 6 19 6
0.256825 -0.312326 1.183 6 19 6
0.258663 -0.312326 1.183 6 19 6
0.2605 -0.312326 1.183 5 18 5
0.262559 -0.31259 1.184 5 18 5
0.264398 -0.31259 1.184 5 17 7
0.266461 -0.312854 1.185 5 17 7
0.268075 -0.31259 1.184 4 16 6
0.270142 -0.312854 1.185 3 15 5
0.271982 -0.312854 1.185 3 15 5
0.273823 -0.312854 1.185 3 15 5
0.275663 -0.312854 1.185 4 16 6
0.277503 -0.312854 1.185 5 17 7
0.279579 -0.313118 1.186 5 17 7
0.281184 -0.312854 1.185 6 18 8
0.283024 -0.312854 1.185 6 18 8
0.284865 -0.312854 1.185 6 18 8
0.286705 -0.312854 1.185 6 18 8
0.288302 -0.31259 1.184 5 17 7
0.289651 -0.312062 1.182 6 18 8
0.291486 -0.312062 1.182 6 18 8
0.293074 -0.311798 1.181 7 15 8
0.294658 -0.311534 1.18 6 14 7
0.296239 -0.31127 1.179 5 17 7
0.297818 -0.311006 1.178 4 16 6
0.298884 -0.310214 1.175 5 17 7
0.300197 -0.309686 1.173 5 17 7
0.301761 -0.309422 1.172 5 17 7
0.303063 -0.308894 1.17 5 17 7
0.304359 -0.308366 1.168 5 17 7
0.305911 -0.308102 1.167 6 18 8
0.30746 -0.307838 1.166 6 18 8
0.309271 -0.307838 1.166 6 18 8
0.311348 -0.308102 1.167 6 18 8
0.313429 -0.308366 1.168 6 18 8
0.315783 -0.308894 1.17 6 18 8
0.317871 -0.309158 1.171 9 21 11
0.320236 -0.309686 1.173 10 19 10
0.322332 -0.30995 1.174 8 17 8
0.324431 -0.310214 1.175 8 17 8
0.326534 -0.310478 1.176 8 17 8
0.32864 -0.310742 1.177 7 16 7
0.330748 -0.311006 1.178 7 16 7
0.332578 -0.311006 1.178 7 16 7
0.334691 -0.31127 1.179 6 15 6
0.336808 -0.311534 1.18 7 16 7
0.33864 -0.311534 1.18 7 16 7
0.340473 -0.311534 1.18 7 16 7
0.342595 -0.311798 1.181 7 16 7
0.344429 -0.311798 1.181 7 16 7
0.346264 -0.311798 1.181 8 17 8
0.348098 -0.311798 1.181 5 17 7
0.349932 -0.311798 1.181 4 16 6
0.351766 -0.311798 1.181 5 17 7
0.3536 -0.311798 1.181 5 17 7
0.355133 -0.311534 1.18 6 18 8
0.356966 -0.311534 1.18 6 18 8
0.35819 -0.311006 1.178 5 17 7
0.36002 -0.311006 1.178 0 11 1
0.361235 -0.310478 1.176 29 36 32
0.362753 -0.310214 1.175 31 38 34
0.364267 -0.30995 1.174 5 11 11
0.365779 -0.309686 1.173 1 7 7
0.366974 -0.309158 1.171 13 12 16
0.368477 -0.308894 1.17 6 5 9
0.369661 -0.308366 1.168 8 4 5
0.368295 -0.305726 1.158 38 34 35
0.368495 -0.304406 1.153 79 79 80
0.369172 -0.302029 1.144 68 68 69
0.369652 -0.300973 1.14 66 66 67
-0.165319 -0.309699 1.18 5 14 5
-0.163625 -0.309962 1.181 6 15 6
-0.161928 -0.310224 1.182 7 16 7
-0.160228 -0.310486 1.183 5 14 5
-0.158391 -0.310486 1.183 5 14 5
-0.156686 -0.310749 1.184 6 15 6
-0.154847 -0.310749 1.184 7 16 7
-0.153008 -0.310749 1.184 8 17 8
-0.15117 -0.310749 1.184 8 19 11
-0.149205 -0.310486 1.183 9 20 12
-0.147367 -0.310486 1.183 9 21 11
-0.14553 -0.310486 1.183 10 22 12
-0.143693 -0.310486 1.183 10 23 10
-0.141856 -0.310486 1.183 11 24 11
-0.1399 -0.310224 1.182 11 25 10
-0.138064 -0.310224 1.182 12 26 11
-0.136113 -0.309962 1.181 13 27 12
-0.134393 -0.310224 1.182 11 25 10
-0.132557 -0.310224 1.182 9 23 8
-0.130722 -0.310224 1.182 10 24 9
-0.128886 -0.310224 1.182 10 24 9
-0.12705 -0.310224 1.182 11 25 10
-0.125215 -0.310224 1.182 10 24 9
-0.123483 -0.310486 1.183 10 24 9
-0.121646 -0.310486 1.183 10 24 9
-0.119809 -0.310486 1.183 9 23 8
-0.118071 -0.310749 1.184 10 24 9
-0.116232 -0.310749 1.184 10 24 9
-0.11449 -0.311011 1.185 13 24 10
-0.11265 -0.311011 1.185 10 21 7
-0.109061 -0.311274 1.186 11 22 8
-0.10731 -0.311536 1.187 10 21 7
-0.105466 -0.311536 1.187 11 22 8
-0.103623 -0.311536 1.187 11 22 8
-0.101779 -0.311536 1.187 10 21 7
-0.0999359 -0.311536 1.187 10 21 7
-0.0980925 -0.311536 1.187 8 19 5
-0.096249 -0.311536 1.187 10 21 7
-0.094326 -0.311274 1.186 10 21 7
-0.0924841 -0.311274 1.186 10 21 7
-0.0905658 -0.311011 1.185 8 19 5
-0.0888003 -0.311274 1.186 8 19 5
-0.0869584 -0.311274 1.186 8 19 5
-0.0851165 -0.311274 1.186 10 21 7
-0.0832746 -0.311274 1.186 8 19 5
-0.0814327 -0.311274 1.186 10 21 7
-0.0795237 -0.311011 1.185 8 19 5
-0.0776834 -0.311011 1.185 8 18 6
-0.075843 -0.311011 1.185 8 18 6
-0.0740027 -0.311011 1.185 7 17 5
-0.0721623 -0.311011 1.185 7 17 5
-0.070322 -0.311011 1.185 7 17 5
-0.0684817 -0.311011 1.185 6 16 4
-0.0666413 -0.311011 1.185 7 17 5
-0.0648556 -0.311274 1.186 4 14 2
-0.0630669 -0.311536 1.187 7 17 5
-0.0612234 -0.311536 1.187 8 18 6
-0.05938 -0.311536 1.187 5 18 5
-0.0574881 -0.311274 1.186 5 18 5
-0.0556462 -0.311274 1.186 5 18 5
-0.0537589 -0.311011 1.185 4 17 4
-0.0519185 -0.311011 1.185 5 18 5
-0.0500359 -0.310749 1.184 4 17 4
-0.0481564 -0.310486 1.183 4 17 4
-0.04628 -0.310224 1.182 3 16 3
-0.0444068 -0.309962 1.181 4 17 4
-0.0425366 -0.309699 1.18 3 16 3
-0.040704 -0.309699 1.18 2 15 2
-0.0388385 -0.309437 1.179 3 16 3
-0.0370074 -0.309437 1.179 4 14 2
-0.0351764 -0.309437 1.179 5 15 3
-0.0333171 -0.309174 1.178 6 15 6
-0.0315144 -0.309437 1.179 6 15 6
-0.0297085 -0.309699 1.18 7 16 7
-0.0278996 -0.309962 1.181 7 16 7
-0.0260654 -0.309962 1.181 7 16 7
-0.0242518 -0.310224 1.182 6 15 6
-0.0224351 -0.310486 1.183 5 14 5
-0.0205978 -0.310486 1.183 4 13 4
-0.0187606 -0.310486 1.183 6 15 6
-0.0169377 -0.310749 1.184 4 13 4
-0.0150989 -0.310749 1.184 4 13 4
-0.0132601 -0.310749 1.184 4 13 4
-0.0114309 -0.311011 1.185 7 16 7
-0.00958251 -0.310749 1.184 6 15 6
-0.00773717 -0.310486 1.183 7 16 7
-0.00589993 -0.310486 1.183 5 14 5
-0.00406269 -0.310486 1.183 4 13 4
-0.00222357 -0.310224 1.182 4 13 4
-0.000387887 -0.310224 1.182 5 14 5
0.00144657 -0.309962 1.181 5 14 5
0.00328071 -0.309962 1.181 6 15 6
0.00511051 -0.309699 1.18 6 15 6
0.00694309 -0.309699 1.18 6 15 6
0.00877567 -0.309699 1.18 6 15 6
0.0106172 -0.309962 1.181 6 15 6
0.0124619 -0.310224 1.182 6 15 6
0.0142976 -0.310224 1.182 5 14 5
0.0161333 -0.310224 1.182 5 14 5
0.0179842 -0.310486 1.183 6 15 6
0.0198382 -0.310749 1.184 5 14 5
0.021677 -0.310749 1.184 5 14 5
0.0235158 -0.310749 1.184 6 15 6
0.025376 -0.311011 1.185 6 15 6
0.0272163 -0.311011 1.185 5 14 5
0.0290567 -0.311011 1.185 5 14 5
0.030897 -0.311011 1.185 5 14 5
0.0327373 -0.311011 1.185 4 13 4
0.0345777 -0.311011 1.185 5 14 5
0.036418 -0.311011 1.185 6 15 6
0.0382584 -0.311011 1.185 5 14 5
0.0401326 -0.311274 1.186 4 13 4
0.0419745 -0.311274 1.186 5 14 5
0.0438164 -0.311274 1.186 5 14 5
0.0456583 -0.311274 1.186 6 15 6
0.0475002 -0.311274 1.186 5 14 5
0.0493421 -0.311274 1.186 5 14 5
0.051184 -0.311274 1.186 4 13 4
0.0530706 -0.311536 1.187 5 14 5
0.054914 -0.311536 1.187 5 14 5
0.0567575 -0.311536 1.187 5 14 5
0.0586009 -0.311536 1.187 5 14 5
0.0604444 -0.311536 1.187 6 15 6
0.0622878 -0.311536 1.187 6 15 6
0.0641853 -0.311799 1.188 6 15 6
0.0660303 -0.311799 1.188 6 15 6
0.0678753 -0.311799 1.188 6 15 6
0.0697203 -0.311799 1.188 6 15 6
0.0715051 -0.311536 1.187 6 15 6
0.0733485 -0.311536 1.187 6 15 6
0.0751286 -0.311274 1.186 6 15 6
0.0769056 -0.311011 1.185 5 14 5
0.078746 -0.311011 1.185 6 15 6
0.0805863 -0.311011 1.185 6 15 6
0.0823571 -0.310749 1.184 7 16 7
0.0841959 -0.310749 1.184 7 16 7
0.0860347 -0.310749 1.184 7 16 7
0.0877993 -0.310486 1.183 6 15 6
0.0896365 -0.310486 1.183 6 15 6
0.0913964 -0.310224 1.182 4 14 2
0.0932321 -0.310224 1.182 5 15 3
0.0950678 -0.310224 1.182 4 14 2
0.0969855 -0.310486 1.183 6 16 4
0.0989062 -0.310749 1.184 7 17 5
0.10083 -0.311011 1.185 7 17 5
0.102757 -0.311274 1.186 4 17 4
0.104599 -0.311274 1.186 5 18 5
0.106531 -0.311536 1.187 5 18 5
0.108374 -0.311536 1.187 6 19 6
0.11031 -0.311799 1.188 6 20 5
0.112155 -0.311799 1.188 6 20 5
0.114096 -0.312061 1.189 6 20 5
0.11604 -0.312324 1.19 6 20 5
0.117889 -0.312324 1.19 8 22 7
0.119636 -0.312061 1.189 8 22 7
0.121483 -0.312061 1.189 9 23 6
0.123329 -0.312061 1.189 9 23 6
0.125176 -0.312061 1.189 12 26 9
0.126915 -0.311799 1.188 11 25 8
0.12876 -0.311799 1.188 12 27 7
0.130496 -0.311536 1.187 13 28 8
0.132339 -0.311536 1.187 13 30 10
0.134182 -0.311536 1.187 10 27 7
0.136026 -0.311536 1.187 10 28 6
0.137869 -0.311536 1.187 10 28 6
0.139713 -0.311536 1.187 9 27 5
0.141556 -0.311536 1.187 9 27 5
0.143279 -0.311274 1.186 9 27 5
0.145121 -0.311274 1.186 10 28 6
0.146839 -0.311011 1.185 11 29 7
0.148679 -0.311011 1.185 13 31 9
0.150519 -0.311011 1.185 13 32 7
0.15236 -0.311011 1.185 14 33 8
0.1542 -0.311011 1.185 14 33 8
0.15604 -0.311011 1.185 15 34 9
0.157881 -0.311011 1.185 16 35 10
0.159586 -0.310749 1.184 16 35 10
0.161425 -0.310749 1.184 13 32 7
0.163264 -0.310749 1.184 14 33 8
0.165103 -0.310749 1.184 15 34 9
0.166801 -0.310486 1.183 14 33 8
0.168495 -0.310224 1.182 13 32 7
0.170331 -0.310224 1.182 13 32 7
0.172167 -0.310224 1.182 13 32 7
0.173855 -0.309962 1.181 14 33 8
0.17554 -0.309699 1.18 15 34 9
0.177223 -0.309437 1.179 15 34 9
0.179054 -0.309437 1.179 14 33 8
0.180885 -0.309437 1.179 15 34 9
0.182716 -0.309437 1.179 16 35 10
0.184547 -0.309437 1.179 17 36 11
0.18622 -0.309174 1.178 17 36 11
0.188209 -0.309437 1.179 16 35 10
0.19004 -0.309437 1.179 16 35 10
0.192034 -0.309699 1.18 16 35 10
0.193866 -0.309699 1.18 17 36 11
0.195865 -0.309962 1.181 16 35 10
0.199702 -0.310224 1.182 15 34 9
0.201708 -0.310486 1.183 15 34 9
0.203717 -0.310749 1.184 16 35 10
0.205556 -0.310749 1.184 17 36 11
0.20757 -0.311011 1.185 17 36 11
0.209411 -0.311011 1.185 17 36 11
0.211251 -0.311011 1.185 17 36 11
0.213091 -0.311011 1.185 17 36 11
0.214932 -0.311011 1.185 17 36 11
0.216955 -0.311274 1.186 14 32 10
0.218797 -0.311274 1.186 16 34 12
0.220825 -0.311536 1.187 15 33 11
0.222668 -0.311536 1.187 16 34 12
0.224512 -0.311536 1.187 17 32 12
0.226355 -0.311536 1.187 16 31 11
0.228391 -0.311799 1.188 13 27 10
0.230042 -0.311536 1.187 12 26 9
0.232081 -0.311799 1.188 12 27 7
0.233926 -0.311799 1.188 13 28 8
0.235771 -0.311799 1.188 15 30 10
0.237416 -0.311536 1.187 10 25 5
0.239259 -0.311536 1.187 12 26 9
0.241103 -0.311536 1.187 12 26 9
0.242741 -0.311274 1.186 14 25 9
0.244583 -0.311274 1.186 11 22 6
0.246217 -0.311011 1.185 11 22 8
0.248058 -0.311011 1.185 10 21 7
0.249687 -0.310749 1.184 10 20 8
0.251526 -0.310749 1.184 8 18 6
0.253365 -0.310749 1.184 8 17 8
0.255204 -0.310749 1.184 8 17 8
0.257042 -0.310749 1.184 8 18 6
0.258881 -0.310749 1.184 7 17 5
0.26072 -0.310749 1.184 7 17 5
0.262559 -0.310749 1.184 6 16 4
0.264621 -0.311011 1.185 6 15 6
0.266236 -0.310749 1.184 7 16 7
0.268302 -0.311011 1.185 7 16 7
0.270142 -0.311011 1.185 7 16 7
0.271982 -0.311011 1.185 7 16 7
0.274054 -0.311274 1.186 6 15 6
0.275896 -0.311274 1.186 5 17 7
0.277737 -0.311274 1.186 5 17 7
0.279579 -0.311274 1.186 5 17 7
0.281421 -0.311274 1.186 6 18 8
0.283024 -0.311011 1.185 6 18 8
0.284865 -0.311011 1.185 6 18 8
0.286463 -0.310749 1.184 6 18 8
0.288058 -0.310486 1.183 6 18 8
0.289651 -0.310224 1.182 5 17 7
0.291486 -0.310224 1.182 5 17 7
0.293074 -0.309962 1.181 3 14 6
0.294658 -0.309699 1.18 4 15 7
0.295988 -0.309174 1.178 5 16 8
0.297818 -0.309174 1.178 4 15 7
0.299138 -0.308649 1.176 3 14 6
0.300709 -0.308387 1.175 5 16 8
0.302019 -0.307862 1.173 4 16 6
0.303581 -0.307599 1.172 6 18 8
0.305141 -0.307337 1.171 4 16 6
0.306697 -0.307075 1.17 6 18 8
0.307987 -0.30655 1.168 6 18 8
0.309801 -0.30655 1.168 6 18 8
0.311882 -0.306812 1.169 8 17 8
0.313966 -0.307075 1.17 7 16 7
0.316053 -0.307337 1.171 8 17 8
0.317871 -0.307337 1.171 10 19 10
0.320236 -0.307862 1.173 10 19 10
0.322607 -0.308387 1.175 10 19 10
0.324431 -0.308387 1.175 10 19 10
0.326534 -0.308649 1.176 8 17 8
0.32864 -0.308912 1.177 7 16 7
0.330467 -0.308912 1.177 7 16 7
0.332578 -0.309174 1.178 7 16 7
0.334407 -0.309174 1.178 7 16 7
0.336808 -0.309699 1.18 7 16 7
0.33864 -0.309699 1.18 7 16 7
0.340473 -0.309699 1.18 8 17 8
0.342595 -0.309962 1.181 8 17 8
0.344429 -0.309962 1.181 6 18 8
0.346557 -0.310224 1.182 6 18 8
0.348393 -0.310224 1.182 8 20 10
0.350228 -0.310224 1.182 8 20 10
0.352064 -0.310224 1.182 8 20 10
0.3536 -0.309962 1.181 5 17 7
0.355434 -0.309962 1.181 6 18 8
0.356966 -0.309699 1.18 6 18 8
0.358494 -0.309437 1.179 3 15 5
0.36002 -0.309174 1.178 0 11 1
0.361849 -0.309174 1.178 33 40 36
0.363061 -0.308649 1.176 32 39 35
0.364577 -0.308387 1.175 0 6 6
0.366402 -0.308387 1.175 1 7 7
0.3676 -0.307862 1.173 13 13 14
0.368792 -0.307337 1.171 6 6 7
0.370294 -0.307075 1.17 8 6 7
0.370521 -0.305762 1.165 43 41 42
0.368815 -0.302875 1.154 79 77 78
0.369001 -0.301563 1.149 73 71 72
0.369652 -0.299201 1.14 72 72 73
-0.16546 -0.308125 1.181 6 15 6
-0.163764 -0.308386 1.182 5 14 5
-0.162065 -0.308647 1.183 10 19 10
-0.160363 -0.308908 1.184 4 13 4
-0.158659 -0.309169 1.185 6 15 6
-0.156818 -0.309169 1.185 7 16 7
-0.154847 -0.308908 1.184 7 16 7
-0.153008 -0.308908 1.184 7 16 7
-0.15117 -0.308908 1.184 8 19 11
-0.149205 -0.308647 1.183 9 20 12
-0.147367 -0.308647 1.183 9 21 11
-0.145407 -0.308386 1.182 10 22 12
-0.143571 -0.308386 1.182 10 23 10
-0.141616 -0.308125 1.181 10 23 10
-0.139782 -0.308125 1.181 10 24 9
-0.137831 -0.307864 1.18 10 24 9
-0.135998 -0.307864 1.18 12 26 11
-0.134166 -0.307864 1.18 12 26 11
-0.132333 -0.307864 1.18 11 25 10
-0.1305 -0.307864 1.18 11 25 10
-0.128777 -0.308125 1.181 10 24 9
-0.126943 -0.308125 1.181 11 25 10
-0.125215 -0.308386 1.182 10 24 9
-0.123379 -0.308386 1.182 10 24 9
-0.121543 -0.308386 1.182 10 24 9
-0.119809 -0.308647 1.183 9 23 8
-0.117972 -0.308647 1.183 9 23 8
-0.116232 -0.308908 1.184 9 23 8
-0.11449 -0.309169 1.185 9 23 8
-0.11265 -0.309169 1.185 8 22 7
-0.109061 -0.30943 1.186 11 22 8
-0.10731 -0.309691 1.187 11 22 8
-0.105466 -0.309691 1.187 12 23 9
-0.10371 -0.309952 1.188 11 22 8
-0.101865 -0.309952 1.188 11 22 8
-0.100104 -0.310212 1.189 10 21 7
-0.0981751 -0.309952 1.188 8 19 5
-0.0963301 -0.309952 1.188 10 21 7
-0.0944851 -0.309952 1.188 8 19 5
-0.0925621 -0.309691 1.187 8 19 5
-0.0907186 -0.309691 1.187 8 19 5
-0.0888752 -0.309691 1.187 8 19 5
-0.0870317 -0.309691 1.187 7 18 4
-0.0851883 -0.309691 1.187 8 19 5
-0.0833448 -0.309691 1.187 7 18 4
-0.0814327 -0.30943 1.186 8 19 5
-0.0795908 -0.30943 1.186 8 19 5
-0.0777489 -0.30943 1.186 8 18 6
-0.075843 -0.309169 1.185 8 18 6
-0.0740027 -0.309169 1.185 8 18 6
-0.0721623 -0.309169 1.185 7 17 5
-0.070322 -0.309169 1.185 7 17 5
-0.0684817 -0.309169 1.185 7 17 5
-0.0666413 -0.309169 1.185 7 17 5
-0.0649103 -0.309691 1.187 4 14 2
-0.0630669 -0.309691 1.187 7 17 5
-0.0612234 -0.309691 1.187 8 18 6
-0.05938 -0.309691 1.187 5 17 7
-0.0575365 -0.309691 1.187 5 17 7
-0.0556931 -0.309691 1.187 4 16 6
-0.0538496 -0.309691 1.187 3 15 5
-0.0520062 -0.309691 1.187 3 15 5
-0.0500782 -0.309169 1.185 3 15 5
-0.0482379 -0.309169 1.185 3 15 5
-0.0463192 -0.308647 1.183 2 14 4
-0.0444444 -0.308386 1.182 4 16 6
-0.0425726 -0.308125 1.181 5 17 7
-0.040704 -0.307864 1.18 6 18 8
-0.0388714 -0.307864 1.18 6 18 8
-0.0370074 -0.307603 1.179 5 14 5
-0.0352063 -0.307864 1.18 4 13 4
-0.0333454 -0.307603 1.179 5 14 5
-0.0315411 -0.307864 1.18 5 14 5
-0.0297085 -0.307864 1.18 7 16 7
-0.0279232 -0.308386 1.182 7 16 7
-0.0260875 -0.308386 1.182 7 16 7
-0.0242518 -0.308386 1.182 6 15 6
-0.0224541 -0.308908 1.184 5 14 5
-0.0206153 -0.308908 1.184 4 13 4
-0.0187765 -0.308908 1.184 5 14 5
-0.016952 -0.309169 1.185 4 13 4
-0.0151116 -0.309169 1.185 4 13 4
-0.0132713 -0.309169 1.185 4 13 4
-0.0114309 -0.309169 1.185 6 15 6
-0.00958251 -0.308908 1.184 7 16 7
-0.00774371 -0.308908 1.184 7 16 7
-0.00589993 -0.308647 1.183 6 15 6
-0.00405926 -0.308386 1.182 5 14 5
-0.00222357 -0.308386 1.182 4 13 4
-0.000387231 -0.307864 1.18 4 13 4
0.00144535 -0.307864 1.18 3 12 3
0.00327793 -0.307864 1.18 6 15 6
0.00511051 -0.307864 1.18 7 16 7
0.00693721 -0.307603 1.179 7 16 7
0.00876823 -0.307603 1.179 7 16 7
0.0106083 -0.307864 1.18 7 15 8
0.0124408 -0.307864 1.18 6 14 7
0.0142734 -0.307864 1.18 4 13 4
0.0161196 -0.308125 1.181 5 14 5
0.0179842 -0.308647 1.183 5 14 5
0.0198214 -0.308647 1.183 6 15 6
0.0216587 -0.308647 1.183 5 14 5
0.0234959 -0.308647 1.183 4 13 4
0.0253545 -0.308908 1.184 6 15 6
0.0271933 -0.308908 1.184 4 13 4
0.0290321 -0.308908 1.184 5 14 5
0.030897 -0.309169 1.185 4 13 4
0.0327373 -0.309169 1.185 4 13 4
0.0345777 -0.309169 1.185 4 13 4
0.036418 -0.309169 1.185 5 14 5
0.0382584 -0.309169 1.185 6 15 6
0.0400987 -0.309169 1.185 5 14 5
0.0419391 -0.309169 1.185 5 14 5
0.0437794 -0.309169 1.185 5 14 5
0.0456198 -0.309169 1.185 7 16 7
0.0474601 -0.309169 1.185 6 15 6
0.0493005 -0.309169 1.185 5 14 5
0.0511408 -0.309169 1.185 5 14 5
0.0529811 -0.309169 1.185 6 15 6
0.0548215 -0.309169 1.185 7 16 7
0.0567097 -0.30943 1.186 8 17 8
0.0585515 -0.30943 1.186 7 16 7
0.0604444 -0.309691 1.187 7 16 7
0.0622878 -0.309691 1.187 7 16 7
0.0641313 -0.309691 1.187 7 16 7
0.0659747 -0.309691 1.187 7 16 7
0.0678182 -0.309691 1.187 5 14 5
0.0696616 -0.309691 1.187 6 15 6
0.0715051 -0.309691 1.187 6 15 6
