ply
format ascii 1.0
comment Created by Open3D
element vertex 1377
property double x
property double y
property double z
property uchar red
property uchar green
property uchar blue
end_header
0.0787502 0.124606 1.158 99 121 155
0.0806182 0.124714 1.159 99 121 155
0.0824181 0.124714 1.159 99 121 155
0.0842907 0.124821 1.16 102 124 158
0.0860923 0.124821 1.16 97 119 153
0.0879696 0.124929 1.161 99 121 155
0.0897726 0.124929 1.161 99 121 153
0.0915757 0.124929 1.161 96 118 150
0.0934592 0.125036 1.162 100 123 152
0.0954278 0.125252 1.164 102 125 154
0.0974026 0.125467 1.166 105 124 152
0.0993836 0.125682 1.168 93 112 140
0.103276 0.126005 1.171 17 34 48
0.105274 0.12622 1.173 24 41 35
0.107278 0.126435 1.175 34 51 45
0.109382 0.126758 1.178 50 66 44
0.1114 0.126973 1.18 45 61 39
0.113425 0.127189 1.182 43 61 34
0.11526 0.127189 1.182 43 61 34
0.117195 0.127296 1.183 44 62 35
0.119133 0.127404 1.184 44 62 35
0.121074 0.127511 1.185 43 58 32
0.123018 0.127619 1.186 43 58 32
0.124965 0.127727 1.187 48 63 35
0.126915 0.127834 1.188 46 61 33
0.12876 0.127834 1.188 44 62 33
0.130825 0.128049 1.19 45 63 34
0.132673 0.128049 1.19 44 62 33
0.134522 0.128049 1.19 46 64 35
0.13637 0.128049 1.19 46 64 35
0.138334 0.128157 1.191 46 64 35
0.140184 0.128157 1.191 45 65 36
0.142033 0.128157 1.191 46 66 37
0.143883 0.128157 1.191 46 66 37
0.145855 0.128265 1.192 46 66 37
0.147706 0.128265 1.192 50 69 37
0.149557 0.128265 1.192 50 69 37
0.151409 0.128265 1.192 50 69 37
0.153131 0.128157 1.191 47 66 34
0.154981 0.128157 1.191 50 66 35
0.156831 0.128157 1.191 50 66 35
0.15868 0.128157 1.191 47 63 32
0.160395 0.128049 1.19 48 64 33
0.162243 0.128049 1.19 43 59 28
0.164091 0.128049 1.19 55 71 40
0.165939 0.128049 1.19 55 72 39
0.167647 0.127942 1.189 56 73 40
0.169351 0.127834 1.188 50 67 34
0.171196 0.127834 1.188 52 69 36
0.172895 0.127727 1.187 50 66 35
0.174738 0.127727 1.187 52 68 37
0.176582 0.127727 1.187 52 68 37
0.178425 0.127727 1.187 52 68 37
0.180117 0.127619 1.186 50 66 35
0.181959 0.127619 1.186 50 66 35
0.183956 0.127727 1.187 50 66 35
0.185799 0.127727 1.187 50 66 35
0.187643 0.127727 1.187 52 69 36
0.189486 0.127727 1.187 53 70 37
0.191329 0.127727 1.187 52 69 36
0.193173 0.127727 1.187 53 70 37
0.195016 0.127727 1.187 53 71 35
0.197026 0.127834 1.188 52 70 34
0.198871 0.127834 1.188 53 71 35
0.200716 0.127834 1.188 49 67 31
0.202561 0.127834 1.188 48 66 30
0.204234 0.127727 1.187 50 68 32
0.206077 0.127727 1.187 50 68 32
0.20792 0.127727 1.187 50 68 32
0.209764 0.127727 1.187 53 71 35
0.211429 0.127619 1.186 53 71 35
0.213091 0.127511 1.185 54 72 36
0.214932 0.127511 1.185 54 72 36
0.216772 0.127511 1.185 52 70 34
0.218612 0.127511 1.185 52 70 34
0.220267 0.127404 1.184 53 71 35
0.222105 0.127404 1.184 50 68 32
0.223755 0.127296 1.183 50 68 32
0.225783 0.127404 1.184 52 70 34
0.227429 0.127296 1.183 53 71 35
0.22946 0.127404 1.184 53 71 35
0.231299 0.127404 1.184 53 71 35
0.232941 0.127296 1.183 53 71 35
0.234977 0.127404 1.184 50 68 32
0.236816 0.127404 1.184 53 71 35
0.238856 0.127511 1.185 53 71 35
0.240696 0.127511 1.185 53 71 35
0.242537 0.127511 1.185 52 69 36
0.244377 0.127511 1.185 50 67 34
0.246217 0.127511 1.185 53 70 37
0.248058 0.127511 1.185 50 67 34
0.249898 0.127511 1.185 49 66 33
0.251738 0.127511 1.185 52 69 36
0.253365 0.127404 1.184 54 72 36
0.254988 0.127296 1.183 53 71 35
0.256825 0.127296 1.183 53 71 35
0.258444 0.127189 1.182 53 71 35
0.26028 0.127189 1.182 54 72 36
0.262115 0.127189 1.182 52 70 34
0.263951 0.127189 1.182 43 62 24
0.265787 0.127189 1.182 46 65 27
0.267622 0.127189 1.182 50 69 31
0.269686 0.127296 1.183 50 69 31
0.271753 0.127404 1.184 50 69 29
0.273823 0.127511 1.185 52 71 31
0.275896 0.127619 1.186 50 69 29
0.277972 0.127727 1.187 52 71 31
0.280287 0.127942 1.189 52 71 31
0.28237 0.128049 1.19 52 71 31
0.284696 0.128265 1.192 52 71 31
0.286788 0.128372 1.193 53 72 32
0.289124 0.128587 1.195 54 73 33
0.29098 0.128587 1.195 53 72 32
0.293081 0.128695 1.196 53 72 32
0.295185 0.128803 1.197 54 73 33
0.297044 0.128803 1.197 54 73 33
0.298903 0.128803 1.197 55 74 34
0.300762 0.128803 1.197 57 76 36
0.302621 0.128803 1.197 56 75 35
0.30448 0.128803 1.197 56 75 35
0.306339 0.128803 1.197 59 78 38
0.308198 0.128803 1.197 53 72 34
0.310057 0.128803 1.197 55 74 36
0.311656 0.128695 1.196 59 78 40
0.313251 0.128587 1.195 57 76 38
0.315107 0.128587 1.195 56 75 37
0.316697 0.12848 1.194 57 76 38
0.318552 0.12848 1.194 57 76 36
0.320138 0.128372 1.193 60 79 39
0.32199 0.128372 1.193 64 83 43
0.323572 0.128265 1.192 63 82 42
0.325423 0.128265 1.192 69 89 46
0.327274 0.128265 1.192 76 96 53
0.329125 0.128265 1.192 75 96 51
0.330699 0.128157 1.191 78 99 54
0.332549 0.128157 1.191 78 99 54
0.334117 0.128049 1.19 81 102 57
0.335966 0.128049 1.19 82 103 58
0.33753 0.127942 1.189 83 104 59
0.339091 0.127834 1.188 92 113 68
0.340936 0.127834 1.188 85 106 61
0.342781 0.127834 1.188 87 105 62
0.344916 0.127942 1.189 86 104 61
0.346763 0.127942 1.189 86 103 63
0.348609 0.127942 1.189 87 104 64
0.35075 0.128049 1.19 86 105 67
0.352599 0.128049 1.19 86 105 67
0.354447 0.128049 1.19 88 107 69
0.356295 0.128049 1.19 89 108 70
0.357842 0.127942 1.189 76 85 46
0.359386 0.127834 1.188 68 77 38
0.359407 0.127189 1.182 182 184 148
0.360631 0.126973 1.18 135 137 101
0.360928 0.126435 1.175 74 75 41
0.361518 0.126005 1.171 82 83 49
0.361785 0.125467 1.166 70 72 54
0.361725 0.124821 1.16 86 88 70
0.361646 0.124176 1.154 210 219 203
0.360289 0.1231 1.144 236 245 229
0.361432 0.122884 1.142 194 203 189
0.362252 0.122562 1.139 233 242 228
0.363382 0.122346 1.137 246 249 252
0.364826 0.122239 1.136 156 159 162
0.367559 0.122562 1.139 109 113 113
0.371597 0.123315 1.146 115 119 119
-0.163078 0.127062 1.164 122 151 182
-0.161409 0.127171 1.165 122 151 182
-0.159599 0.127171 1.165 122 151 184
-0.157926 0.12728 1.166 118 147 180
-0.156115 0.12728 1.166 116 145 178
-0.154172 0.127171 1.165 120 149 182
-0.152231 0.127062 1.164 124 149 178
-0.150424 0.127062 1.164 129 154 183
-0.148488 0.126952 1.163 134 155 178
-0.146556 0.126843 1.162 96 117 140
-0.144751 0.126843 1.162 91 111 131
-0.142947 0.126843 1.162 82 102 122
-0.141142 0.126843 1.162 89 106 125
-0.139218 0.126734 1.161 86 103 122
-0.137533 0.126843 1.162 86 102 126
-0.135728 0.126843 1.162 84 100 124
-0.133924 0.126843 1.162 83 98 124
-0.132119 0.126843 1.162 82 97 123
-0.130202 0.126734 1.161 80 98 123
-0.128399 0.126734 1.161 79 97 122
-0.126705 0.126843 1.162 92 113 136
-0.1249 0.126843 1.162 90 111 134
-0.12299 0.126734 1.161 89 113 135
-0.121187 0.126734 1.161 84 108 130
-0.119384 0.126734 1.161 86 109 138
-0.117479 0.126625 1.16 129 152 181
-0.115778 0.126734 1.161 119 145 180
-0.113876 0.126625 1.16 141 167 202
-0.112075 0.126625 1.16 139 167 202
-0.110273 0.126625 1.16 137 165 200
-0.108378 0.126516 1.159 134 162 197
-0.106578 0.126516 1.159 134 162 197
-0.104778 0.126516 1.159 132 163 197
-0.102978 0.126516 1.159 139 170 204
-0.101091 0.126407 1.158 131 162 196
-0.0992928 0.126407 1.158 124 155 189
-0.0974943 0.126407 1.158 132 163 197
-0.0956959 0.126407 1.158 142 173 207
-0.0938164 0.126297 1.157 138 169 203
-0.0920196 0.126297 1.157 138 169 203
-0.0901447 0.126188 1.156 138 168 205
-0.0883494 0.126188 1.156 138 168 205
-0.0865541 0.126188 1.156 138 168 205
-0.0847588 0.126188 1.156 138 168 205
-0.0829635 0.126188 1.156 139 169 206
-0.0811682 0.126188 1.156 142 172 209
-0.0793729 0.126188 1.156 139 169 206
-0.0776447 0.126297 1.157 136 166 203
-0.0759134 0.126407 1.158 135 165 202
-0.074115 0.126407 1.158 144 174 211
-0.0723165 0.126407 1.158 139 171 208
-0.070579 0.126516 1.159 137 169 206
-0.0687791 0.126516 1.159 137 169 206
-0.0670369 0.126625 1.16 135 167 204
-0.0652354 0.126625 1.16 135 167 204
-0.0634339 0.126625 1.16 135 167 204
-0.0616323 0.126625 1.16 135 167 204
-0.0598308 0.126625 1.16 135 167 204
-0.0580293 0.126625 1.16 136 168 205
-0.0562278 0.126625 1.16 136 168 205
-0.0544732 0.126734 1.161 136 168 205
-0.0526701 0.126734 1.161 136 168 205
-0.050867 0.126734 1.161 136 168 205
-0.049064 0.126734 1.161 130 162 199
-0.0472609 0.126734 1.161 142 174 211
-0.0454578 0.126734 1.161 141 173 210
-0.0436547 0.126734 1.161 140 172 209
-0.0418877 0.126843 1.162 140 172 209
-0.0400831 0.126843 1.162 141 173 210
-0.0382785 0.126843 1.162 142 174 211
-0.0364738 0.126843 1.162 143 176 210
-0.0346692 0.126843 1.162 143 176 210
-0.0328646 0.126843 1.162 143 176 210
-0.03106 0.126843 1.162 141 174 208
-0.0292553 0.126843 1.162 140 173 207
-0.0274507 0.126843 1.162 136 169 203
-0.0256461 0.126843 1.162 136 169 203
-0.0238415 0.126843 1.162 135 168 202
-0.0220368 0.126843 1.162 136 169 203
-0.0202496 0.126952 1.163 135 168 202
-0.0184434 0.126952 1.163 135 168 202
-0.0166373 0.126952 1.163 136 169 203
-0.0148311 0.126952 1.163 135 168 202
-0.0130361 0.127062 1.164 135 168 202
-0.0112284 0.127062 1.164 135 169 201
-0.00942064 0.127062 1.164 134 168 200
-0.00761291 0.127062 1.164 135 169 201
-0.00580518 0.127062 1.164 129 163 195
-0.00399744 0.127062 1.164 133 167 199
-0.00218783 0.126952 1.163 134 168 200
-0.000381324 0.126843 1.162 132 166 198
0.0014233 0.126843 1.162 128 162 194
0.00322793 0.126843 1.162 126 160 192
0.00502822 0.126734 1.161 130 164 196
0.00682541 0.126625 1.16 134 166 198
0.00862693 0.126625 1.16 135 167 199
0.0104284 0.126625 1.16 132 164 196
0.01223 0.126625 1.16 124 156 188
0.0140315 0.126625 1.16 128 160 192
0.015833 0.126625 1.16 123 155 187
0.0176345 0.126625 1.16 126 155 188
0.019436 0.126625 1.16 118 147 180
0.0212376 0.126625 1.16 117 146 179
0.0230391 0.126625 1.16 117 146 179
0.0248406 0.126625 1.16 122 151 184
0.0266192 0.126516 1.159 124 153 186
0.0284191 0.126516 1.159 117 146 179
0.0302452 0.126625 1.16 111 140 173
0.0320467 0.126625 1.16 111 140 173
0.0338482 0.126625 1.16 112 141 174
0.0356805 0.126734 1.161 115 144 175
0.0374835 0.126734 1.161 123 152 183
0.0393204 0.126843 1.162 125 152 183
0.0410897 0.126734 1.161 121 148 179
0.0429297 0.126843 1.162 127 154 185
0.0446958 0.126734 1.161 120 147 178
0.0464989 0.126734 1.161 118 145 176
0.0483436 0.126843 1.162 116 143 174
0.0501482 0.126843 1.162 118 145 176
0.0519081 0.126734 1.161 116 143 174
0.0536649 0.126625 1.16 120 147 178
0.0554186 0.126516 1.159 119 146 177
0.0571692 0.126407 1.158 107 131 163
0.0589167 0.126297 1.157 105 129 161
0.0606611 0.126188 1.156 104 128 160
0.0623483 0.12597 1.154 100 124 156
0.064085 0.125861 1.153 102 126 160
0.0658185 0.125752 1.152 101 125 159
0.0676663 0.125861 1.153 98 122 156
0.0694569 0.125861 1.153 98 122 156
0.0713094 0.12597 1.154 100 122 156
0.0731649 0.126079 1.155 101 123 157
0.0750236 0.126188 1.156 99 121 153
0.0769518 0.126407 1.158 97 119 151
0.0788182 0.126516 1.159 100 122 154
0.0806182 0.126516 1.159 108 130 162
0.0824892 0.126625 1.16 102 124 156
0.0842907 0.126625 1.16 101 123 155
0.0861665 0.126734 1.161 99 121 153
0.0880453 0.126843 1.162 99 121 153
0.08985 0.126843 1.162 99 121 153
0.0916546 0.126843 1.162 97 119 151
0.0935396 0.126952 1.163 99 122 151
0.0954278 0.127062 1.164 102 125 154
0.0974026 0.12728 1.166 106 125 153
0.0993836 0.127498 1.168 94 113 141
0.103276 0.127826 1.171 15 32 46
0.105274 0.128044 1.173 26 43 37
0.107278 0.128262 1.175 39 56 50
0.109289 0.128481 1.177 49 66 46
0.1114 0.128808 1.18 46 63 43
0.113329 0.128917 1.181 44 62 35
0.11526 0.129026 1.182 44 62 35
0.117195 0.129136 1.183 44 62 35
0.119133 0.129245 1.184 41 59 32
0.121074 0.129354 1.185 41 59 32
0.122914 0.129354 1.185 41 59 32
0.12486 0.129463 1.186 48 63 35
0.126809 0.129572 1.187 46 61 33
0.12876 0.129681 1.188 45 63 34
0.130715 0.129791 1.189 46 64 35
0.132673 0.1299 1.19 46 64 35
0.134522 0.1299 1.19 48 66 37
0.13637 0.1299 1.19 48 66 37
0.138218 0.1299 1.19 48 66 37
0.140184 0.130009 1.191 47 65 36
0.142033 0.130009 1.191 48 66 37
0.143883 0.130009 1.191 48 67 35
0.14561 0.1299 1.19 48 67 35
0.147582 0.130009 1.191 50 69 37
0.149432 0.130009 1.191 50 69 37
0.151282 0.130009 1.191 48 67 35
0.153003 0.1299 1.19 46 65 33
0.154851 0.1299 1.19 49 65 34
0.156699 0.1299 1.19 50 66 35
0.158547 0.1299 1.19 47 63 32
0.160395 0.1299 1.19 47 63 32
0.162107 0.129791 1.189 45 61 30
0.163953 0.129791 1.189 52 68 37
0.165661 0.129681 1.188 54 71 38
0.167506 0.129681 1.188 56 73 40
0.169208 0.129572 1.187 53 70 37
0.171051 0.129572 1.187 53 70 37
0.172895 0.129572 1.187 53 70 37
0.174738 0.129572 1.187 53 70 37
0.176582 0.129572 1.187 53 70 37
0.178275 0.129463 1.186 54 71 38
0.180117 0.129463 1.186 53 70 37
0.182112 0.129572 1.187 52 69 36
0.183956 0.129572 1.187 52 69 36
0.185799 0.129572 1.187 52 69 36
0.187643 0.129572 1.187 53 70 37
0.189486 0.129572 1.187 54 71 38
0.191329 0.129572 1.187 53 71 35
0.193336 0.129681 1.188 53 71 35
0.195181 0.129681 1.188 53 71 35
0.197026 0.129681 1.188 52 70 34
0.198871 0.129681 1.188 53 71 35
0.200716 0.129681 1.188 50 68 32
0.202561 0.129681 1.188 50 68 32
0.204406 0.129681 1.188 53 71 35
0.206251 0.129681 1.188 53 71 35
0.20792 0.129572 1.187 53 71 35
0.209764 0.129572 1.187 53 71 35
0.211429 0.129463 1.186 53 71 35
0.213271 0.129463 1.186 54 72 36
0.214932 0.129354 1.185 53 71 35
0.216772 0.129354 1.185 53 71 35
0.218612 0.129354 1.185 52 70 34
0.220453 0.129354 1.185 53 71 35
0.222293 0.129354 1.185 53 71 35
0.224133 0.129354 1.185 53 71 35
0.225974 0.129354 1.185 52 70 34
0.227814 0.129354 1.185 54 72 36
0.229654 0.129354 1.185 54 72 36
0.231495 0.129354 1.185 54 72 36
0.233335 0.129354 1.185 54 72 36
0.235175 0.129354 1.185 53 71 35
0.237016 0.129354 1.185 54 72 36
0.238856 0.129354 1.185 53 71 35
0.240899 0.129463 1.186 52 70 34
0.242741 0.129463 1.186 53 71 35
0.244583 0.129463 1.186 53 71 35
0.246425 0.129463 1.186 53 71 35
0.248267 0.129463 1.186 52 70 34
0.249898 0.129354 1.185 50 68 32
0.251738 0.129354 1.185 52 70 34
0.253579 0.129354 1.185 54 72 36
0.255204 0.129245 1.184 52 70 34
0.256825 0.129136 1.183 53 71 35
0.258663 0.129136 1.183 54 72 36
0.2605 0.129136 1.183 54 72 36
0.262337 0.129136 1.183 52 70 34
0.264174 0.129136 1.183 52 71 33
0.265787 0.129026 1.182 53 72 34
0.268075 0.129245 1.184 53 72 34
0.269914 0.129245 1.184 55 74 36
0.271753 0.129245 1.184 53 72 32
0.273823 0.129354 1.185 50 69 29
0.275896 0.129463 1.186 53 72 32
0.277972 0.129572 1.187 55 74 34
0.280287 0.129791 1.189 53 72 32
0.28237 0.1299 1.19 52 71 31
0.284457 0.130009 1.191 52 71 31
0.286547 0.130118 1.192 50 69 29
0.288883 0.130336 1.194 53 72 32
0.29098 0.130445 1.195 54 73 33
0.293081 0.130555 1.196 54 73 33
0.295185 0.130664 1.197 55 74 34
0.297044 0.130664 1.197 54 73 33
0.298903 0.130664 1.197 54 73 33
0.300762 0.130664 1.197 55 74 34
0.302621 0.130664 1.197 55 74 34
0.30448 0.130664 1.197 56 75 35
0.306339 0.130664 1.197 60 79 39
0.308456 0.130773 1.198 59 78 40
0.310057 0.130664 1.197 59 78 40
0.311916 0.130664 1.197 59 78 40
0.313775 0.130664 1.197 57 76 38
0.31537 0.130555 1.196 57 76 38
0.317228 0.130555 1.196 57 76 38
0.318818 0.130445 1.195 54 73 33
0.320674 0.130445 1.195 63 82 42
0.32253 0.130445 1.195 63 82 42
0.324386 0.130445 1.195 60 79 39
0.325969 0.130336 1.194 67 87 44
0.327823 0.130336 1.194 79 99 56
0.329401 0.130227 1.193 76 97 52
0.330977 0.130118 1.192 77 98 53
0.332828 0.130118 1.192 78 99 54
0.334679 0.130118 1.192 79 100 55
0.335966 0.1299 1.19 75 96 51
0.337814 0.1299 1.19 79 100 55
0.339376 0.129791 1.189 93 114 69
0.340936 0.129681 1.188 84 105 60
0.342781 0.129681 1.188 85 105 62
0.344916 0.129791 1.189 84 104 61
0.346471 0.129681 1.188 85 104 64
0.348609 0.129791 1.189 86 105 65
0.350456 0.129791 1.189 86 105 67
0.352302 0.129791 1.189 85 104 66
0.354149 0.129791 1.189 88 107 69
0.355995 0.129791 1.189 90 109 71
0.357541 0.129681 1.188 78 85 44
0.359084 0.129572 1.187 68 75 34
0.360319 0.129354 1.185 189 191 153
0.360631 0.128808 1.18 143 145 107
0.360928 0.128262 1.175 76 75 40
0.361518 0.127826 1.171 84 83 48
0.361785 0.12728 1.166 69 71 53
0.361725 0.126625 1.16 86 88 70
0.361646 0.12597 1.154 211 220 204
0.360604 0.124988 1.145 239 248 232
0.361432 0.12466 1.142 192 203 189
0.362252 0.124333 1.139 231 242 228
0.363701 0.124223 1.138 243 246 249
0.364826 0.124005 1.136 157 160 163
0.367559 0.124333 1.139 111 115 115
0.371922 0.125206 1.147 116 120 120
-0.162938 0.128761 1.163 129 158 189
-0.16127 0.128871 1.164 125 154 185
-0.159462 0.128871 1.164 126 155 186
-0.157655 0.128871 1.164 127 156 187
-0.155847 0.128871 1.164 125 154 187
-0.154039 0.128871 1.164 122 151 184
-0.152231 0.128871 1.164 121 149 177
-0.150294 0.128761 1.163 128 156 184
-0.148361 0.12865 1.162 127 150 174
-0.146556 0.12865 1.162 97 120 144
-0.144751 0.12865 1.162 108 127 150
-0.142947 0.12865 1.162 95 114 137
-0.141021 0.128539 1.161 93 112 135
-0.139218 0.128539 1.161 89 108 131
-0.137415 0.128539 1.161 87 106 129
-0.135611 0.128539 1.161 86 105 128
-0.133808 0.128539 1.161 85 104 127
-0.132005 0.128539 1.161 107 126 149
-0.13009 0.128429 1.16 126 147 170
-0.128289 0.128429 1.16 114 135 158
-0.126487 0.128429 1.16 121 142 165
-0.124686 0.128429 1.16 93 114 137
-0.122884 0.128429 1.16 88 114 136
-0.121082 0.128429 1.16 88 114 136
-0.119281 0.128429 1.16 85 109 141
-0.117479 0.128429 1.16 130 154 186
-0.115678 0.128429 1.16 114 140 175
-0.113876 0.128429 1.16 133 159 194
-0.112075 0.128429 1.16 138 168 205
-0.110273 0.128429 1.16 136 166 203
-0.108378 0.128318 1.159 135 165 202
-0.106578 0.128318 1.159 134 164 201
-0.104688 0.128207 1.158 134 164 201
-0.10289 0.128207 1.158 135 165 202
-0.101091 0.128207 1.158 135 165 202
-0.0992928 0.128207 1.158 134 164 201
-0.0974101 0.128096 1.157 134 164 201
-0.0956133 0.128096 1.157 137 167 204
-0.0938164 0.128096 1.157 138 168 205
-0.09194 0.127986 1.156 139 169 206
-0.0901447 0.127986 1.156 141 171 208
-0.0883494 0.127986 1.156 141 171 208
-0.0865541 0.127986 1.156 142 172 209
-0.0847588 0.127986 1.156 142 172 209
-0.0829635 0.127986 1.156 141 171 208
-0.0811682 0.127986 1.156 142 172 209
-0.0793729 0.127986 1.156 142 172 209
-0.0776447 0.128096 1.157 136 166 203
-0.0759134 0.128207 1.158 132 162 199
-0.074115 0.128207 1.158 139 169 206
-0.0723165 0.128207 1.158 141 171 208
-0.0706399 0.128429 1.16 141 171 208
-0.0688384 0.128429 1.16 139 169 206
-0.0670369 0.128429 1.16 141 171 208
-0.0652354 0.128429 1.16 141 173 210
-0.0634885 0.128539 1.161 136 168 205
-0.0616855 0.128539 1.161 130 162 199
-0.0598824 0.128539 1.161 136 168 205
-0.0581293 0.12865 1.162 139 171 208
-0.0562762 0.128539 1.161 139 171 208
-0.0545201 0.12865 1.162 139 171 208
-0.0527155 0.12865 1.162 139 171 208
-0.0509108 0.12865 1.162 137 169 206
-0.0491062 0.12865 1.162 134 166 203
-0.0473016 0.12865 1.162 144 176 213
-0.045497 0.12865 1.162 147 179 216
-0.0436923 0.12865 1.162 136 168 205
-0.0418877 0.12865 1.162 140 172 209
-0.0400831 0.12865 1.162 142 174 211
-0.0382785 0.12865 1.162 143 175 212
-0.0364738 0.12865 1.162 143 175 212
-0.0346692 0.12865 1.162 148 180 217
-0.0328646 0.12865 1.162 144 176 213
-0.03106 0.12865 1.162 142 174 211
-0.0292553 0.12865 1.162 141 174 208
-0.0274507 0.12865 1.162 140 173 207
-0.0256461 0.12865 1.162 133 166 200
-0.0238415 0.12865 1.162 134 167 201
-0.0220558 0.128761 1.163 137 170 204
-0.0202496 0.128761 1.163 135 168 202
-0.0184434 0.128761 1.163 135 168 202
-0.0166373 0.128761 1.163 130 163 197
-0.0148311 0.128761 1.163 129 162 196
-0.0130361 0.128871 1.164 129 162 196
-0.0112284 0.128871 1.164 129 163 195
-0.00942064 0.128871 1.164 132 166 198
-0.00761291 0.128871 1.164 135 169 201
-0.00580518 0.128871 1.164 130 164 196
-0.00399744 0.128871 1.164 129 163 195
-0.00218783 0.128761 1.163 129 163 195
-0.000381652 0.128761 1.163 130 164 196
0.00142453 0.128761 1.163 128 162 194
0.00322793 0.12865 1.162 126 160 192
0.00502822 0.128539 1.161 129 163 195
0.00683129 0.128539 1.161 129 163 195
0.00862693 0.128429 1.16 137 171 203
0.0104284 0.128429 1.16 138 170 202
0.01223 0.128429 1.16 134 166 198
0.0140315 0.128429 1.16 131 163 195
0.015833 0.128429 1.16 131 163 195
0.0176345 0.128429 1.16 140 169 202
0.019436 0.128429 1.16 131 160 193
0.0212376 0.128429 1.16 127 156 189
0.0230391 0.128429 1.16 131 160 193
0.0248406 0.128429 1.16 138 167 200
0.0266192 0.128318 1.159 131 160 193
0.0284191 0.128318 1.159 127 156 189
0.0302191 0.128318 1.159 125 154 187
0.0320191 0.128318 1.159 120 149 182
0.0338482 0.128429 1.16 118 147 180
0.0356805 0.128539 1.161 117 146 179
0.0374835 0.128539 1.161 120 149 182
0.0393204 0.12865 1.162 119 148 179
0.0410897 0.128539 1.161 124 153 184
0.0429297 0.12865 1.162 130 159 190
0.0447343 0.12865 1.162 124 153 184
0.0465389 0.12865 1.162 122 149 180
0.0483436 0.12865 1.162 121 148 179
0.0501482 0.12865 1.162 129 156 187
0.0519528 0.12865 1.162 120 147 178
0.0537112 0.128539 1.161 120 147 180
0.0554664 0.128429 1.16 119 146 179
0.0571692 0.128207 1.158 109 136 169
0.0589167 0.128096 1.157 110 137 170
0.0606611 0.127986 1.156 105 132 165
0.0623483 0.127764 1.154 104 131 164
0.0641405 0.127764 1.154 104 128 162
0.0659327 0.127764 1.154 104 128 162
0.0676663 0.127654 1.153 102 126 160
0.0694569 0.127654 1.153 97 121 155
0.0713094 0.127764 1.154 98 122 156
0.0732282 0.127986 1.156 98 122 156
0.0750885 0.128096 1.157 99 121 155
0.0769518 0.128207 1.158 100 122 156
0.0788862 0.128429 1.16 100 122 156
0.0806877 0.128429 1.16 102 124 158
0.0824892 0.128429 1.16 103 125 159
0.0843634 0.128539 1.161 101 123 157
0.0862407 0.12865 1.162 99 121 155
0.0880453 0.12865 1.162 100 122 156
0.0899273 0.128761 1.163 100 122 154
0.0916546 0.12865 1.162 100 122 154
0.0936201 0.128871 1.164 102 125 154
0.0955098 0.128982 1.165 102 125 154
0.0974861 0.129204 1.167 107 126 154
0.0993836 0.129314 1.168 97 116 144
0.103276 0.129646 1.171 15 35 47
0.105274 0.129868 1.173 26 44 35
0.107187 0.129979 1.174 40 58 49
0.109289 0.130311 1.177 47 63 41
0.111306 0.130532 1.179 45 61 39
0.113233 0.130643 1.18 43 61 34
0.11526 0.130864 1.182 43 61 34
0.117096 0.130864 1.182 43 61 34
0.119032 0.130975 1.183 43 61 34
0.120972 0.131086 1.184 40 55 29
0.122914 0.131196 1.185 45 60 34
0.12486 0.131307 1.186 48 63 35
0.126809 0.131418 1.187 48 63 35
0.128652 0.131418 1.187 45 63 34
0.130715 0.131639 1.189 46 64 35
0.132673 0.13175 1.19 45 63 34
0.134522 0.13175 1.19 48 66 37
0.13637 0.13175 1.19 51 69 40
0.138218 0.13175 1.19 48 66 37
0.140066 0.13175 1.19 46 64 35
0.141914 0.13175 1.19 47 65 36
0.143762 0.13175 1.19 46 64 35
0.14561 0.13175 1.19 47 65 36
0.147458 0.13175 1.19 48 67 35
0.149306 0.13175 1.19 51 70 38
0.151155 0.13175 1.19 43 62 30
0.153003 0.13175 1.19 46 65 33
0.154721 0.131639 1.189 48 64 33
0.156567 0.131639 1.189 49 65 34
0.158414 0.131639 1.189 49 65 34
0.16026 0.131639 1.189 49 65 34
0.161971 0.131529 1.188 50 67 34
0.163816 0.131529 1.188 52 69 36
0.165521 0.131418 1.187 54 71 38
0.167365 0.131418 1.187 56 73 40
0.169208 0.131418 1.187 54 71 38
0.170907 0.131307 1.186 54 71 38
0.172749 0.131307 1.186 54 71 38
0.174591 0.131307 1.186 54 71 38
0.176433 0.131307 1.186 54 71 38
0.178275 0.131307 1.186 54 71 38
0.180269 0.131418 1.187 53 70 37
0.182112 0.131418 1.187 53 70 37
0.183956 0.131418 1.187 54 71 38
0.185956 0.131529 1.188 53 70 37
0.187801 0.131529 1.188 54 71 38
0.189646 0.131529 1.188 54 71 38
0.191652 0.131639 1.189 52 70 34
0.193498 0.131639 1.189 52 70 34
0.195345 0.131639 1.189 53 71 35
0.197357 0.13175 1.19 52 70 34
0.199205 0.13175 1.19 53 71 35
0.200885 0.131639 1.189 52 70 34
0.202561 0.131529 1.188 52 70 34
0.204406 0.131529 1.188 53 71 35
0.206251 0.131529 1.188 52 70 34
0.208096 0.131529 1.188 53 71 35
0.209764 0.131418 1.187 54 72 36
0.211429 0.131307 1.186 54 72 36
0.213271 0.131307 1.186 54 72 36
0.215113 0.131307 1.186 54 72 36
0.216955 0.131307 1.186 54 72 36
0.218797 0.131307 1.186 52 70 34
0.220639 0.131307 1.186 54 72 36
0.222481 0.131307 1.186 54 72 36
0.224322 0.131307 1.186 55 73 37
0.226164 0.131307 1.186 54 72 36
0.228006 0.131307 1.186 56 74 38
0.230042 0.131418 1.187 55 73 37
0.231885 0.131418 1.187 56 74 38
0.233532 0.131307 1.186 55 73 37
0.235572 0.131418 1.187 54 72 36
0.237416 0.131418 1.187 54 72 36
0.239259 0.131418 1.187 54 72 36
0.241103 0.131418 1.187 54 72 36
0.242946 0.131418 1.187 55 73 37
0.24479 0.131418 1.187 54 72 36
0.246633 0.131418 1.187 53 71 35
0.248476 0.131418 1.187 56 74 38
0.250109 0.131307 1.186 60 78 42
0.251951 0.131307 1.186 56 74 38
0.253579 0.131196 1.185 55 73 37
0.255419 0.131196 1.185 54 72 36
0.257259 0.131196 1.185 54 72 36
0.258881 0.131086 1.184 55 73 37
0.2605 0.130975 1.183 55 73 37
0.262337 0.130975 1.183 54 72 36
0.264174 0.130975 1.183 54 72 36
0.266011 0.130975 1.183 54 72 36
0.268075 0.131086 1.184 54 73 35
0.269914 0.131086 1.184 55 74 36
0.271982 0.131196 1.185 55 74 36
0.274054 0.131307 1.186 54 73 35
0.276128 0.131418 1.187 56 75 35
0.278206 0.131529 1.188 55 74 34
0.280522 0.13175 1.19 54 73 33
0.28237 0.13175 1.19 53 72 32
0.284696 0.131971 1.192 53 72 32
0.286547 0.131971 1.192 52 71 31
0.288883 0.132193 1.194 53 72 32
0.29098 0.132304 1.195 54 73 33
0.292836 0.132304 1.195 55 74 34
0.294939 0.132414 1.196 56 75 35
0.297044 0.132525 1.197 55 74 34
0.298903 0.132525 1.197 54 73 33
0.300762 0.132525 1.197 54 73 33
0.302621 0.132525 1.197 54 73 33
0.304735 0.132636 1.198 55 74 36
0.306595 0.132636 1.198 57 76 38
0.308713 0.132746 1.199 60 79 41
0.310575 0.132746 1.199 60 79 41
0.312177 0.132636 1.198 60 79 41
0.314037 0.132636 1.198 60 79 41
0.315898 0.132636 1.198 60 79 41
0.317758 0.132636 1.198 59 78 40
0.319352 0.132525 1.197 57 76 36
0.321211 0.132525 1.197 62 81 41
0.32307 0.132525 1.197 64 83 43
0.324929 0.132525 1.197 62 81 41
0.326788 0.132525 1.197 64 84 41
0.328372 0.132414 1.196 78 98 55
0.329954 0.132304 1.195 78 99 54
0.331532 0.132193 1.194 82 103 58
0.333107 0.132082 1.193 82 103 58
0.334679 0.131971 1.192 78 99 54
0.336248 0.131861 1.191 75 96 51
0.337814 0.13175 1.19 84 105 60
0.339376 0.131639 1.189 89 110 65
0.341223 0.131639 1.189 84 105 60
0.342781 0.131529 1.188 85 105 62
0.344626 0.131529 1.188 85 105 62
0.346471 0.131529 1.188 86 105 67
0.348316 0.131529 1.188 86 105 67
0.350161 0.131529 1.188 85 104 66
0.352006 0.131529 1.188 86 105 67
0.353851 0.131529 1.188 88 107 69
0.355696 0.131529 1.188 89 108 70
0.35724 0.131418 1.187 77 84 43
0.359084 0.131418 1.187 70 77 36
0.360319 0.131196 1.185 192 195 154
0.360631 0.130643 1.18 141 144 103
0.360928 0.130089 1.175 74 76 40
0.361518 0.129646 1.171 83 85 49
0.361475 0.128982 1.165 70 69 52
0.361725 0.128429 1.16 88 87 70
0.361646 0.127764 1.154 213 222 208
0.360604 0.126768 1.145 239 248 234
0.361432 0.126436 1.142 193 202 188
0.36257 0.126214 1.14 228 237 223
0.363701 0.125993 1.138 240 239 243
0.364826 0.125771 1.136 164 163 167
0.367881 0.126214 1.14 113 117 117
0.371922 0.126989 1.147 118 122 122
-0.162798 0.130457 1.162 126 155 186
-0.161132 0.130569 1.163 129 158 189
-0.159325 0.130569 1.163 131 160 191
-0.157655 0.130681 1.164 133 162 193
-0.155847 0.130681 1.164 130 159 190
-0.153907 0.130569 1.163 130 159 190
-0.15197 0.130457 1.162 128 156 184
-0.150165 0.130457 1.162 129 157 185
-0.148361 0.130457 1.162 126 150 177
-0.146556 0.130457 1.162 95 119 146
-0.144751 0.130457 1.162 99 119 144
-0.142824 0.130345 1.161 97 117 142
-0.140899 0.130232 1.16 100 120 145
-0.139098 0.130232 1.16 96 116 141
-0.137296 0.130232 1.16 108 127 155
-0.135495 0.130232 1.16 130 149 177
-0.133693 0.130232 1.16 131 153 180
-0.131892 0.130232 1.16 132 154 181
-0.129978 0.13012 1.159 127 150 174
-0.128178 0.13012 1.159 126 149 173
-0.126487 0.130232 1.16 121 146 170
-0.124686 0.130232 1.16 110 135 159
-0.122884 0.130232 1.16 99 124 148
-0.121082 0.130232 1.16 100 125 149
-0.119178 0.13012 1.159 107 134 165
-0.117378 0.13012 1.159 128 155 186
-0.115678 0.130232 1.16 112 141 174
-0.113876 0.130232 1.16 137 166 199
-0.111978 0.13012 1.159 141 168 206
-0.110273 0.130232 1.16 138 165 203
-0.108378 0.13012 1.159 136 166 203
-0.106486 0.130008 1.158 136 166 203
-0.104688 0.130008 1.158 135 165 202
-0.10289 0.130008 1.158 134 164 201
-0.101091 0.130008 1.158 136 166 203
-0.0992928 0.130008 1.158 141 171 208
-0.0974101 0.129895 1.157 137 167 204
-0.0956133 0.129895 1.157 136 166 203
-0.0937353 0.129783 1.156 136 166 203
-0.09194 0.129783 1.156 136 166 203
-0.0901447 0.129783 1.156 137 167 204
-0.0883494 0.129783 1.156 139 169 206
-0.0865541 0.129783 1.156 141 171 208
-0.0847588 0.129783 1.156 142 172 209
-0.0829635 0.129783 1.156 141 171 208
-0.0811682 0.129783 1.156 139 169 206
-0.0793729 0.129783 1.156 141 171 208
-0.0776447 0.129895 1.157 141 171 208
-0.0759134 0.130008 1.158 139 171 208
-0.074115 0.130008 1.158 137 169 206
-0.0723165 0.130008 1.158 140 172 209
-0.0706399 0.130232 1.16 140 172 209
-0.0688384 0.130232 1.16 139 171 208
-0.0670369 0.130232 1.16 140 172 209
-0.0652916 0.130345 1.161 140 172 209
-0.0634885 0.130345 1.161 140 172 209
-0.0617386 0.130457 1.162 142 174 211
-0.059934 0.130457 1.162 143 175 212
-0.0581293 0.130457 1.162 140 172 209
-0.0563247 0.130457 1.162 136 168 205
-0.054567 0.130569 1.163 137 169 206
-0.0527608 0.130569 1.163 136 168 205
-0.0509547 0.130569 1.163 134 166 203
-0.0491485 0.130569 1.163 137 169 206
-0.0473423 0.130569 1.163 147 179 216
-0.0455753 0.130681 1.164 144 176 213
-0.0437675 0.130681 1.164 143 175 212
-0.0419598 0.130681 1.164 140 172 209
-0.0401521 0.130681 1.164 143 175 212
-0.0383114 0.130569 1.163 148 180 217
-0.0365052 0.130569 1.163 141 173 210
-0.034699 0.130569 1.163 135 167 204
-0.0328929 0.130569 1.163 137 169 206
-0.0310867 0.130569 1.163 141 173 210
-0.0292805 0.130569 1.163 141 174 208
-0.0274743 0.130569 1.163 141 174 208
-0.0256682 0.130569 1.163 142 175 209
-0.023862 0.130569 1.163 149 182 216
-0.0220558 0.130569 1.163 140 173 207
-0.0202496 0.130569 1.163 140 173 207
-0.0184593 0.130681 1.164 137 171 203
-0.0166373 0.130569 1.163 133 167 199
-0.0148311 0.130569 1.163 140 174 206
-0.0130249 0.130569 1.163 150 184 216
-0.0112284 0.130681 1.164 142 176 208
-0.00942064 0.130681 1.164 139 173 205
-0.00761291 0.130681 1.164 143 177 209
-0.00580518 0.130681 1.164 149 183 215
-0.00399744 0.130681 1.164 143 177 209
-0.00218971 0.130681 1.164 142 176 208
-0.000381652 0.130569 1.163 139 175 207
0.00142453 0.130569 1.163 139 175 207
0.00322515 0.130345 1.161 139 175 207
0.00502822 0.130345 1.161 139 175 207
0.00683129 0.130345 1.161 141 177 209
0.00863437 0.130345 1.161 141 177 209
0.0104374 0.130345 1.161 139 173 205
0.0122405 0.130345 1.161 141 175 207
0.0140436 0.130345 1.161 142 174 206
0.015833 0.130232 1.16 141 173 205
0.0176345 0.130232 1.16 142 174 206
0.019436 0.130232 1.16 142 174 206
0.0212376 0.130232 1.16 136 168 200
0.0230391 0.130232 1.16 135 167 199
0.0248406 0.130232 1.16 139 171 203
0.0266192 0.13012 1.159 141 173 205
0.0284191 0.13012 1.159 138 170 202
0.0302191 0.13012 1.159 138 170 202
0.0320191 0.13012 1.159 131 163 195
0.0338482 0.130232 1.16 125 157 189
0.0356497 0.130232 1.16 137 166 199
0.0374835 0.130345 1.161 140 169 202
0.0393204 0.130457 1.162 131 160 191
0.0411251 0.130457 1.162 131 160 191
0.0429297 0.130457 1.162 136 165 196
0.0447343 0.130457 1.162 136 165 196
0.0465389 0.130457 1.162 129 158 189
0.0483852 0.130569 1.163 118 147 178
0.0501482 0.130457 1.162 123 152 183
0.0519528 0.130457 1.162 120 149 180
0.0537574 0.130457 1.162 117 144 177
0.0554664 0.130232 1.16 117 144 177
0.0572186 0.13012 1.159 111 138 171
0.0589676 0.130008 1.158 114 141 174
0.0606611 0.129783 1.156 116 140 174
0.0624564 0.129783 1.156 114 138 172
0.0641405 0.129559 1.154 111 135 169
0.0659327 0.129559 1.154 104 128 162
0.067725 0.129559 1.154 104 128 162
0.0695172 0.129559 1.154 102 126 160
0.0713094 0.129559 1.154 99 123 157
0.0732282 0.129783 1.156 100 124 158
0.0750885 0.129895 1.157 101 123 157
0.0770182 0.13012 1.159 102 124 158
0.0788862 0.130232 1.16 101 123 157
0.0807573 0.130345 1.161 101 123 157
0.0826315 0.130457 1.162 100 122 156
0.0844361 0.130457 1.162 100 122 156
0.0863149 0.130569 1.163 100 122 156
0.0881969 0.130681 1.164 100 122 156
0.0900046 0.130681 1.164 101 123 155
0.0918123 0.130681 1.164 101 123 155
0.0936201 0.130681 1.164 101 124 153
0.0955918 0.130906 1.166 100 123 152
0.0974861 0.131018 1.167 110 132 159
0.0994687 0.131243 1.169 97 119 146
0.103276 0.131467 1.171 17 37 49
0.105274 0.131692 1.173 30 50 41
0.107187 0.131804 1.174 38 58 49
0.109196 0.132029 1.176 45 61 39
0.111306 0.132365 1.179 43 59 37
0.113233 0.132478 1.18 43 61 34
0.115163 0.13259 1.181 39 57 30
0.117096 0.132702 1.182 45 63 36
0.119032 0.132814 1.183 48 66 39
0.120972 0.132927 1.184 47 62 36
0.122914 0.133039 1.185 48 63 37
0.124755 0.133039 1.185 48 63 35
0.126809 0.133264 1.187 47 62 34
0.128652 0.133264 1.187 47 62 34
0.130605 0.133376 1.188 50 65 37
0.132562 0.133488 1.189 47 65 36
0.134522 0.1336 1.19 50 68 39
0.136255 0.133488 1.189 50 68 39
0.138218 0.1336 1.19 48 66 37
0.140066 0.1336 1.19 47 65 36
0.141795 0.133488 1.189 48 66 37
0.143641 0.133488 1.189 46 65 33
0.145488 0.133488 1.189 46 65 33
0.147334 0.133488 1.189 53 72 40
0.149181 0.133488 1.189 52 71 39
0.150901 0.133376 1.188 51 70 38
0.152746 0.133376 1.188 50 69 37
0.154591 0.133376 1.188 48 67 35
0.156304 0.133264 1.187 48 67 35
0.158147 0.133264 1.187 47 66 34
0.159991 0.133264 1.187 47 66 34
0.161834 0.133264 1.187 50 66 35
0.163678 0.133264 1.187 50 66 35
0.165521 0.133264 1.187 53 70 37
0.167224 0.133151 1.186 56 73 40
0.169065 0.133151 1.186 55 72 39
0.170907 0.133151 1.186 54 71 38
0.172749 0.133151 1.186 54 71 38
0.174591 0.133151 1.186 54 71 38
0.176433 0.133151 1.186 54 71 38
0.178425 0.133264 1.187 54 71 38
0.180269 0.133264 1.187 53 70 37
0.182112 0.133264 1.187 53 70 37
0.183956 0.133264 1.187 53 70 37
0.185956 0.133376 1.188 52 69 36
0.187959 0.133488 1.189 53 70 37
0.189805 0.133488 1.189 54 71 38
0.191652 0.133488 1.189 53 71 35
0.193661 0.1336 1.19 52 70 34
0.195509 0.1336 1.19 52 70 34
0.197357 0.1336 1.19 52 70 34
0.199205 0.1336 1.19 52 70 34
0.200885 0.133488 1.189 50 68 32
0.202731 0.133488 1.189 52 70 34
0.204578 0.133488 1.189 53 71 35
0.206251 0.133376 1.188 53 71 35
0.20792 0.133264 1.187 53 71 35
0.209764 0.133264 1.187 54 72 36
0.211607 0.133264 1.187 54 72 36
0.213271 0.133151 1.186 54 72 36
0.215113 0.133151 1.186 55 73 37
0.216955 0.133151 1.186 54 72 36
0.218797 0.133151 1.186 53 71 35
0.220639 0.133151 1.186 54 72 36
0.222668 0.133264 1.187 53 71 35
0.224512 0.133264 1.187 55 73 37
0.226355 0.133264 1.187 54 72 36
0.228198 0.133264 1.187 55 73 37
0.230236 0.133376 1.188 55 73 37
0.232081 0.133376 1.188 56 74 38
0.233926 0.133376 1.188 56 74 38
0.235572 0.133264 1.187 55 73 37
0.237416 0.133264 1.187 55 73 37
0.239259 0.133264 1.187 54 72 36
0.241103 0.133264 1.187 54 72 36
0.242946 0.133264 1.187 57 75 39
0.24479 0.133264 1.187 56 74 38
0.246633 0.133264 1.187 56 74 38
0.248476 0.133264 1.187 57 75 39
0.25032 0.133264 1.187 56 74 38
0.251951 0.133151 1.186 56 74 38
0.253579 0.133039 1.185 55 73 37
0.255419 0.133039 1.185 54 72 36
0.257259 0.133039 1.185 55 73 37
0.258881 0.132927 1.184 56 74 38
0.26072 0.132927 1.184 56 74 38
0.262559 0.132927 1.184 55 73 37
0.264398 0.132927 1.184 55 73 37
0.266236 0.132927 1.184 56 74 38
0.268302 0.133039 1.185 56 74 38
0.270142 0.133039 1.185 55 73 37
0.271982 0.133039 1.185 55 73 37
0.274054 0.133151 1.186 55 73 37
0.276128 0.133264 1.187 55 74 36
0.278206 0.133376 1.188 53 72 34
0.280522 0.1336 1.19 54 73 35
0.282608 0.133713 1.191 54 73 35
0.284696 0.133825 1.192 53 72 32
0.286547 0.133825 1.192 53 72 32
0.288883 0.134049 1.194 53 72 32
0.29098 0.134162 1.195 54 73 33
0.292836 0.134162 1.195 56 75 35
0.294939 0.134274 1.196 57 76 36
0.297044 0.134386 1.197 56 75 35
0.298903 0.134386 1.197 55 74 34
0.300762 0.134386 1.197 55 74 34
0.302874 0.134498 1.198 55 74 34
0.304735 0.134498 1.198 55 74 36
0.306851 0.134611 1.199 56 75 37
0.308971 0.134723 1.2 61 80 42
0.310834 0.134723 1.2 60 79 41
0.312698 0.134723 1.2 60 79 41
0.314562 0.134723 1.2 61 80 42
0.316425 0.134723 1.2 60 79 41
0.318289 0.134723 1.2 60 79 41
0.320152 0.134723 1.2 60 79 39
0.322016 0.134723 1.2 63 82 42
0.32388 0.134723 1.2 66 86 43
0.325472 0.134611 1.199 77 97 54
0.327334 0.134611 1.199 75 95 52
0.328922 0.134498 1.198 77 97 54
0.330506 0.134386 1.197 81 102 57
0.332087 0.134274 1.196 85 106 61
0.333665 0.134162 1.195 82 103 58
0.335241 0.134049 1.194 76 97 52
0.33653 0.133825 1.192 75 96 51
0.338098 0.133713 1.191 91 112 67
0.339662 0.1336 1.19 85 106 61
0.341223 0.133488 1.189 77 98 53
0.342781 0.133376 1.188 77 99 58
0.344626 0.133376 1.188 82 104 63
0.346471 0.133376 1.188 83 105 66
0.348316 0.133376 1.188 80 102 63
0.349866 0.133264 1.187 84 105 68
0.35171 0.133264 1.187 84 105 68
0.353553 0.133264 1.187 88 107 69
0.355397 0.133264 1.187 88 107 69
0.35724 0.133264 1.187 75 83 40
0.359084 0.133264 1.187 68 76 33
0.360319 0.133039 1.185 193 197 154
0.360631 0.132478 1.18 133 137 94
0.360928 0.131916 1.175 76 78 42
0.361518 0.131467 1.171 83 85 49
0.361785 0.130906 1.166 70 69 52
0.361725 0.130232 1.16 87 86 69
0.361646 0.129559 1.154 220 225 212
0.360604 0.128548 1.145 245 250 237
0.361432 0.128211 1.142 187 195 183
0.36257 0.127987 1.14 223 231 219
0.363701 0.127762 1.138 236 238 243
0.365469 0.127762 1.138 163 165 170
0.367881 0.127987 1.14 112 116 116
0.371922 0.128773 1.147 120 124 124
-0.162798 0.132264 1.162 130 159 190
-0.160993 0.132264 1.162 129 158 189
-0.159188 0.132264 1.162 129 158 189
-0.157384 0.132264 1.162 130 159 190
-0.155579 0.132264 1.162 130 159 190
-0.153774 0.132264 1.162 129 158 189
-0.15197 0.132264 1.162 129 156 187
-0.150165 0.132264 1.162 135 162 193
-0.148361 0.132264 1.162 130 155 184
-0.146556 0.132264 1.162 100 125 154
-0.144627 0.13215 1.161 99 121 148
-0.142824 0.13215 1.161 104 126 153
-0.140899 0.132036 1.16 110 132 159
-0.139098 0.132036 1.16 111 133 160
-0.137296 0.132036 1.16 109 132 161
-0.135495 0.132036 1.16 114 137 166
-0.133693 0.132036 1.16 116 140 167
-0.131892 0.132036 1.16 111 135 162
-0.129978 0.131922 1.159 111 136 160
-0.128178 0.131922 1.159 110 135 159
-0.126378 0.131922 1.159 106 133 157
-0.124686 0.132036 1.16 109 136 160
-0.122778 0.131922 1.159 105 132 156
-0.120978 0.131922 1.159 111 138 162
-0.119178 0.131922 1.159 102 131 164
-0.117378 0.131922 1.159 104 133 166
-0.115678 0.132036 1.16 105 136 170
-0.113876 0.132036 1.16 143 174 208
-0.112075 0.132036 1.16 139 169 206
-0.110273 0.132036 1.16 136 166 203
-0.108378 0.131922 1.159 141 171 208
-0.106486 0.131808 1.158 137 167 204
-0.104688 0.131808 1.158 138 168 205
-0.10289 0.131808 1.158 136 166 203
-0.101091 0.131808 1.158 142 172 209
-0.0992928 0.131808 1.158 143 173 210
-0.0974101 0.131694 1.157 138 168 205
-0.0955306 0.131581 1.156 137 167 204
-0.0937353 0.131581 1.156 134 164 201
-0.09194 0.131581 1.156 137 167 204
-0.0901447 0.131581 1.156 136 166 203
-0.0883494 0.131581 1.156 139 169 206
-0.0865541 0.131581 1.156 139 169 206
-0.0847588 0.131581 1.156 139 169 206
-0.0829635 0.131581 1.156 141 171 208
-0.0811682 0.131581 1.156 141 171 208
-0.0793729 0.131581 1.156 143 173 210
-0.0775776 0.131581 1.156 144 174 211
-0.0758478 0.131694 1.157 145 175 212
-0.074115 0.131808 1.158 144 174 211
-0.0723165 0.131808 1.158 145 175 212
-0.070579 0.131922 1.159 143 173 210
-0.0688384 0.132036 1.16 137 169 206
-0.0670369 0.132036 1.16 142 174 211
-0.0652916 0.13215 1.161 141 173 210
-0.0635432 0.132264 1.162 142 174 211
-0.0617386 0.132264 1.162 149 181 218
-0.0599855 0.132377 1.163 148 180 217
-0.0581794 0.132377 1.163 144 176 213
-0.0564217 0.132491 1.164 134 166 203
-0.0546139 0.132491 1.164 133 165 202
-0.0528062 0.132491 1.164 140 172 209
-0.0509985 0.132491 1.164 144 176 213
-0.0491907 0.132491 1.164 142 174 211
-0.047383 0.132491 1.164 144 176 213
-0.0456144 0.132605 1.165 144 176 213
-0.0438051 0.132605 1.165 144 176 213
-0.0419959 0.132605 1.165 146 178 215
-0.0401521 0.132491 1.164 143 175 212
-0.0383443 0.132491 1.164 137 169 206
-0.0365366 0.132491 1.164 128 160 197
-0.0347289 0.132491 1.164 127 159 196
-0.0329212 0.132491 1.164 126 158 195
-0.0311134 0.132491 1.164 130 162 199
-0.0293057 0.132491 1.164 134 166 203
-0.0274743 0.132377 1.163 137 169 206
-0.0256682 0.132377 1.163 143 176 210
-0.023862 0.132377 1.163 148 181 215
-0.0220558 0.132377 1.163 142 175 209
-0.0202496 0.132377 1.163 143 176 210
-0.0184434 0.132377 1.163 146 180 212
-0.0166373 0.132377 1.163 147 181 213
-0.0148311 0.132377 1.163 155 189 221
-0.0130361 0.132491 1.164 156 190 222
-0.0112284 0.132491 1.164 153 187 219
-0.00942064 0.132491 1.164 147 181 213
-0.00761291 0.132491 1.164 148 182 214
-0.00580518 0.132491 1.164 153 187 219
-0.00399744 0.132491 1.164 155 189 221
-0.00218783 0.132377 1.163 149 183 215
-0.000381652 0.132377 1.163 142 178 210
0.0014233 0.132264 1.162 146 182 214
0.00322793 0.132264 1.162 152 188 220
0.00502822 0.13215 1.161 152 188 220
0.00682541 0.132036 1.16 151 187 219
0.00862693 0.132036 1.16 146 182 214
0.0104284 0.132036 1.16 141 175 207
0.01223 0.132036 1.16 142 176 208
0.0140436 0.13215 1.161 147 181 213
0.0158467 0.13215 1.161 142 176 208
0.0176345 0.132036 1.16 144 176 208
0.019436 0.132036 1.16 143 175 207
0.0212376 0.132036 1.16 143 175 207
0.0230391 0.132036 1.16 141 173 205
0.0248406 0.132036 1.16 142 174 206
0.0266192 0.131922 1.159 144 176 208
0.0284191 0.131922 1.159 145 177 209
0.0302191 0.131922 1.159 142 174 206
0.0320191 0.131922 1.159 138 170 202
0.033819 0.131922 1.159 141 173 205
0.0356497 0.132036 1.16 142 174 206
0.0374835 0.13215 1.161 138 170 202
0.0392866 0.13215 1.161 132 164 196
0.0410897 0.13215 1.161 132 164 196
0.0429297 0.132264 1.162 141 170 201
0.0447343 0.132264 1.162 141 170 201
0.0465389 0.132264 1.162 140 169 200
0.0483852 0.132377 1.163 133 162 193
0.0501913 0.132377 1.163 130 159 190
0.0519975 0.132377 1.163 127 156 187
0.0537574 0.132264 1.162 120 147 180
0.0555621 0.132264 1.162 113 140 173
0.057268 0.132036 1.16 110 137 170
0.0589676 0.131808 1.158 113 140 173
0.060766 0.131808 1.158 117 144 177
0.0624564 0.131581 1.156 119 146 179
0.0641961 0.131467 1.155 122 146 180
0.0659899 0.131467 1.155 109 133 167
0.067725 0.131353 1.154 105 129 163
0.0695774 0.131467 1.155 98 122 156
0.0714329 0.131581 1.156 94 118 152
0.0732916 0.131694 1.157 100 124 158
0.0751534 0.131808 1.158 102 124 158
0.0770847 0.132036 1.16 101 123 157
0.0788862 0.132036 1.16 100 122 156
0.0808268 0.132264 1.162 100 122 156
0.0826315 0.132264 1.162 100 122 156
0.0845087 0.132377 1.163 100 122 156
0.0863891 0.132491 1.164 100 122 156
0.0881969 0.132491 1.164 102 124 158
0.0900046 0.132491 1.164 102 124 156
0.0918123 0.132491 1.164 107 129 161
0.0937005 0.132605 1.165 100 123 152
0.0955918 0.132719 1.166 101 124 153
0.0975697 0.132946 1.168 111 134 158
0.0994687 0.13306 1.169 96 119 143
0.103276 0.133288 1.171 24 45 54
0.105274 0.133516 1.173 36 57 46
0.107187 0.133629 1.174 38 59 48
0.109103 0.133743 1.175 47 64 39
0.111211 0.134085 1.178 45 62 37
0.113233 0.134312 1.18 48 66 39
0.115163 0.134426 1.181 50 68 41
0.117096 0.13454 1.182 48 66 39
0.118932 0.13454 1.182 47 65 38
0.120972 0.134768 1.184 48 63 35
0.122914 0.134882 1.185 49 64 36
0.124755 0.134882 1.185 50 65 37
0.126702 0.134995 1.186 49 64 36
0.128652 0.135109 1.187 47 62 34
0.130496 0.135109 1.187 50 65 37
0.13245 0.135223 1.188 48 66 37
0.134409 0.135337 1.189 48 66 37
0.136255 0.135337 1.189 47 65 36
0.138102 0.135337 1.189 48 66 37
0.13983 0.135223 1.188 48 66 37
0.141675 0.135223 1.188 47 65 36
0.14352 0.135223 1.188 46 64 35
0.145365 0.135223 1.188 47 65 36
0.147087 0.135109 1.187 52 70 41
0.14893 0.135109 1.187 52 70 41
0.150773 0.135109 1.187 51 70 38
0.152617 0.135109 1.187 51 70 38
0.15446 0.135109 1.187 51 70 38
0.156172 0.134995 1.186 50 69 37
0.158014 0.134995 1.186 48 67 35
0.159856 0.134995 1.186 48 67 35
0.161698 0.134995 1.186 50 66 35
0.16354 0.134995 1.186 50 66 35
0.165242 0.134882 1.185 52 69 36
0.167083 0.134882 1.185 55 72 39
0.168923 0.134882 1.185 55 72 39
0.170763 0.134882 1.185 55 72 39
0.172604 0.134882 1.185 54 71 38
0.174591 0.134995 1.186 54 71 38
0.176433 0.134995 1.186 56 73 40
0.178425 0.135109 1.187 54 71 38
0.180269 0.135109 1.187 53 70 37
0.182112 0.135109 1.187 53 70 37
0.184111 0.135223 1.188 53 70 37
0.185956 0.135223 1.188 52 69 36
0.187959 0.135337 1.189 52 69 36
0.189805 0.135337 1.189 53 70 37
0.191813 0.135451 1.19 54 72 36
0.193498 0.135337 1.189 53 71 35
0.195509 0.135451 1.19 52 70 34
0.197357 0.135451 1.19 52 70 34
0.199205 0.135451 1.19 52 70 34
0.200885 0.135337 1.189 52 70 34
0.202731 0.135337 1.189 52 70 34
0.204578 0.135337 1.189 53 71 35
0.206251 0.135223 1.188 52 70 34
0.208096 0.135223 1.188 53 71 35
0.209764 0.135109 1.187 53 71 35
0.211607 0.135109 1.187 53 71 35
0.213451 0.135109 1.187 54 72 36
0.215294 0.135109 1.187 54 72 36
0.217138 0.135109 1.187 55 73 37
0.218981 0.135109 1.187 55 73 37
0.220825 0.135109 1.187 55 73 37
0.222668 0.135109 1.187 55 73 37
0.224701 0.135223 1.188 56 74 38
0.226546 0.135223 1.188 55 73 37
0.228391 0.135223 1.188 55 73 37
0.230236 0.135223 1.188 55 73 37
0.232276 0.135337 1.189 56 74 38
0.234123 0.135337 1.189 55 73 37
0.235969 0.135337 1.189 56 72 36
0.237816 0.135337 1.189 57 73 37
0.239662 0.135337 1.189 58 74 38
0.241509 0.135337 1.189 58 74 38
0.243151 0.135223 1.188 61 77 41
0.24479 0.135109 1.187 59 75 39
0.246633 0.135109 1.187 59 75 39
0.248476 0.135109 1.187 58 74 38
0.250109 0.134995 1.186 54 72 36
0.251951 0.134995 1.186 55 73 37
0.253579 0.134882 1.185 53 71 35
0.255419 0.134882 1.185 55 73 37
0.257259 0.134882 1.185 56 74 38
0.2591 0.134882 1.185 56 74 38
0.26094 0.134882 1.185 56 74 38
0.262781 0.134882 1.185 55 73 37
0.264621 0.134882 1.185 55 73 37
0.266461 0.134882 1.185 56 74 38
0.268302 0.134882 1.185 59 77 41
0.270142 0.134882 1.185 59 77 41
0.272212 0.134995 1.186 54 72 36
0.274285 0.135109 1.187 54 72 36
0.276128 0.135109 1.187 54 73 35
0.27844 0.135337 1.189 54 73 35
0.280522 0.135451 1.19 55 74 36
0.282608 0.135564 1.191 54 73 35
0.284696 0.135678 1.192 53 72 32
0.286788 0.135792 1.193 53 72 32
0.288883 0.135906 1.194 54 73 33
0.29098 0.13602 1.195 55 74 34
0.292836 0.13602 1.195 57 76 36
0.294939 0.136134 1.196 56 75 35
0.297044 0.136247 1.197 55 74 34
0.298903 0.136247 1.197 56 75 35
0.300762 0.136247 1.197 57 76 36
0.302621 0.136247 1.197 57 76 36
0.304989 0.136475 1.199 61 80 42
0.307107 0.136589 1.2 59 78 40
0.309228 0.136703 1.201 64 83 45
0.311352 0.136817 1.202 61 80 42
0.313219 0.136817 1.202 60 79 41
0.315348 0.13693 1.203 60 79 41
0.317216 0.13693 1.203 59 78 40
0.319085 0.13693 1.203 59 78 40
0.320953 0.13693 1.203 60 79 39
0.322821 0.13693 1.203 60 79 39
0.32442 0.136817 1.202 64 84 41
0.326286 0.136817 1.202 75 95 52
0.32788 0.136703 1.201 75 95 52
0.329471 0.136589 1.2 77 97 54
0.330782 0.136361 1.198 78 98 55
0.332365 0.136247 1.197 81 101 58
0.333945 0.136134 1.196 82 103 58
0.335521 0.13602 1.195 82 103 58
0.336813 0.135792 1.193 77 98 53
0.338381 0.135678 1.192 78 99 54
0.339662 0.135451 1.19 81 100 62
0.341223 0.135337 1.189 79 98 60
0.34307 0.135337 1.189 75 97 63
0.344626 0.135223 1.188 73 95 61
0.346471 0.135223 1.188 73 93 64
0.348316 0.135223 1.188 77 97 68
0.349866 0.135109 1.187 81 98 65
0.35171 0.135109 1.187 85 102 69
0.353553 0.135109 1.187 86 105 67
0.355397 0.135109 1.187 82 101 63
0.35724 0.135109 1.187 75 82 41
0.358781 0.134995 1.186 72 79 38
0.360319 0.134882 1.185 193 197 154
0.360631 0.134312 1.18 117 121 78
0.360928 0.133743 1.175 78 80 44
0.361518 0.133288 1.171 84 86 50
0.361785 0.132719 1.166 70 68 54
0.361725 0.132036 1.16 93 91 77
0.361646 0.131353 1.154 223 228 215
0.360604 0.130329 1.145 250 255 242
0.361432 0.129987 1.142 180 188 176
0.36257 0.129759 1.14 215 223 211
0.363701 0.129532 1.138 235 236 244
0.365469 0.129532 1.138 161 162 170
0.368204 0.129873 1.141 112 116 115
0.371922 0.130556 1.147 120 124 123
-0.162798 0.13407 1.162 136 165 196
-0.160993 0.13407 1.162 131 160 191
-0.159188 0.13407 1.162 131 160 191
-0.157384 0.13407 1.162 130 159 190
-0.155579 0.13407 1.162 131 160 191
-0.153774 0.13407 1.162 130 159 190
-0.15197 0.13407 1.162 133 162 193
-0.150165 0.13407 1.162 137 166 197
-0.148361 0.13407 1.162 140 167 198
-0.146556 0.13407 1.162 120 147 178
-0.144751 0.13407 1.162 124 152 180
-0.142824 0.133955 1.161 127 155 183
-0.141021 0.133955 1.161 130 154 186
-0.139218 0.133955 1.161 128 152 184
-0.137415 0.133955 1.161 126 153 184
-0.135495 0.13384 1.16 126 153 184
