ply
format ascii 1.0
comment Created by Open3D
element vertex 1339
property double x
property double y
property double z
property uchar red
property uchar green
property uchar blue
end_header
0.244857 -0.162143 1.136 116 143 174
0.246622 -0.162143 1.136 118 145 176
0.248386 -0.162143 1.136 118 145 176
0.25015 -0.162143 1.136 118 145 176
0.251914 -0.162143 1.136 124 151 182
0.253679 -0.162143 1.136 121 148 179
0.255668 -0.162285 1.137 118 145 176
0.257434 -0.162285 1.137 125 153 181
0.259655 -0.162571 1.139 132 160 188
0.261883 -0.162856 1.141 121 146 175
0.264349 -0.163284 1.144 136 161 190
0.266823 -0.163713 1.147 152 173 202
0.271329 -0.164284 1.151 9 14 51
0.274777 -0.165283 1.158 0 3 40
0.277531 -0.165854 1.162 8 17 21
0.280538 -0.166567 1.167 13 22 26
0.283802 -0.167424 1.173 13 25 15
0.286841 -0.168137 1.178 12 24 14
0.289405 -0.168565 1.181 15 29 14
0.292226 -0.169136 1.185 16 30 15
0.296406 -0.169422 1.187 12 26 9
0.298501 -0.169565 1.188 17 34 14
0.300599 -0.169707 1.189 20 37 17
0.3027 -0.16985 1.19 18 35 15
0.304548 -0.16985 1.19 17 34 14
0.306396 -0.16985 1.19 18 35 15
0.308244 -0.16985 1.19 18 35 15
0.310092 -0.16985 1.19 20 37 17
0.31194 -0.16985 1.19 20 37 17
0.313788 -0.16985 1.19 20 37 17
0.315636 -0.16985 1.19 18 35 15
0.317484 -0.16985 1.19 18 35 15
0.319601 -0.169993 1.191 18 35 15
0.321721 -0.170135 1.192 17 34 14
0.323572 -0.170135 1.192 17 34 14
0.325696 -0.170278 1.193 18 35 15
0.327549 -0.170278 1.193 22 39 19
0.329954 -0.170564 1.195 22 39 19
0.331532 -0.170421 1.194 23 40 20
0.333665 -0.170564 1.195 22 39 19
0.335521 -0.170564 1.195 22 39 19
0.337377 -0.170564 1.195 23 40 20
0.339233 -0.170564 1.195 22 39 19
0.341089 -0.170564 1.195 23 41 19
0.342945 -0.170564 1.195 23 41 19
0.344801 -0.170564 1.195 23 41 19
0.346657 -0.170564 1.195 23 41 19
0.348512 -0.170564 1.195 22 40 18
0.350368 -0.170564 1.195 22 40 18
0.351929 -0.170421 1.194 22 39 19
0.353191 -0.170135 1.192 21 38 18
0.354149 -0.169707 1.189 21 38 18
0.355397 -0.169422 1.187 21 38 18
0.356638 -0.169136 1.185 21 38 18
0.357571 -0.168708 1.182 22 39 19
0.358494 -0.16828 1.179 13 27 10
0.359714 -0.167995 1.177 12 26 9
0.360928 -0.167709 1.175 36 50 35
0.361826 -0.167281 1.172 10 24 9
0.363026 -0.166995 1.17 13 23 11
0.363908 -0.166567 1.167 17 27 15
0.363526 -0.165568 1.16 16 20 19
0.360662 -0.161857 1.134 108 112 112
0.361464 -0.161429 1.131 116 116 117
0.362899 -0.161286 1.13 122 122 123
0.364654 -0.161286 1.13 107 109 114
0.366409 -0.161286 1.13 45 47 52
-0.1663 -0.167576 1.187 14 31 11
-0.164457 -0.167576 1.187 14 31 11
-0.162613 -0.167576 1.187 14 31 11
-0.16077 -0.167576 1.187 14 31 11
-0.158926 -0.167576 1.187 14 30 13
-0.156951 -0.167435 1.186 13 29 12
-0.155109 -0.167435 1.186 11 27 10
-0.153138 -0.167294 1.185 13 29 12
-0.15117 -0.167153 1.184 15 31 14
-0.149078 -0.16687 1.182 18 34 17
-0.146994 -0.166588 1.18 20 36 19
-0.144669 -0.166023 1.176 20 36 19
-0.142235 -0.165317 1.171 20 34 19
-0.139577 -0.164329 1.164 15 29 14
-0.137059 -0.163482 1.158 10 18 11
-0.133275 -0.161082 1.141 61 69 62
-0.127912 -0.158823 1.125 147 153 153
-0.125604 -0.158117 1.12 144 151 155
-0.122869 -0.156847 1.111 140 147 151
-0.120817 -0.156423 1.108 138 144 151
-0.118774 -0.156 1.105 176 182 189
-0.116846 -0.155717 1.103 195 200 211
-0.115028 -0.155576 1.102 189 194 205
-0.113214 -0.155435 1.101 190 194 208
-0.111403 -0.155294 1.1 183 187 201
-0.109695 -0.155294 1.1 181 185 199
-0.107986 -0.155294 1.1 176 180 194
-0.106278 -0.155294 1.1 183 182 197
-0.104665 -0.155435 1.101 190 189 204
-0.102955 -0.155435 1.101 199 199 209
-0.101245 -0.155435 1.101 203 203 213
-0.099535 -0.155435 1.101 208 209 217
-0.0978251 -0.155435 1.101 225 226 234
-0.0961152 -0.155435 1.101 234 235 243
-0.094491 -0.155576 1.102 236 237 245
-0.0928638 -0.155717 1.103 244 242 248
-0.0913161 -0.156 1.105 246 244 250
-0.089681 -0.156141 1.106 246 246 247
-0.0879634 -0.156141 1.106 245 245 246
-0.0864017 -0.156423 1.108 245 245 246
-0.0849102 -0.156847 1.111 247 247 248
-0.0833345 -0.157129 1.113 216 216 217
-0.081826 -0.157553 1.116 175 175 176
-0.0786405 -0.158117 1.12 204 208 208
-0.077107 -0.158541 1.123 210 214 214
-0.0754972 -0.158823 1.125 205 209 209
-0.0694829 -0.161082 1.141 147 152 155
-0.0680076 -0.161788 1.146 113 117 117
-0.0648979 -0.162917 1.154 64 67 70
-0.0615261 -0.163482 1.158 19 23 23
-0.0599855 -0.164188 1.163 16 20 20
-0.0584295 -0.164894 1.168 23 23 23
-0.0567125 -0.165176 1.17 23 23 23
-0.0549893 -0.165459 1.172 24 25 22
-0.0532599 -0.165741 1.174 25 26 23
-0.0514804 -0.165882 1.175 30 32 26
-0.0497401 -0.166164 1.177 27 29 23
-0.0479529 -0.166306 1.178 27 34 25
-0.0461626 -0.166447 1.179 26 33 24
-0.0443692 -0.166588 1.18 21 30 21
-0.0425366 -0.166588 1.18 20 29 20
-0.0407385 -0.166729 1.181 20 29 20
-0.0389373 -0.16687 1.182 21 30 21
-0.037133 -0.167011 1.183 20 30 18
-0.0353256 -0.167153 1.184 21 31 19
-0.0335151 -0.167294 1.185 20 30 18
-0.0317015 -0.167435 1.186 20 30 18
-0.0298848 -0.167576 1.187 17 30 17
-0.0280413 -0.167576 1.187 16 29 16
-0.026242 -0.167859 1.189 15 28 15
-0.0244159 -0.168 1.19 16 29 16
-0.0225868 -0.168141 1.191 13 26 13
-0.0207546 -0.168282 1.192 13 26 13
-0.0189033 -0.168282 1.192 13 26 13
-0.0170664 -0.168423 1.193 13 26 13
-0.0152264 -0.168564 1.194 13 26 13
-0.0133721 -0.168564 1.194 15 28 15
-0.0115178 -0.168564 1.194 15 28 15
-0.00966344 -0.168564 1.194 15 28 15
-0.00780912 -0.168564 1.194 13 26 13
-0.00595479 -0.168564 1.194 13 26 13
-0.00409704 -0.168423 1.193 16 29 16
-0.00224239 -0.168282 1.192 16 29 16
-0.000391169 -0.168282 1.192 16 29 16
0.00145882 -0.168141 1.191 15 28 15
0.00330571 -0.168 1.19 15 28 15
0.00515382 -0.168 1.19 15 28 15
0.00699605 -0.167859 1.189 12 25 12
0.00883517 -0.167717 1.188 13 26 13
0.0106802 -0.167717 1.188 12 25 12
0.0125146 -0.167576 1.187 11 24 11
0.0143581 -0.167576 1.187 12 25 12
0.0161742 -0.167294 1.185 12 25 12
0.0180146 -0.167294 1.185 13 26 13
0.0198382 -0.167153 1.184 13 26 13
0.021677 -0.167153 1.184 11 26 13
0.0234959 -0.167011 1.183 14 29 16
0.0253117 -0.16687 1.182 10 25 12
0.0271474 -0.16687 1.182 10 25 12
0.0289586 -0.166729 1.181 9 24 11
0.0307927 -0.166729 1.181 10 25 12
0.0325992 -0.166588 1.18 9 24 11
0.0344318 -0.166588 1.18 9 24 11
0.0362336 -0.166447 1.179 10 25 12
0.0380324 -0.166306 1.178 10 25 12
0.0398619 -0.166306 1.178 10 25 12
0.0416205 -0.166023 1.176 10 25 12
0.0434469 -0.166023 1.176 9 24 11
0.0452348 -0.165882 1.175 8 23 10
0.0470195 -0.165741 1.174 10 23 10
0.0488012 -0.1656 1.173 10 23 10
0.0506229 -0.1656 1.173 10 23 10
0.0523999 -0.165459 1.172 9 22 9
0.0541738 -0.165317 1.171 9 22 9
0.0559924 -0.165317 1.171 9 22 9
0.0577123 -0.165035 1.169 9 21 11
0.0592732 -0.164329 1.164 3 15 5
0.0609759 -0.164047 1.162 0 8 17
0.0625104 -0.163341 1.157 39 48 57
0.0638626 -0.162211 1.149 57 71 95
0.0652471 -0.161223 1.142 50 64 88
0.0666099 -0.160235 1.135 35 56 85
0.0675895 -0.1584 1.122 55 76 105
0.0690848 -0.157835 1.118 91 118 149
0.0706311 -0.157411 1.115 111 138 169
0.0722329 -0.157129 1.113 114 143 174
0.073895 -0.156988 1.112 111 140 171
0.0755539 -0.156847 1.111 107 139 169
0.0772794 -0.156847 1.111 107 139 169
0.0790759 -0.156988 1.112 107 139 171
0.0807302 -0.156847 1.111 109 141 173
0.0824556 -0.156847 1.111 112 143 177
0.084181 -0.156847 1.111 112 143 177
0.0859065 -0.156847 1.111 112 143 177
0.0876319 -0.156847 1.111 112 143 177
0.0892769 -0.156706 1.11 113 144 178
0.0910827 -0.156847 1.111 112 143 177
0.0928081 -0.156847 1.111 110 140 177
0.0945336 -0.156847 1.111 113 143 180
0.096259 -0.156847 1.111 110 140 177
0.0980726 -0.156988 1.112 110 140 177
0.0997996 -0.156988 1.112 109 139 176
0.101618 -0.157129 1.113 113 143 180
0.103346 -0.157129 1.113 112 143 177
0.105075 -0.157129 1.113 112 143 177
0.106899 -0.15727 1.114 110 141 175
0.108727 -0.157411 1.115 110 141 175
0.110459 -0.157411 1.115 110 141 175
0.11219 -0.157411 1.115 113 144 178
0.113922 -0.157411 1.115 114 145 179
0.115757 -0.157553 1.116 114 145 179
0.11749 -0.157553 1.116 112 143 177
0.119224 -0.157553 1.116 114 145 179
0.121065 -0.157694 1.117 113 144 178
0.1228 -0.157694 1.117 109 140 174
0.124535 -0.157694 1.117 110 141 175
0.126382 -0.157835 1.118 109 140 174
0.128119 -0.157835 1.118 110 142 174
0.129855 -0.157835 1.118 109 141 173
0.131591 -0.157835 1.118 109 141 173
0.133447 -0.157976 1.119 109 141 173
0.135185 -0.157976 1.119 110 142 174
0.136923 -0.157976 1.119 110 142 174
0.13866 -0.157976 1.119 110 142 174
0.140398 -0.157976 1.119 112 144 176
0.142009 -0.157835 1.118 117 148 182
0.143745 -0.157835 1.118 115 146 180
0.145482 -0.157835 1.118 113 143 180
0.147218 -0.157835 1.118 110 140 177
0.148954 -0.157835 1.118 106 136 173
0.150691 -0.157835 1.118 109 139 176
0.15229 -0.157694 1.117 109 139 176
0.154163 -0.157835 1.118 103 133 170
0.155899 -0.157835 1.118 99 129 166
0.157777 -0.157976 1.119 99 129 166
0.159657 -0.158117 1.12 98 130 167
0.161541 -0.158259 1.121 94 126 163
0.163427 -0.1584 1.122 96 128 165
0.165317 -0.158541 1.123 92 124 161
0.167061 -0.158541 1.123 90 122 159
0.169106 -0.158823 1.125 114 146 183
0.171005 -0.158964 1.126 113 145 182
0.172907 -0.159106 1.127 110 142 179
0.174657 -0.159106 1.127 104 136 173
0.176564 -0.159247 1.128 105 137 174
0.178474 -0.159388 1.129 106 138 175
0.180227 -0.159388 1.129 106 138 175
0.181981 -0.159388 1.129 107 139 176
0.183734 -0.159388 1.129 107 139 176
0.185487 -0.159388 1.129 108 141 175
0.187075 -0.159247 1.128 105 138 172
0.188659 -0.159106 1.127 107 140 174
0.19041 -0.159106 1.127 115 148 182
0.191989 -0.158964 1.126 124 156 188
0.193566 -0.158823 1.125 124 156 188
0.195313 -0.158823 1.125 124 153 186
0.196885 -0.158682 1.124 123 152 185
0.198631 -0.158682 1.124 119 148 181
0.200376 -0.158682 1.124 123 152 185
0.202122 -0.158682 1.124 119 148 181
0.203686 -0.158541 1.123 120 149 182
0.20543 -0.158541 1.123 124 151 182
0.207359 -0.158682 1.124 122 149 180
0.20929 -0.158823 1.125 121 148 179
0.211225 -0.158964 1.126 122 149 180
0.213163 -0.159106 1.127 122 150 178
0.215104 -0.159247 1.128 124 152 180
0.217048 -0.159388 1.129 126 154 182
0.218995 -0.159529 1.13 124 152 180
0.220946 -0.15967 1.131 122 150 178
0.222899 -0.159811 1.132 122 150 178
0.224657 -0.159811 1.132 122 150 178
0.226815 -0.160094 1.134 122 150 178
0.228576 -0.160094 1.134 122 150 178
0.23054 -0.160235 1.135 122 150 178
0.232508 -0.160376 1.136 122 150 178
0.234272 -0.160376 1.136 128 156 184
0.236036 -0.160376 1.136 133 161 189
0.23801 -0.160517 1.137 128 156 184
0.239776 -0.160517 1.137 126 154 182
0.241541 -0.160517 1.137 124 152 180
0.243307 -0.160517 1.137 124 152 180
0.245073 -0.160517 1.137 125 153 181
0.246839 -0.160517 1.137 127 154 185
0.248605 -0.160517 1.137 120 147 178
0.25037 -0.160517 1.137 113 140 171
0.251914 -0.160376 1.136 120 147 178
0.253902 -0.160517 1.137 122 149 180
0.255893 -0.160659 1.138 126 153 184
0.25766 -0.160659 1.138 128 156 184
0.259655 -0.1608 1.139 129 157 185
0.261883 -0.161082 1.141 126 151 180
0.264349 -0.161506 1.144 136 161 190
0.266823 -0.161929 1.147 150 169 197
0.2718 -0.162776 1.153 6 12 39
0.274777 -0.163482 1.158 3 9 36
0.27777 -0.164188 1.163 12 19 23
0.280778 -0.164894 1.168 16 23 27
0.283802 -0.1656 1.173 13 27 17
0.286841 -0.166306 1.178 13 27 17
0.289651 -0.16687 1.182 16 32 17
0.292226 -0.167294 1.185 16 32 17
0.296406 -0.167576 1.187 17 33 16
0.298501 -0.167717 1.188 18 35 15
0.300599 -0.167859 1.189 21 38 18
0.3027 -0.168 1.19 21 38 18
0.304548 -0.168 1.19 20 37 17
0.306396 -0.168 1.19 20 37 17
0.308503 -0.168141 1.191 20 37 17
0.310353 -0.168141 1.191 18 35 15
0.312464 -0.168282 1.192 20 37 17
0.314316 -0.168282 1.192 21 38 18
0.316167 -0.168282 1.192 20 37 17
0.318018 -0.168282 1.192 20 37 17
0.320138 -0.168423 1.193 18 35 15
0.32199 -0.168423 1.193 18 35 15
0.324115 -0.168564 1.194 18 35 15
0.325969 -0.168564 1.194 20 37 17
0.328098 -0.168706 1.195 22 39 19
0.329678 -0.168564 1.194 22 39 19
0.33181 -0.168706 1.195 23 40 20
0.333665 -0.168706 1.195 23 40 20
0.335521 -0.168706 1.195 22 39 19
0.337377 -0.168706 1.195 24 41 21
0.339233 -0.168706 1.195 23 40 20
0.340804 -0.168564 1.194 23 40 20
0.342658 -0.168564 1.194 23 40 20
0.344512 -0.168564 1.194 22 39 19
0.346367 -0.168564 1.194 22 39 19
0.347929 -0.168423 1.193 21 38 18
0.349489 -0.168282 1.192 21 38 18
0.35134 -0.168282 1.192 21 38 18
0.352302 -0.167859 1.189 21 38 18
0.353553 -0.167576 1.187 22 39 19
0.354798 -0.167294 1.185 22 39 19
0.356036 -0.167011 1.183 22 39 19
0.356966 -0.166588 1.18 22 39 19
0.357886 -0.166164 1.177 15 29 12
0.359103 -0.165882 1.175 12 26 9
0.360313 -0.1656 1.173 36 50 33
0.3609 -0.165035 1.169 10 24 7
0.361785 -0.164611 1.166 13 22 13
0.362348 -0.164047 1.162 17 26 17
0.360079 -0.162211 1.149 16 20 20
0.360344 -0.159953 1.133 108 111 114
0.361464 -0.15967 1.131 118 117 121
0.362899 -0.159529 1.13 122 121 125
0.364654 -0.159529 1.13 111 109 115
0.366409 -0.159529 1.13 47 45 51
-0.1663 -0.165731 1.187 14 31 11
-0.164457 -0.165731 1.187 13 30 10
-0.162613 -0.165731 1.187 13 30 10
-0.16077 -0.165731 1.187 14 31 11
-0.158926 -0.165731 1.187 13 30 10
-0.157083 -0.165731 1.187 11 28 8
-0.155109 -0.165591 1.186 11 28 8
-0.153138 -0.165451 1.185 13 30 10
-0.151297 -0.165451 1.185 15 32 12
-0.149205 -0.165172 1.183 18 35 15
-0.146994 -0.164753 1.18 20 35 15
-0.144915 -0.164474 1.178 20 35 15
-0.142478 -0.163776 1.173 22 36 19
-0.140057 -0.163078 1.168 23 37 20
-0.131158 -0.158889 1.138 62 69 65
-0.123091 -0.155399 1.113 144 152 154
-0.121035 -0.15498 1.11 135 138 146
-0.119096 -0.1547 1.108 152 155 163
-0.117164 -0.154421 1.106 182 187 196
-0.115341 -0.154282 1.105 194 199 208
-0.11342 -0.154002 1.103 192 194 204
-0.111707 -0.154002 1.103 185 187 197
-0.109994 -0.154002 1.103 180 182 192
-0.108183 -0.153863 1.102 180 182 192
-0.106568 -0.154002 1.103 184 184 194
-0.10476 -0.153863 1.102 192 192 202
-0.103142 -0.154002 1.103 218 219 227
-0.101429 -0.154002 1.103 221 222 230
-0.0997158 -0.154002 1.103 221 222 230
-0.0979139 -0.153863 1.102 226 227 235
-0.0962898 -0.154002 1.103 228 230 235
-0.0945768 -0.154002 1.103 229 231 236
-0.092948 -0.154142 1.104 230 233 236
-0.0913161 -0.154282 1.105 234 237 240
-0.089681 -0.154421 1.106 234 237 240
-0.088202 -0.15484 1.109 204 207 210
-0.0867136 -0.155259 1.112 199 199 200
-0.0852159 -0.155678 1.115 195 195 196
-0.0837838 -0.156236 1.119 171 171 172
-0.0806669 -0.156934 1.124 199 199 200
-0.0792724 -0.157633 1.129 199 199 200
-0.077725 -0.158051 1.132 184 188 188
-0.0619511 -0.162798 1.166 24 25 22
-0.0603466 -0.163357 1.17 24 25 22
-0.0587296 -0.163915 1.174 26 27 24
-0.0569549 -0.164055 1.175 31 32 29
-0.0552239 -0.164334 1.177 30 32 26
-0.0535321 -0.164753 1.18 29 31 25
-0.0516995 -0.164753 1.18 26 33 24
-0.0499092 -0.164893 1.181 24 31 22
-0.0481157 -0.165032 1.182 24 33 24
-0.04628 -0.165032 1.182 22 31 22
-0.0444444 -0.165032 1.182 21 30 21
-0.0426447 -0.165172 1.183 20 29 20
-0.040842 -0.165312 1.184 20 29 20
-0.0390361 -0.165451 1.185 21 30 21
-0.0371958 -0.165451 1.185 20 30 18
-0.0353554 -0.165451 1.185 21 31 19
-0.0335434 -0.165591 1.186 20 30 18
-0.0317282 -0.165731 1.187 19 29 17
-0.0298848 -0.165731 1.187 18 28 16
-0.0280885 -0.16601 1.189 17 27 15
-0.0262641 -0.166149 1.19 17 27 15
-0.0244159 -0.166149 1.19 18 28 16
-0.0225678 -0.166149 1.19 19 29 17
-0.0207371 -0.166289 1.191 19 29 17
-0.0189033 -0.166429 1.192 17 27 15
-0.0170521 -0.166429 1.192 15 25 13
-0.0152137 -0.166568 1.193 15 28 15
-0.0133609 -0.166568 1.193 16 29 16
-0.0115081 -0.166568 1.193 16 29 16
-0.00965535 -0.166568 1.193 16 29 16
-0.00780258 -0.166568 1.193 15 28 15
-0.00594981 -0.166568 1.193 15 28 15
-0.0040936 -0.166429 1.192 15 28 15
-0.00224239 -0.166429 1.192 15 28 15
-0.000390841 -0.166289 1.191 15 28 15
0.0014576 -0.166149 1.19 12 25 12
0.00330571 -0.166149 1.19 15 25 13
0.00514949 -0.16601 1.189 18 28 16
0.00699605 -0.16601 1.189 14 24 12
0.00882773 -0.165731 1.187 15 25 13
0.0106712 -0.165731 1.187 12 25 12
0.0125146 -0.165731 1.187 11 24 11
0.0143339 -0.165451 1.185 11 24 11
0.0161742 -0.165451 1.185 13 26 13
0.0180146 -0.165451 1.185 10 25 12
0.0198382 -0.165312 1.184 10 25 12
0.0216587 -0.165172 1.183 13 28 15
0.023476 -0.165032 1.182 14 29 16
0.0253117 -0.165032 1.182 14 29 16
0.0271474 -0.165032 1.182 13 28 15
0.0289586 -0.164893 1.181 10 25 12
0.0307666 -0.164753 1.18 10 25 12
0.0325992 -0.164753 1.18 10 25 12
0.0344318 -0.164753 1.18 10 25 12
0.0362336 -0.164614 1.179 10 25 12
0.0380324 -0.164474 1.178 10 25 12
0.039828 -0.164334 1.177 10 25 12
0.0415852 -0.164055 1.175 9 24 11
0.04341 -0.164055 1.175 8 23 10
0.0451578 -0.163776 1.173 8 23 10
0.0468994 -0.163497 1.171 8 23 10
0.048718 -0.163497 1.171 8 23 10
0.0505366 -0.163497 1.171 8 23 10
0.0522658 -0.163217 1.169 8 23 10
0.0540813 -0.163217 1.169 8 23 10
0.0557533 -0.162798 1.166 8 23 10
0.0575148 -0.162659 1.165 6 19 11
0.0592222 -0.16238 1.163 1 14 6
0.0608185 -0.161821 1.159 0 12 22
0.0624024 -0.161263 1.155 35 47 57
0.0638071 -0.160285 1.148 53 69 93
0.0647901 -0.158331 1.134 51 67 91
0.0661404 -0.157353 1.127 36 59 88
0.0675292 -0.156516 1.121 61 84 113
0.0689612 -0.155817 1.116 103 130 163
0.0705044 -0.155399 1.113 118 145 178
0.072168 -0.155259 1.112 115 144 177
0.073895 -0.155259 1.112 109 138 171
0.0755539 -0.155119 1.111 108 137 170
0.0772794 -0.155119 1.111 103 132 165
0.0790759 -0.155259 1.112 105 136 170
0.0808029 -0.155259 1.112 110 141 175
0.0825298 -0.155259 1.112 112 143 177
0.084181 -0.155119 1.111 110 141 175
0.0859065 -0.155119 1.111 112 143 177
0.0876319 -0.155119 1.111 110 141 175
0.0893573 -0.155119 1.111 112 143 177
0.0910827 -0.155119 1.111 112 143 177
0.0928081 -0.155119 1.111 112 142 179
0.0945336 -0.155119 1.111 113 143 180
0.0963456 -0.155259 1.112 113 143 180
0.0980726 -0.155259 1.112 113 143 180
0.0997996 -0.155259 1.112 110 140 177
0.101618 -0.155399 1.113 112 142 179
0.103346 -0.155399 1.113 112 142 179
0.105075 -0.155399 1.113 112 142 179
0.106899 -0.155538 1.114 112 143 177
0.108629 -0.155538 1.114 112 143 177
0.11036 -0.155538 1.114 112 143 177
0.11219 -0.155678 1.115 113 144 178
0.113922 -0.155678 1.115 114 145 179
0.115654 -0.155678 1.115 114 145 179
0.11749 -0.155817 1.116 114 145 179
0.119224 -0.155817 1.116 114 145 179
0.120957 -0.155817 1.116 112 143 177
0.12269 -0.155817 1.116 107 138 172
0.124535 -0.155957 1.117 110 141 175
0.126382 -0.156097 1.118 112 143 177
0.128119 -0.156097 1.118 112 144 176
0.129971 -0.156236 1.119 114 146 178
0.131709 -0.156236 1.119 112 144 176
0.133447 -0.156236 1.119 112 144 176
0.135185 -0.156236 1.119 110 142 174
0.136923 -0.156236 1.119 109 141 173
0.13866 -0.156236 1.119 109 141 173
0.140273 -0.156097 1.118 110 142 174
0.142009 -0.156097 1.118 112 144 176
0.143745 -0.156097 1.118 99 131 163
0.145352 -0.155957 1.117 103 135 167
0.146955 -0.155817 1.116 109 141 173
0.148688 -0.155817 1.116 106 137 171
0.150421 -0.155817 1.116 106 137 171
0.152154 -0.155817 1.116 103 136 170
0.154025 -0.155957 1.117 103 136 170
0.155899 -0.156097 1.118 103 136 170
0.157636 -0.156097 1.118 107 140 174
0.159657 -0.156376 1.12 103 135 172
0.161396 -0.156376 1.12 101 133 170
0.163282 -0.156516 1.121 101 133 170
0.16517 -0.156655 1.122 90 122 159
0.167061 -0.156795 1.123 89 121 158
0.168955 -0.156934 1.124 116 148 185
0.170853 -0.157074 1.125 113 145 182
0.172753 -0.157214 1.126 111 143 180
0.174657 -0.157353 1.127 107 139 176
0.176407 -0.157353 1.127 107 139 176
0.178316 -0.157493 1.128 107 139 176
0.180227 -0.157633 1.129 107 139 176
0.181981 -0.157633 1.129 108 140 177
0.183734 -0.157633 1.129 108 140 177
0.185323 -0.157493 1.128 108 141 175
0.187075 -0.157493 1.128 101 134 168
0.188659 -0.157353 1.127 111 144 178
0.19041 -0.157353 1.127 118 151 185
0.191989 -0.157214 1.126 117 149 181
0.193566 -0.157074 1.125 117 149 181
0.195313 -0.157074 1.125 122 151 184
0.19706 -0.157074 1.125 124 153 186
0.198807 -0.157074 1.125 123 152 185
0.200376 -0.156934 1.124 124 153 186
0.202122 -0.156934 1.124 124 151 184
0.203868 -0.156934 1.124 122 149 182
0.205796 -0.157074 1.125 124 151 184
0.207543 -0.157074 1.125 124 151 184
0.20929 -0.157074 1.125 122 149 180
0.211225 -0.157214 1.126 122 149 180
0.213163 -0.157353 1.127 124 151 182
0.214913 -0.157353 1.127 124 151 182
0.217048 -0.157633 1.129 125 152 183
0.218995 -0.157772 1.13 126 153 184
0.22075 -0.157772 1.13 125 152 183
0.222899 -0.158051 1.132 125 152 183
0.224657 -0.158051 1.132 124 151 182
0.226815 -0.158331 1.134 122 149 180
0.228576 -0.158331 1.134 122 149 180
0.23054 -0.15847 1.135 122 149 180
0.232508 -0.15861 1.136 125 152 183
0.234272 -0.15861 1.136 131 158 189
0.236244 -0.158749 1.137 127 154 185
0.23801 -0.158749 1.137 125 152 183
0.239776 -0.158749 1.137 127 154 185
0.241541 -0.158749 1.137 127 154 185
0.243307 -0.158749 1.137 125 152 183
0.245289 -0.158889 1.138 125 152 183
0.247056 -0.158889 1.138 131 158 189
0.248823 -0.158889 1.138 132 159 190
0.25037 -0.158749 1.137 127 154 185
0.252136 -0.158749 1.137 125 152 183
0.254125 -0.158889 1.138 126 153 184
0.255893 -0.158889 1.138 127 154 185
0.25766 -0.158889 1.138 129 157 185
0.259883 -0.159168 1.14 129 157 185
0.262113 -0.159448 1.142 130 156 183
0.26458 -0.159866 1.145 135 161 188
0.267288 -0.160425 1.149 145 162 190
0.272036 -0.161123 1.154 5 15 30
0.275015 -0.161821 1.159 6 16 31
0.278009 -0.162519 1.164 14 25 24
0.281259 -0.163357 1.17 14 25 24
0.284286 -0.164055 1.175 13 27 17
0.287084 -0.164614 1.179 10 24 14
0.289651 -0.165032 1.182 16 30 15
0.292226 -0.165451 1.185 16 30 15
0.296406 -0.165731 1.187 22 36 19
0.298501 -0.16587 1.188 20 37 17
0.300599 -0.16601 1.189 21 38 18
0.3027 -0.166149 1.19 21 38 18
0.304548 -0.166149 1.19 21 38 18
0.306396 -0.166149 1.19 21 38 18
0.308503 -0.166289 1.191 20 37 17
0.310353 -0.166289 1.191 20 37 17
0.312464 -0.166429 1.192 20 37 17
0.314316 -0.166429 1.192 20 37 17
0.316432 -0.166568 1.193 20 37 17
0.318018 -0.166429 1.192 18 35 15
0.320406 -0.166708 1.194 17 34 14
0.32226 -0.166708 1.194 18 35 15
0.324115 -0.166708 1.194 18 35 15
0.325969 -0.166708 1.194 20 37 17
0.328098 -0.166848 1.195 22 39 19
0.329954 -0.166848 1.195 22 39 19
0.331532 -0.166708 1.194 23 40 20
0.333386 -0.166708 1.194 23 40 20
0.335241 -0.166708 1.194 22 39 19
0.337095 -0.166708 1.194 23 40 20
0.338665 -0.166568 1.193 23 40 20
0.340518 -0.166568 1.193 23 40 20
0.342371 -0.166568 1.193 23 40 20
0.343935 -0.166429 1.192 23 40 20
0.345786 -0.166429 1.192 22 39 19
0.347638 -0.166429 1.192 22 39 19
0.349196 -0.166289 1.191 22 39 19
0.350456 -0.16601 1.189 22 39 19
0.35171 -0.165731 1.187 23 40 20
0.352957 -0.165451 1.185 22 39 19
0.354199 -0.165172 1.183 23 40 20
0.355434 -0.164893 1.181 22 39 19
0.356361 -0.164474 1.178 21 38 18
0.357278 -0.164055 1.175 20 34 17
0.358492 -0.163776 1.173 12 26 9
0.359085 -0.163217 1.169 36 50 33
0.359974 -0.162798 1.166 11 25 8
0.360544 -0.16224 1.162 15 24 15
0.359542 -0.160983 1.153 17 26 17
0.359139 -0.160006 1.146 16 20 20
0.359534 -0.15861 1.136 99 102 105
0.360026 -0.158051 1.132 108 111 114
0.361144 -0.157772 1.13 119 118 122
0.362899 -0.157772 1.13 124 123 127
0.364654 -0.157772 1.13 109 107 113
0.366409 -0.157772 1.13 45 43 49
-0.16616 -0.163747 1.186 17 32 12
-0.164457 -0.163885 1.187 16 31 11
-0.162613 -0.163885 1.187 13 30 10
-0.16077 -0.163885 1.187 14 31 11
-0.158926 -0.163885 1.187 14 31 11
-0.157083 -0.163885 1.187 13 30 10
-0.155239 -0.163885 1.187 11 28 8
-0.153138 -0.163609 1.185 13 30 10
-0.151297 -0.163609 1.185 16 33 13
-0.149331 -0.163471 1.184 17 34 14
-0.147243 -0.163195 1.182 16 33 13
-0.145038 -0.16278 1.179 17 34 14
-0.142964 -0.162504 1.177 17 34 14
-0.140537 -0.161814 1.172 18 35 15
-0.138243 -0.161262 1.168 15 25 13
-0.135728 -0.160433 1.162 1 11 0
-0.13208 -0.158224 1.146 17 25 18
-0.124197 -0.155049 1.123 155 159 159
-0.122016 -0.154496 1.119 149 153 158
-0.119526 -0.15353 1.112 132 136 141
-0.117587 -0.153254 1.11 148 151 159
-0.11555 -0.15284 1.107 177 180 188
-0.113728 -0.152702 1.106 192 194 204
-0.111909 -0.152563 1.105 191 193 203
-0.110193 -0.152563 1.105 189 189 199
-0.108379 -0.152425 1.104 194 194 204
-0.106664 -0.152425 1.104 197 197 207
-0.105045 -0.152563 1.105 210 210 220
-0.103235 -0.152425 1.104 224 222 228
-0.101429 -0.152287 1.103 224 222 228
-0.0997158 -0.152287 1.103 215 213 219
-0.0980028 -0.152287 1.103 209 207 213
-0.0962898 -0.152287 1.103 207 207 208
-0.0946625 -0.152425 1.104 202 202 203
-0.0931164 -0.152702 1.106 207 207 207
-0.091564 -0.152978 1.108 229 229 229
-0.0900865 -0.153392 1.111 232 231 228
-0.0886792 -0.153944 1.115 217 216 213
-0.0855216 -0.154496 1.119 194 193 190
-0.0840833 -0.155049 1.123 178 176 176
-0.0827791 -0.155877 1.129 190 188 188
-0.0813846 -0.156567 1.134 181 181 182
-0.0800448 -0.157396 1.14 157 157 158
-0.0656853 -0.161262 1.168 26 30 29
-0.0640354 -0.161676 1.171 28 32 31
-0.062323 -0.161952 1.173 30 35 31
-0.0607076 -0.162504 1.177 28 33 29
-0.0589297 -0.162642 1.178 24 30 23
-0.0571972 -0.162918 1.18 28 34 27
-0.0554585 -0.163195 1.182 26 33 24
-0.0536682 -0.163333 1.183 26 33 24
-0.0518747 -0.163471 1.184 26 33 24
-0.0500359 -0.163471 1.184 26 33 24
-0.0482379 -0.163609 1.185 24 34 22
-0.0463975 -0.163609 1.185 22 32 20
-0.0445572 -0.163609 1.185 20 30 18
-0.0427168 -0.163609 1.185 20 30 18
-0.040911 -0.163747 1.186 20 30 18
-0.0390691 -0.163747 1.186 20 30 18
-0.0372272 -0.163747 1.186 19 29 17
-0.0354151 -0.163885 1.187 19 29 17
-0.0335717 -0.163885 1.187 17 27 15
-0.0317282 -0.163885 1.187 17 27 15
-0.0299099 -0.164023 1.188 15 25 13
-0.0280885 -0.164161 1.189 15 25 13
-0.0262641 -0.164299 1.19 13 26 13
-0.0244159 -0.164299 1.19 16 29 16
-0.0225678 -0.164299 1.19 17 30 17
-0.0207371 -0.164437 1.191 16 29 16
-0.0189033 -0.164575 1.192 15 28 15
-0.0170521 -0.164575 1.192 15 28 15
-0.0152009 -0.164575 1.192 16 29 16
-0.0133497 -0.164575 1.192 16 29 16
-0.0114985 -0.164575 1.192 16 29 16
-0.00964725 -0.164575 1.192 13 26 13
-0.00779604 -0.164575 1.192 12 25 12
-0.00594482 -0.164575 1.192 13 26 13
-0.0040936 -0.164575 1.192 12 25 12
-0.0022405 -0.164437 1.191 13 26 13
-0.000390513 -0.164299 1.19 15 28 15
0.0014576 -0.164299 1.19 12 25 12
0.00330293 -0.164161 1.189 12 25 12
0.00514949 -0.164161 1.189 13 26 13
0.00698428 -0.163885 1.187 12 25 12
0.00882773 -0.163885 1.187 12 25 12
0.0106712 -0.163885 1.187 11 24 11
0.0125041 -0.163747 1.186 11 24 11
0.0143339 -0.163609 1.185 11 24 11
0.0161742 -0.163609 1.185 12 25 12
0.0179994 -0.163471 1.184 10 25 12
0.0198214 -0.163333 1.183 10 25 12
0.0216587 -0.163333 1.183 13 28 15
0.023476 -0.163195 1.182 13 28 15
0.0253117 -0.163195 1.182 11 26 13
0.0271244 -0.163057 1.181 11 26 13
0.0289586 -0.163057 1.181 10 25 12
0.0307666 -0.162918 1.18 10 25 12
0.0325992 -0.162918 1.18 10 25 12
0.0344026 -0.16278 1.179 10 25 12
0.0362029 -0.162642 1.178 10 25 12
0.0380001 -0.162504 1.177 10 25 12
0.0397603 -0.162228 1.175 9 24 11
0.0415498 -0.16209 1.174 9 24 11
0.0433361 -0.161952 1.173 8 23 10
0.0450808 -0.161676 1.171 8 23 10
0.0468193 -0.1614 1.169 7 22 9
0.04851 -0.160986 1.166 8 23 10
0.0503208 -0.160986 1.166 8 23 10
0.0520869 -0.160847 1.165 9 24 11
0.05385 -0.160709 1.164 9 24 11
0.0556099 -0.160571 1.163 8 23 10
0.057268 -0.160157 1.16 1 12 10
0.0589676 -0.159881 1.158 1 12 10
0.0606086 -0.159467 1.155 2 13 31
0.0621863 -0.158915 1.151 39 50 68
0.066023 -0.155325 1.125 40 63 92
0.0674087 -0.154496 1.119 88 111 140
0.0688994 -0.153944 1.115 114 143 176
0.070441 -0.15353 1.112 112 141 174
0.0721031 -0.153392 1.111 112 141 174
0.0738285 -0.153392 1.111 114 143 176
0.0755539 -0.153392 1.111 118 150 182
0.0772794 -0.153392 1.111 118 150 182
0.0790759 -0.15353 1.112 116 147 181
0.0808029 -0.15353 1.112 112 143 177
0.0825298 -0.15353 1.112 112 143 177
0.0842568 -0.15353 1.112 112 143 177
0.0859065 -0.153392 1.111 112 143 177
0.0876319 -0.153392 1.111 110 141 175
0.0893573 -0.153392 1.111 110 141 175
0.0910827 -0.153392 1.111 112 143 177
0.0928081 -0.153392 1.111 113 143 180
0.0945336 -0.153392 1.111 112 142 179
0.096259 -0.153392 1.111 112 142 179
0.0980726 -0.15353 1.112 112 142 179
0.0997996 -0.15353 1.112 112 142 179
0.101618 -0.153668 1.113 112 142 179
0.103346 -0.153668 1.113 112 142 179
0.105075 -0.153668 1.113 112 142 179
0.106899 -0.153806 1.114 113 144 178
0.108629 -0.153806 1.114 113 144 178
0.11036 -0.153806 1.114 113 144 178
0.11219 -0.153944 1.115 113 144 178
0.113922 -0.153944 1.115 113 144 178
0.115654 -0.153944 1.115 114 145 179
0.11749 -0.154082 1.116 114 145 179
0.119224 -0.154082 1.116 114 145 179
0.121065 -0.15422 1.117 112 143 177
0.12269 -0.154082 1.116 112 143 177
0.124535 -0.15422 1.117 112 143 177
0.126382 -0.154358 1.118 112 143 177
0.128119 -0.154358 1.118 112 144 176
0.129971 -0.154496 1.119 113 145 177
0.131709 -0.154496 1.119 114 146 178
0.133447 -0.154496 1.119 113 145 177
0.135306 -0.154634 1.12 113 145 177
0.137045 -0.154634 1.12 110 142 174
0.138784 -0.154634 1.12 109 141 173
0.140398 -0.154496 1.119 110 142 174
0.142009 -0.154358 1.118 109 141 173
0.143745 -0.154358 1.118 98 130 162
0.145352 -0.15422 1.117 94 126 158
0.146955 -0.154082 1.116 94 126 158
0.148688 -0.154082 1.116 94 125 159
0.150421 -0.154082 1.116 100 131 165
0.152154 -0.154082 1.116 105 136 170
0.153887 -0.154082 1.116 105 136 170
0.15576 -0.15422 1.117 104 137 171
0.157636 -0.154358 1.118 110 143 177
0.159515 -0.154496 1.119 112 145 179
0.161396 -0.154634 1.12 113 146 180
0.163282 -0.154773 1.121 111 143 180
0.165022 -0.154773 1.121 83 115 152
0.167061 -0.155049 1.123 89 121 158
0.168805 -0.155049 1.123 110 142 179
0.170853 -0.155325 1.125 103 135 172
0.172753 -0.155463 1.126 105 137 174
0.174502 -0.155463 1.126 107 139 176
0.176407 -0.155601 1.127 108 140 177
0.178316 -0.155739 1.128 108 140 177
0.180227 -0.155877 1.129 107 139 176
0.181981 -0.155877 1.129 108 140 177
0.183734 -0.155877 1.129 108 140 177
0.185323 -0.155739 1.128 110 143 177
0.187075 -0.155739 1.128 107 140 174
0.188659 -0.155601 1.127 116 147 181
0.19041 -0.155601 1.127 124 155 189
0.191989 -0.155463 1.126 113 144 178
0.193738 -0.155463 1.126 113 144 178
0.195313 -0.155325 1.125 120 149 182
0.19706 -0.155325 1.125 122 151 184
0.198807 -0.155325 1.125 123 152 185
0.200376 -0.155187 1.124 123 152 185
0.202122 -0.155187 1.124 125 152 185
0.203868 -0.155187 1.124 124 151 184
0.205613 -0.155187 1.124 124 151 184
0.207359 -0.155187 1.124 124 151 184
0.20929 -0.155325 1.125 124 151 182
0.211038 -0.155325 1.125 124 151 182
0.212974 -0.155463 1.126 124 151 182
0.214913 -0.155601 1.127 124 151 182
0.216664 -0.155601 1.127 124 151 182
0.218801 -0.155877 1.129 124 151 182
0.220555 -0.155877 1.129 124 151 182
0.222702 -0.156153 1.131 124 151 182
0.224657 -0.156291 1.132 124 151 182
0.226415 -0.156291 1.132 122 149 180
0.228576 -0.156567 1.134 122 149 180
0.230337 -0.156567 1.134 122 149 180
0.232303 -0.156705 1.135 127 154 185
0.234272 -0.156844 1.136 127 154 185
0.236036 -0.156844 1.136 128 155 186
0.237801 -0.156844 1.136 128 155 186
0.239776 -0.156982 1.137 128 155 186
0.241541 -0.156982 1.137 128 155 186
0.243521 -0.15712 1.138 122 149 180
0.245289 -0.15712 1.138 125 152 183
0.247056 -0.15712 1.138 128 155 186
0.248823 -0.15712 1.138 128 155 186
0.250591 -0.15712 1.138 127 154 185
0.252358 -0.15712 1.138 128 155 186
0.254125 -0.15712 1.138 128 155 186
0.255893 -0.15712 1.138 136 163 194
0.257886 -0.157258 1.139 138 166 194
0.259883 -0.157396 1.14 139 167 195
0.262113 -0.157672 1.142 144 168 195
0.26458 -0.158086 1.145 139 163 190
0.269307 -0.158776 1.15 27 45 70
0.272272 -0.159467 1.155 5 14 23
0.275252 -0.160157 1.16 9 18 27
0.278248 -0.160847 1.165 15 26 24
0.281499 -0.161676 1.171 14 25 23
0.284286 -0.162228 1.175 13 27 17
0.287328 -0.162918 1.18 11 25 15
0.289651 -0.163195 1.182 15 31 16
0.292226 -0.163609 1.185 15 31 16
0.296156 -0.163747 1.186 17 33 16
0.29825 -0.163885 1.187 18 35 15
0.300346 -0.164023 1.188 20 37 17
0.302445 -0.164161 1.189 21 38 18
0.304548 -0.164299 1.19 21 38 18
0.306396 -0.164299 1.19 21 38 18
0.308244 -0.164299 1.19 18 35 15
0.310092 -0.164299 1.19 20 37 17
0.312464 -0.164575 1.192 18 35 15
0.314316 -0.164575 1.192 20 37 17
0.316167 -0.164575 1.192 20 37 17
0.318285 -0.164713 1.193 17 34 14
0.320138 -0.164713 1.193 18 35 15
0.32199 -0.164713 1.193 20 37 17
0.323843 -0.164713 1.193 20 37 17
0.325969 -0.164851 1.194 20 37 17
0.327823 -0.164851 1.194 21 38 18
0.329678 -0.164851 1.194 20 37 17
0.331254 -0.164713 1.193 21 38 18
0.333107 -0.164713 1.193 22 39 19
0.33496 -0.164713 1.193 22 39 19
0.33653 -0.164575 1.192 24 41 21
0.338381 -0.164575 1.192 24 41 21
0.340233 -0.164575 1.192 24 41 21
0.342084 -0.164575 1.192 24 41 21
0.343647 -0.164437 1.191 23 40 20
0.345496 -0.164437 1.191 23 40 20
0.347054 -0.164299 1.19 22 39 19
0.348902 -0.164299 1.19 22 39 19
0.349866 -0.163885 1.187 22 39 19
0.351413 -0.163747 1.186 23 40 20
0.352957 -0.163609 1.185 24 41 21
0.3539 -0.163195 1.182 23 40 20
0.355133 -0.162918 1.18 23 40 20
0.355756 -0.162366 1.176 22 39 19
0.35667 -0.161952 1.173 20 37 17
0.35788 -0.161676 1.171 22 39 19
0.35847 -0.161124 1.167 36 50 33
0.359357 -0.160709 1.164 12 26 9
0.359923 -0.160157 1.16 21 30 21
0.358606 -0.158776 1.15 18 27 18
0.358826 -0.158086 1.145 15 19 19
0.359029 -0.157396 1.14 33 37 37
0.359217 -0.156705 1.135 99 102 105
0.360026 -0.156291 1.132 107 110 113
0.361144 -0.156015 1.13 116 119 122
0.362899 -0.156015 1.13 119 122 125
0.364654 -0.156015 1.13 103 101 107
0.366409 -0.156015 1.13 44 42 48
-0.16616 -0.161903 1.186 17 32 12
-0.164457 -0.162039 1.187 17 32 12
-0.162613 -0.162039 1.187 15 32 12
-0.16077 -0.162039 1.187 15 32 12
-0.158926 -0.162039 1.187 14 31 11
-0.157083 -0.162039 1.187 14 31 11
-0.155239 -0.162039 1.187 10 27 7
-0.153396 -0.162039 1.187 13 30 10
-0.151425 -0.161903 1.186 14 31 11
-0.149457 -0.161766 1.185 18 35 15
-0.147492 -0.16163 1.184 17 34 14
-0.145407 -0.161357 1.182 17 34 14
-0.143328 -0.161084 1.18 19 34 14
-0.140896 -0.160401 1.175 19 34 14
-0.138835 -0.160128 1.173 19 34 14
-0.136429 -0.159446 1.168 13 28 8
-0.133924 -0.158626 1.162 0 8 0
-0.130413 -0.156579 1.147 15 23 11
-0.125413 -0.154804 1.134 139 140 137
-0.123107 -0.154122 1.129 156 159 162
-0.120816 -0.153439 1.124 155 158 161
-0.118647 -0.152893 1.12 135 138 146
-0.116177 -0.151937 1.113 148 151 159
-0.114242 -0.151664 1.111 185 187 197
-0.112213 -0.151255 1.108 198 200 210
-0.110393 -0.151118 1.107 202 205 213
-0.108477 -0.150845 1.105 205 208 216
-0.106858 -0.150982 1.106 201 202 210
-0.10514 -0.150982 1.106 204 205 213
-0.103329 -0.150845 1.105 214 217 220
-0.101521 -0.150709 1.104 212 215 218
-0.0998966 -0.150845 1.105 197 200 203
-0.0982693 -0.150982 1.106 189 192 195
-0.096639 -0.151118 1.107 189 193 192
-0.095177 -0.151528 1.11 199 203 202
-0.0937057 -0.151937 1.113 219 223 222
-0.0922251 -0.152347 1.116 225 229 228
-0.0890768 -0.152893 1.12 213 214 211
-0.0877273 -0.153576 1.125 206 205 202
-0.0862859 -0.154122 1.129 195 194 191
-0.0849818 -0.154941 1.135 177 175 169
-0.074371 -0.158626 1.162 18 17 14
-0.0728161 -0.159173 1.166 20 22 16
-0.0713098 -0.159855 1.171 23 25 19
-0.0696099 -0.160128 1.173 24 30 23
-0.0679037 -0.160401 1.175 27 33 26
-0.0660789 -0.160401 1.175 34 40 33
-0.0644182 -0.160811 1.178 34 40 33
-0.0626418 -0.160947 1.179 31 39 32
-0.060914 -0.16122 1.181 31 39 32
-0.0591298 -0.161357 1.182 28 37 28
-0.0573911 -0.16163 1.184 27 36 27
-0.0555992 -0.161766 1.185 26 35 26
-0.0538043 -0.161903 1.186 25 34 25
-0.0520062 -0.162039 1.187 25 35 23
-0.0501627 -0.162039 1.187 25 35 23
-0.0483193 -0.162039 1.187 24 34 22
-0.0464758 -0.162039 1.187 22 32 20
-0.0446324 -0.162039 1.187 21 31 19
-0.0427889 -0.162039 1.187 21 31 19
-0.0409455 -0.162039 1.187 20 30 18
-0.039102 -0.162039 1.187 20 30 18
-0.0372586 -0.162039 1.187 20 30 18
-0.0354449 -0.162176 1.188 19 29 17
-0.0335999 -0.162176 1.188 18 28 16
-0.0317549 -0.162176 1.188 19 29 17
-0.0299351 -0.162312 1.189 18 28 16
-0.0280885 -0.162312 1.189 17 27 15
-0.026242 -0.162312 1.189 17 27 15
-0.0244159 -0.162449 1.19 15 25 13
-0.0225678 -0.162449 1.19 17 27 15
-0.0207197 -0.162449 1.19 15 25 13
-0.0188875 -0.162585 1.191 15 25 13
-0.0170521 -0.162722 1.192 18 28 16
-0.0152009 -0.162722 1.192 15 28 15
-0.0133497 -0.162722 1.192 13 26 13
-0.0114985 -0.162722 1.192 15 28 15
-0.00964725 -0.162722 1.192 13 26 13
-0.00779604 -0.162722 1.192 13 26 13
-0.00593983 -0.162585 1.191 15 28 15
-0.00408673 -0.162449 1.19 13 26 13
-0.00223862 -0.162449 1.19 15 28 15
-0.000390184 -0.162312 1.189 16 29 16
0.00145637 -0.162312 1.189 13 26 13
0.00330015 -0.162176 1.188 13 26 13
0.00514083 -0.162039 1.187 15 28 15
0.00698428 -0.162039 1.187 15 28 15
0.00882029 -0.161903 1.186 15 28 15
0.0106622 -0.161903 1.186 15 28 15
0.0124935 -0.161766 1.185 15 28 15
0.0143339 -0.161766 1.185 13 26 13
0.0161742 -0.161766 1.185 12 25 12
0.0179994 -0.16163 1.184 10 25 12
0.0198214 -0.161493 1.183 10 25 12
0.0216403 -0.161357 1.182 11 26 13
0.023476 -0.161357 1.182 11 26 13
0.0253117 -0.161357 1.182 11 26 13
0.0271244 -0.16122 1.181 10 25 12
0.0289341 -0.161084 1.18 10 25 12
0.0307666 -0.161084 1.18 11 26 13
0.0325992 -0.161084 1.18 11 26 13
0.0343734 -0.160811 1.178 11 26 13
0.0362029 -0.160811 1.178 10 25 12
0.0379355 -0.160401 1.175 10 25 12
0.0397265 -0.160265 1.174 9 24 11
0.0415144 -0.160128 1.173 9 24 11
0.0432622 -0.159855 1.171 9 24 11
0.0448883 -0.159173 1.166 9 24 11
0.0466591 -0.159036 1.165 8 23 10
0.0484268 -0.158899 1.164 7 22 9
0.0501482 -0.158626 1.162 8 23 10
0.0519081 -0.15849 1.161 9 24 11
0.0536649 -0.158353 1.16 8 23 10
0.0554186 -0.158217 1.159 7 22 9
0.0571692 -0.15808 1.158 1 12 11
0.0588149 -0.157671 1.155 2 13 12
0.0603987 -0.157125 1.151 12 22 42
0.0619702 -0.156579 1.147 58 68 88
0.0630289 -0.154804 1.134 49 69 94
0.065847 -0.153166 1.122 42 66 98
0.0673485 -0.15262 1.118 88 112 144
0.0687758 -0.151937 1.113 104 132 167
0.0705044 -0.151937 1.113 109 137 172
0.0721031 -0.151664 1.111 116 145 178
0.0738285 -0.151664 1.111 117 146 179
0.0755539 -0.151664 1.111 117 146 179
0.0772794 -0.151664 1.111 117 146 179
0.0790048 -0.151664 1.111 115 143 178
0.0808029 -0.151801 1.112 115 143 178
0.0825298 -0.151801 1.112 115 143 178
0.0842568 -0.151801 1.112 115 143 178
0.0859838 -0.151801 1.112 114 142 177
0.0876319 -0.151664 1.111 112 140 175
0.0894377 -0.151801 1.112 110 141 175
0.0911647 -0.151801 1.112 110 141 175
0.0928917 -0.151801 1.112 110 140 177
0.0946186 -0.151801 1.112 110 140 177
0.0963456 -0.151801 1.112 112 142 179
0.0980726 -0.151801 1.112 112 142 179
0.0997996 -0.151801 1.112 112 142 179
0.101618 -0.151937 1.113 113 143 180
0.103346 -0.151937 1.113 112 143 177
0.105075 -0.151937 1.113 112 143 177
0.106899 -0.152074 1.114 113 144 178
0.108629 -0.152074 1.114 113 144 178
0.110459 -0.15221 1.115 113 144 178
0.11219 -0.15221 1.115 113 144 178
0.113922 -0.15221 1.115 113 144 178
0.115654 -0.15221 1.115 113 144 178
0.11749 -0.152347 1.116 114 145 179
0.119224 -0.152347 1.116 113 144 178
0.121065 -0.152483 1.117 113 144 178
0.1228 -0.152483 1.117 115 146 180
0.124646 -0.15262 1.118 112 143 177
0.126495 -0.152756 1.119 112 143 177
0.128348 -0.152893 1.12 112 144 176
0.130087 -0.152893 1.12 112 144 176
0.131827 -0.152893 1.12 113 145 177
0.133566 -0.152893 1.12 113 145 177
0.135306 -0.152893 1.12 113 145 177
0.137045 -0.152893 1.12 112 144 176
0.138784 -0.152893 1.12 112 144 176
0.140398 -0.152756 1.119 114 146 178
0.142009 -0.15262 1.118 112 141 174
0.143745 -0.15262 1.118 104 133 166
0.145352 -0.152483 1.117 101 133 165
0.147086 -0.152483 1.117 99 131 163
0.148821 -0.152483 1.117 100 131 165
0.150421 -0.152347 1.116 99 130 164
0.15229 -0.152483 1.117 97 130 164
0.154025 -0.152483 1.117 93 126 160
0.155899 -0.15262 1.118 98 131 165
0.157636 -0.15262 1.118 100 133 167
0.159515 -0.152756 1.119 101 134 168
0.161396 -0.152893 1.12 107 140 174
0.163136 -0.152893 1.12 92 124 161
0.165022 -0.153029 1.121 78 110 147
0.166912 -0.153166 1.122 94 127 161
0.168805 -0.153303 1.123 110 143 177
0.170853 -0.153576 1.125 105 138 172
0.1726 -0.153576 1.125 104 137 171
0.174502 -0.153712 1.126 105 137 174
0.176407 -0.153849 1.127 104 136 173
0.178158 -0.153849 1.127 104 136 173
0.180068 -0.153985 1.128 105 137 174
0.181981 -0.154122 1.129 107 139 176
0.183734 -0.154122 1.129 108 140 177
0.185323 -0.153985 1.128 108 141 175
0.186909 -0.153849 1.127 107 140 174
0.188659 -0.153849 1.127 118 149 183
0.19041 -0.153849 1.127 127 158 192
0.19216 -0.153849 1.127 120 151 185
0.19391 -0.153849 1.127 116 147 181
0.195487 -0.153712 1.126 122 151 184
0.197235 -0.153712 1.126 123 152 185
0.198807 -0.153576 1.125 125 152 185
0.200555 -0.153576 1.125 125 152 185
0.202302 -0.153576 1.125 126 153 186
0.204049 -0.153576 1.125 126 153 186
0.205796 -0.153576 1.125 125 152 185
0.207543 -0.153576 1.125 124 151 184
0.20929 -0.153576 1.125 125 152 185
0.211038 -0.153576 1.125 125 152 185
0.212974 -0.153712 1.126 125 152 183
0.214913 -0.153849 1.127 124 151 182
0.216664 -0.153849 1.127 124 151 182
0.218608 -0.153985 1.128 124 151 182
0.220555 -0.154122 1.129 125 152 183
0.222505 -0.154258 1.13 124 151 182
0.224458 -0.154395 1.131 124 151 182
0.226415 -0.154531 1.132 125 152 183
0.228375 -0.154668 1.133 125 152 183
0.230337 -0.154804 1.134 126 153 184
0.232098 -0.154804 1.134 126 153 184
0.234066 -0.154941 1.135 126 153 184
0.236036 -0.155077 1.136 127 154 185
0.237801 -0.155077 1.136 128 155 186
0.239776 -0.155214 1.137 129 156 187
0.241541 -0.155214 1.137 129 156 187
0.243307 -0.155214 1.137 127 154 185
0.245073 -0.155214 1.137 126 153 184
0.247056 -0.15535 1.138 126 153 184
0.248823 -0.15535 1.138 126 153 184
0.250591 -0.15535 1.138 127 154 185
0.252358 -0.15535 1.138 127 154 185
0.254125 -0.15535 1.138 128 155 186
0.255893 -0.15535 1.138 134 161 192
0.257886 -0.155487 1.139 133 160 191
0.259883 -0.155623 1.14 134 161 192
0.262342 -0.156033 1.143 141 167 194
0.264811 -0.156442 1.146 141 167 194
0.269541 -0.157125 1.151 18 38 58
0.272507 -0.157807 1.156 0 13 19
0.275489 -0.15849 1.161 9 22 28
0.278486 -0.159173 1.166 17 28 20
0.281499 -0.159855 1.171 16 27 19
0.284527 -0.160538 1.176 15 27 17
0.287328 -0.161084 1.18 13 25 15
0.289896 -0.161493 1.183 15 29 14
0.292226 -0.161766 1.185 15 29 14
0.296406 -0.162039 1.187 19 33 16
0.29825 -0.162039 1.187 18 35 15
0.300093 -0.162039 1.187 18 35 15
0.301937 -0.162039 1.187 20 37 17
0.304292 -0.162312 1.189 20 37 17
0.306138 -0.162312 1.189 20 37 17
0.308244 -0.162449 1.19 18 35 15
0.310092 -0.162449 1.19 18 35 15
0.312202 -0.162585 1.191 17 34 14
0.314052 -0.162585 1.191 20 37 17
0.316167 -0.162722 1.192 20 37 17
0.318018 -0.162722 1.192 21 38 18
0.320138 -0.162858 1.193 22 39 19
0.321721 -0.162722 1.192 21 38 18
0.323843 -0.162858 1.193 20 37 17
0.325696 -0.162858 1.193 20 37 17
0.327274 -0.162722 1.192 21 38 18
0.329125 -0.162722 1.192 21 38 18
0.330977 -0.162722 1.192 20 37 17
0.332828 -0.162722 1.192 23 40 20
0.334679 -0.162722 1.192 23 40 20
0.33653 -0.162722 1.192 24 41 21
0.338381 -0.162722 1.192 24 41 21
0.339947 -0.162585 1.191 24 41 21
0.341797 -0.162585 1.191 22 39 19
0.343358 -0.162449 1.19 23 40 20
0.345206 -0.162449 1.19 23 40 20
0.347054 -0.162449 1.19 23 40 20
0.348316 -0.162176 1.188 23 40 20
0.349571 -0.161903 1.186 22 39 19
0.351117 -0.161766 1.185 22 39 19
0.352362 -0.161493 1.183 22 39 19
0.3536 -0.16122 1.181 22 39 19
0.354531 -0.160811 1.178 22 39 19
0.355453 -0.160401 1.175 22 39 19
0.356366 -0.159992 1.172 20 37 17
0.357269 -0.159582 1.169 21 38 18
0.358163 -0.159173 1.166 36 50 33
0.358739 -0.158626 1.162 13 27 10
0.358062 -0.157534 1.154 22 32 20
0.358199 -0.156033 1.143 16 20 19
0.358399 -0.15535 1.138 34 38 37
0.358901 -0.154804 1.134 100 103 106
0.359708 -0.154395 1.131 108 111 114
0.361144 -0.154258 1.13 116 119 122
0.362899 -0.154258 1.13 118 121 124
0.364654 -0.154258 1.13 96 94 100
0.366409 -0.154258 1.13 44 42 48
-0.16616 -0.160059 1.186 17 33 11
-0.164457 -0.160194 1.187 16 32 10
-0.162613 -0.160194 1.187 16 32 10
-0.160905 -0.160329 1.188 16 32 10
-0.159194 -0.160464 1.189 16 32 10
-0.157215 -0.160329 1.188 15 31 9
-0.155239 -0.160194 1.187 12 28 6
-0.153396 -0.160194 1.187 13 29 7
-0.151553 -0.160194 1.187 11 27 5
-0.149583 -0.160059 1.186 16 32 10
-0.147617 -0.159924 1.185 23 38 18
-0.145653 -0.159789 1.184 19 34 14
-0.143328 -0.159249 1.18 19 34 14
-0.141256 -0.158979 1.178 20 35 15
-0.139072 -0.158574 1.175 22 37 17
-0.137013 -0.158304 1.173 25 40 20
-0.1345 -0.157494 1.167 19 28 14
-0.12674 -0.15466 1.146 69 71 65
-0.124306 -0.153851 1.14 133 133 134
-0.122106 -0.153311 1.136 160 160 161
-0.117847 -0.152366 1.129 148 149 157
-0.115682 -0.151826 1.125 160 163 171
-0.113631 -0.151421 1.122 176 179 187
-0.11129 -0.150612 1.116 190 191 199
-0.109262 -0.150207 1.113 213 214 222
-0.107437 -0.150072 1.112 204 207 210
-0.10552 -0.149802 1.11 204 207 210
-0.103703 -0.149667 1.109 213 217 216
-0.101889 -0.149532 1.108 207 211 210
-0.100349 -0.149802 1.11 203 204 201
-0.0988024 -0.150072 1.112 196 197 194
-0.0973373 -0.150477 1.115 188 190 184
-0.0941267 -0.150882 1.118 227 226 223
-0.0928036 -0.151556 1.123 218 217 214
-0.0871266 -0.153851 1.14 140 137 134
-0.0857305 -0.154525 1.145 85 81 81
-0.0781144 -0.15709 1.164 26 25 22
-0.0766345 -0.157764 1.169 27 28 25
-0.075011 -0.158169 1.172 27 28 25
-0.0733782 -0.158574 1.175 23 29 22
-0.0717361 -0.158979 1.178 26 32 25
-0.0700253 -0.159249 1.18 34 41 32
-0.0681927 -0.159249 1.18 33 40 31
-0.0663601 -0.159249 1.18 31 40 31
-0.0646369 -0.159519 1.182 31 40 31
-0.0628012 -0.159519 1.182 25 34 25
-0.0610687 -0.159789 1.184 29 38 29
-0.0593299 -0.160059 1.186 29 39 27
-0.0574881 -0.160059 1.186 28 38 26
-0.0556931 -0.160194 1.187 29 39 27
-0.053895 -0.160329 1.188 25 35 23
-0.0520938 -0.160464 1.189 25 36 22
-0.0502472 -0.160464 1.189 24 35 21
-0.0484007 -0.160464 1.189 24 35 21
-0.0465541 -0.160464 1.189 22 33 19
-0.0447076 -0.160464 1.189 21 32 18
-0.0428971 -0.160598 1.19 20 31 17
-0.0410489 -0.160598 1.19 17 31 16
-0.0392008 -0.160598 1.19 17 31 16
-0.0373213 -0.160464 1.189 18 32 17
-0.0354748 -0.160464 1.189 15 29 14
-0.0336282 -0.160464 1.189 13 27 12
-0.0318084 -0.160598 1.19 17 31 16
-0.0299603 -0.160598 1.19 16 30 15
-0.0281122 -0.160598 1.19 16 30 15
-0.026242 -0.160464 1.189 16 30 15
-0.0244159 -0.160598 1.19 15 29 14
-0.0225678 -0.160598 1.19 16 30 15
-0.0207197 -0.160598 1.19 13 27 12
-0.0188875 -0.160733 1.191 12 26 11
-0.0170378 -0.160733 1.191 13 27 12
-0.0151881 -0.160733 1.191 12 25 12
-0.0133273 -0.160598 1.19 13 26 13
-0.0114792 -0.160598 1.19 15 28 15
-0.00963916 -0.160733 1.191 15 28 15
-0.00778295 -0.160598 1.19 15 28 15
-0.00593484 -0.160598 1.19 16 29 16
-0.00408673 -0.160598 1.19 16 29 16
-0.00223674 -0.160464 1.189 16 29 16
-0.000389856 -0.160329 1.188 16 29 16
0.00145392 -0.160194 1.187 13 26 13
0.00329737 -0.160194 1.187 12 25 12
0.00514083 -0.160194 1.187 15 28 15
0.00697839 -0.160059 1.186 15 28 15
0.00881286 -0.159924 1.185 15 28 15
0.0106532 -0.159924 1.185 15 28 15
0.0124935 -0.159924 1.185 16 29 16
0.0143218 -0.159789 1.184 16 29 16
0.0161606 -0.159789 1.184 15 28 15
0.0179842 -0.159654 1.183 13 28 15
0.0198047 -0.159519 1.182 11 26 13
0.0216403 -0.159519 1.182 11 26 13
0.023476 -0.159519 1.182 11 26 13
0.0252903 -0.159384 1.181 11 26 13
0.0271015 -0.159249 1.18 11 26 13
0.0289341 -0.159249 1.18 10 25 12
0.0307406 -0.159114 1.179 11 26 13
0.032544 -0.158979 1.178 10 25 12
0.0343734 -0.158979 1.178 10 25 12
0.0361414 -0.158709 1.176 10 25 12
0.0379032 -0.158439 1.174 10 25 12
0.0396927 -0.158304 1.173 9 24 11
0.0414436 -0.158034 1.171 9 24 11
0.0430775 -0.15736 1.166 10 25 12
0.0448113 -0.15709 1.164 9 24 11
0.0465389 -0.15682 1.162 8 23 10
0.0482604 -0.15655 1.16 8 23 10
0.0499756 -0.15628 1.158 8 23 10
0.0517293 -0.156145 1.157 9 24 11
0.0534799 -0.15601 1.156 8 23 10
0.0552274 -0.155875 1.155 8 23 10
0.0569717 -0.15574 1.154 1 12 11
0.0586112 -0.155335 1.151 1 12 11
0.0601888 -0.154795 1.147 19 32 51
0.061754 -0.154256 1.143 58 71 90
0.0629178 -0.152771 1.132 51 71 96
0.0657296 -0.151152 1.12 44 68 102
0.067228 -0.150612 1.116 77 101 135
0.0687758 -0.150207 1.113 95 123 158
0.0703777 -0.149937 1.111 116 144 179
0.0721031 -0.149937 1.111 117 145 180
0.0738285 -0.149937 1.111 111 139 174
0.0755539 -0.149937 1.111 110 138 173
0.0772794 -0.149937 1.111 110 138 173
0.0790048 -0.149937 1.111 105 136 170
0.0807302 -0.149937 1.111 110 141 175
0.0824556 -0.149937 1.111 113 144 178
