ply
format ascii 1.0
comment Created by Open3D
element vertex 1386
property double x
property double y
property double z
property uchar red
property uchar green
property uchar blue
end_header
0.263224 -0.230328 1.187 11 29 7
0.265067 -0.230328 1.187 13 29 7
0.266911 -0.230328 1.187 13 29 7
0.268754 -0.230328 1.187 15 28 7
0.270598 -0.230328 1.187 17 30 9
0.272441 -0.230328 1.187 17 33 11
0.274516 -0.230522 1.188 16 32 10
0.276361 -0.230522 1.188 16 32 10
0.278206 -0.230522 1.188 16 32 10
0.280051 -0.230522 1.188 17 33 11
0.281896 -0.230522 1.188 16 32 10
0.283741 -0.230522 1.188 16 31 11
0.285586 -0.230522 1.188 17 32 12
0.287431 -0.230522 1.188 17 32 12
0.289276 -0.230522 1.188 16 31 11
0.290876 -0.230328 1.187 15 30 10
0.292719 -0.230328 1.187 15 30 10
0.294563 -0.230328 1.187 13 28 8
0.296156 -0.230134 1.186 16 31 11
0.29825 -0.230328 1.187 18 33 13
0.300093 -0.230328 1.187 16 31 11
0.301937 -0.230328 1.187 16 31 11
0.30378 -0.230328 1.187 16 31 11
0.305623 -0.230328 1.187 18 32 15
0.307467 -0.230328 1.187 17 31 14
0.30931 -0.230328 1.187 16 30 13
0.311154 -0.230328 1.187 15 29 12
0.312997 -0.230328 1.187 15 29 12
0.314841 -0.230328 1.187 17 31 14
0.316951 -0.230522 1.188 16 30 13
0.318796 -0.230522 1.188 17 31 14
0.322757 -0.230716 1.189 17 31 14
0.324877 -0.23091 1.19 19 33 16
0.326725 -0.23091 1.19 19 33 16
0.328573 -0.23091 1.19 19 33 16
0.330699 -0.231104 1.191 19 33 16
0.332549 -0.231104 1.191 19 34 14
0.334398 -0.231104 1.191 19 34 14
0.33653 -0.231298 1.192 20 35 15
0.338381 -0.231298 1.192 23 38 18
0.340233 -0.231298 1.192 22 37 17
0.342084 -0.231298 1.192 22 37 17
0.343935 -0.231298 1.192 22 37 17
0.345786 -0.231298 1.192 19 34 14
0.347054 -0.23091 1.19 19 34 14
0.348902 -0.23091 1.19 19 34 14
0.350161 -0.230522 1.188 17 34 14
0.35171 -0.230328 1.187 17 34 14
0.352957 -0.22994 1.185 20 37 17
0.354199 -0.229552 1.183 20 37 17
0.355735 -0.229358 1.182 21 38 18
0.356966 -0.22897 1.18 20 37 17
0.35819 -0.228582 1.178 11 27 10
0.359714 -0.228388 1.177 7 23 6
0.360928 -0.228 1.175 34 48 38
0.362135 -0.227611 1.173 39 53 43
0.363647 -0.227417 1.172 11 23 18
0.365155 -0.227223 1.171 8 20 15
0.366033 -0.226641 1.168 9 20 19
0.367532 -0.226447 1.167 6 17 16
0.36523 -0.223925 1.154 34 45 49
0.364826 -0.220432 1.136 79 89 96
0.364654 -0.219268 1.13 79 88 97
0.366085 -0.219074 1.129 75 84 93
-0.163358 -0.22444 1.166 6 14 7
-0.161547 -0.22444 1.166 6 14 7
-0.159599 -0.224248 1.165 6 14 7
-0.157519 -0.223863 1.163 5 13 6
-0.155311 -0.223285 1.16 0 2 5
-0.153245 -0.2229 1.158 0 3 6
-0.151054 -0.222323 1.155 53 60 85
-0.148744 -0.221553 1.151 88 95 120
-0.146701 -0.221168 1.149 53 69 99
-0.144286 -0.220205 1.144 56 72 102
-0.142385 -0.220013 1.143 59 79 113
-0.140486 -0.21982 1.142 87 107 141
-0.138713 -0.21982 1.142 97 117 151
-0.136939 -0.21982 1.142 91 111 145
-0.135166 -0.21982 1.142 66 86 120
-0.133509 -0.220013 1.143 69 89 123
-0.131734 -0.220013 1.143 88 108 142
-0.130072 -0.220205 1.144 83 103 137
-0.128296 -0.220205 1.144 88 108 142
-0.126519 -0.220205 1.144 85 105 139
-0.124742 -0.220205 1.144 83 105 137
-0.122966 -0.220205 1.144 83 105 137
-0.121189 -0.220205 1.144 86 108 140
-0.119412 -0.220205 1.144 81 103 135
-0.117636 -0.220205 1.144 74 96 128
-0.11596 -0.220398 1.145 71 93 125
-0.114182 -0.220398 1.145 82 104 136
-0.112404 -0.220398 1.145 92 114 146
-0.110722 -0.22059 1.146 92 113 142
-0.108942 -0.22059 1.146 91 112 141
-0.107256 -0.220783 1.147 91 112 141
-0.105475 -0.220783 1.147 89 110 139
-0.103694 -0.220783 1.147 92 115 139
-0.101912 -0.220783 1.147 99 122 146
-0.100131 -0.220783 1.147 103 125 152
-0.0983496 -0.220783 1.147 87 109 136
-0.0967366 -0.221168 1.149 77 97 122
-0.0949522 -0.221168 1.149 87 107 132
-0.0931677 -0.221168 1.149 90 112 139
-0.0914628 -0.22136 1.15 95 117 144
-0.0897548 -0.221553 1.151 95 117 144
-0.0880437 -0.221745 1.152 95 117 144
-0.0845388 -0.221938 1.153 94 113 141
-0.0828917 -0.222323 1.155 93 110 138
-0.0811682 -0.222515 1.156 86 103 131
-0.0794415 -0.222708 1.157 81 100 123
-0.0777118 -0.2229 1.158 78 97 120
-0.0760445 -0.223285 1.16 78 97 120
-0.074307 -0.223478 1.161 78 97 120
-0.0726288 -0.223863 1.163 67 87 105
-0.0708835 -0.224055 1.164 56 76 94
-0.0691351 -0.224248 1.165 45 65 83
-0.0673836 -0.22444 1.166 36 56 74
-0.0655728 -0.22444 1.166 20 38 55
-0.0638166 -0.224633 1.167 11 29 46
-0.0620574 -0.224825 1.168 11 29 41
-0.0602434 -0.224825 1.168 8 26 38
-0.0584295 -0.224825 1.168 7 26 35
-0.056664 -0.225018 1.169 5 24 33
-0.0548954 -0.22521 1.17 4 26 26
-0.0530784 -0.22521 1.17 3 25 25
-0.0513052 -0.225403 1.171 3 26 22
-0.0494866 -0.225403 1.171 4 27 23
-0.0477087 -0.225595 1.172 7 28 17
-0.0458885 -0.225595 1.172 9 30 19
-0.0441059 -0.225788 1.173 13 34 16
-0.0422842 -0.225788 1.173 16 37 19
-0.0404625 -0.225788 1.173 13 36 13
-0.0386408 -0.225788 1.173 12 35 12
-0.0368819 -0.226173 1.175 21 42 17
-0.0350571 -0.226173 1.175 20 41 16
-0.0332605 -0.226365 1.176 19 41 14
-0.0314876 -0.22675 1.178 19 41 14
-0.0296582 -0.22675 1.178 21 43 14
-0.0278523 -0.226942 1.179 22 44 15
-0.0260434 -0.227135 1.18 22 44 15
-0.0242313 -0.227327 1.181 21 43 14
-0.0224161 -0.22752 1.182 25 47 18
-0.0205804 -0.22752 1.182 25 47 18
-0.0187447 -0.22752 1.182 22 44 15
-0.0169234 -0.227712 1.183 22 44 15
-0.0150861 -0.227712 1.183 23 45 16
-0.0132489 -0.227712 1.183 25 47 18
-0.0114309 -0.228097 1.185 23 45 16
-0.00958251 -0.227905 1.184 23 45 16
-0.00775025 -0.228097 1.185 25 45 16
-0.00590991 -0.228097 1.185 25 45 16
-0.00406956 -0.228097 1.185 25 45 16
-0.0022311 -0.22829 1.186 25 45 16
-0.000389528 -0.228482 1.187 27 47 18
0.00145392 -0.228482 1.187 28 48 19
0.00330015 -0.228675 1.188 28 49 17
0.00514516 -0.228675 1.188 28 49 17
0.00699605 -0.228867 1.189 29 50 18
0.0088426 -0.228867 1.189 25 46 14
0.0106892 -0.228867 1.189 25 46 14
0.0125357 -0.228867 1.189 25 46 14
0.0143944 -0.22906 1.19 25 46 14
0.0162425 -0.22906 1.19 25 46 14
0.0180906 -0.22906 1.19 27 48 16
0.0199387 -0.22906 1.19 27 48 16
0.0217868 -0.22906 1.19 27 48 16
0.0236349 -0.22906 1.19 27 48 16
0.025483 -0.22906 1.19 27 48 16
0.0273311 -0.22906 1.19 25 46 14
0.0291793 -0.22906 1.19 25 46 14
0.0310013 -0.228867 1.189 25 46 14
0.0328479 -0.228867 1.189 25 46 14
0.0346944 -0.228867 1.189 25 46 14
0.036541 -0.228867 1.189 28 49 17
0.0383875 -0.228867 1.189 28 49 17
0.0402341 -0.228867 1.189 25 47 13
0.0420806 -0.228867 1.189 23 45 11
0.0439641 -0.22906 1.19 28 50 16
0.0458123 -0.22906 1.19 29 51 17
0.0476604 -0.22906 1.19 30 52 18
0.0495085 -0.22906 1.19 31 53 19
0.0513566 -0.22906 1.19 25 47 13
0.0532047 -0.22906 1.19 29 51 17
0.0550528 -0.22906 1.19 28 50 16
0.0569009 -0.22906 1.19 28 50 16
0.058749 -0.22906 1.19 28 50 16
0.0605462 -0.228867 1.189 29 51 17
0.0623403 -0.228675 1.188 28 50 16
0.0641313 -0.228482 1.187 27 49 15
0.0659747 -0.228482 1.187 27 49 15
0.067761 -0.22829 1.186 25 47 13
0.0695443 -0.228097 1.185 27 49 15
0.0713244 -0.227905 1.184 28 50 16
0.0730396 -0.22752 1.182 28 49 17
0.0748752 -0.22752 1.182 27 48 16
0.076646 -0.227327 1.181 27 48 16
0.0784137 -0.227135 1.18 27 48 16
0.0802463 -0.227135 1.18 25 46 14
0.0820789 -0.227135 1.18 25 46 14
0.0839115 -0.227135 1.18 27 49 15
0.0858167 -0.227327 1.181 28 50 16
0.0877251 -0.22752 1.182 29 51 17
0.0897123 -0.227905 1.184 28 50 16
0.0916284 -0.228097 1.185 27 50 13
0.0935476 -0.22829 1.186 25 48 11
0.0955504 -0.228675 1.188 25 48 11
0.0975593 -0.22906 1.19 25 48 11
0.099491 -0.229252 1.191 25 48 11
0.101426 -0.229445 1.192 27 50 13
0.103277 -0.229445 1.192 27 50 13
0.105216 -0.229637 1.193 29 52 15
0.107069 -0.229637 1.193 28 51 14
0.108922 -0.229637 1.193 28 51 14
0.110775 -0.229637 1.193 28 51 14
0.112627 -0.229637 1.193 28 51 14
0.114384 -0.229445 1.192 29 51 17
0.116235 -0.229445 1.192 25 47 13
0.117988 -0.229252 1.191 28 50 16
0.119737 -0.22906 1.19 27 49 15
0.121585 -0.22906 1.19 29 51 17
0.123433 -0.22906 1.19 29 51 17
0.125176 -0.228867 1.189 29 50 18
0.126915 -0.228675 1.188 28 49 17
0.128652 -0.228482 1.187 28 49 17
0.130496 -0.228482 1.187 28 49 17
0.132339 -0.228482 1.187 31 50 18
0.134182 -0.228482 1.187 30 49 17
0.136026 -0.228482 1.187 31 50 18
0.137753 -0.22829 1.186 30 49 17
0.139595 -0.22829 1.186 29 48 16
0.141437 -0.22829 1.186 29 48 16
0.1434 -0.228482 1.187 30 49 17
0.145243 -0.228482 1.187 30 49 17
0.147087 -0.228482 1.187 30 49 17
0.149056 -0.228675 1.188 30 49 17
0.150901 -0.228675 1.188 31 50 18
0.152874 -0.228867 1.189 31 50 18
0.154721 -0.228867 1.189 32 51 19
0.156699 -0.22906 1.19 32 51 19
0.158547 -0.22906 1.19 31 50 18
0.160395 -0.22906 1.19 30 49 17
0.162243 -0.22906 1.19 31 50 18
0.164091 -0.22906 1.19 32 51 19
0.165939 -0.22906 1.19 32 51 19
0.167647 -0.228867 1.189 33 52 20
0.169493 -0.228867 1.189 32 51 19
0.17134 -0.228867 1.189 32 51 19
0.173041 -0.228675 1.188 32 51 19
0.175033 -0.228867 1.189 31 50 18
0.176879 -0.228867 1.189 32 51 19
0.178726 -0.228867 1.189 33 52 20
0.180572 -0.228867 1.189 33 52 20
0.182419 -0.228867 1.189 34 53 21
0.184266 -0.228867 1.189 33 52 20
0.186112 -0.228867 1.189 32 51 19
0.188117 -0.22906 1.19 34 53 21
0.189965 -0.22906 1.19 34 53 21
0.191813 -0.22906 1.19 34 53 21
0.193661 -0.22906 1.19 33 52 20
0.195509 -0.22906 1.19 33 52 20
0.197523 -0.229252 1.191 32 51 19
0.19954 -0.229445 1.192 34 53 21
0.201391 -0.229445 1.192 34 53 21
0.203243 -0.229445 1.192 34 53 21
0.204922 -0.229252 1.191 37 56 24
0.206771 -0.229252 1.191 32 51 19
0.208446 -0.22906 1.19 31 50 18
0.210294 -0.22906 1.19 33 52 20
0.212142 -0.22906 1.19 34 53 21
0.21381 -0.228867 1.189 34 53 21
0.215476 -0.228675 1.188 34 53 21
0.217321 -0.228675 1.188 33 52 20
0.219166 -0.228675 1.188 32 51 19
0.221011 -0.228675 1.188 32 51 19
0.222856 -0.228675 1.188 32 51 19
0.224701 -0.228675 1.188 31 50 18
0.226546 -0.228675 1.188 31 50 18
0.228583 -0.228867 1.189 29 48 16
0.23043 -0.228867 1.189 26 45 13
0.232471 -0.22906 1.19 27 45 16
0.234123 -0.228867 1.189 25 43 14
0.235969 -0.228867 1.189 25 43 14
0.238016 -0.22906 1.19 25 43 14
0.239864 -0.22906 1.19 24 42 13
0.241712 -0.22906 1.19 23 41 12
0.24356 -0.22906 1.19 23 41 12
0.245408 -0.22906 1.19 20 38 9
0.247049 -0.228867 1.189 20 38 9
0.248895 -0.228867 1.189 19 37 8
0.250531 -0.228675 1.188 18 36 9
0.252163 -0.228482 1.187 15 33 6
0.254007 -0.228482 1.187 16 33 8
0.25585 -0.228482 1.187 15 32 7
0.257694 -0.228482 1.187 15 34 9
0.259537 -0.228482 1.187 16 35 10
0.261381 -0.228482 1.187 14 33 8
0.263224 -0.228482 1.187 11 30 5
0.265067 -0.228482 1.187 13 29 7
0.266911 -0.228482 1.187 15 31 9
0.268754 -0.228482 1.187 16 33 8
0.270598 -0.228482 1.187 16 33 8
0.272441 -0.228482 1.187 17 34 9
0.274285 -0.228482 1.187 17 34 9
0.276361 -0.228675 1.188 16 33 8
0.278206 -0.228675 1.188 15 32 7
0.280051 -0.228675 1.188 16 32 10
0.281896 -0.228675 1.188 17 33 11
0.28398 -0.228867 1.189 17 32 12
0.285826 -0.228867 1.189 16 31 11
0.287673 -0.228867 1.189 17 32 12
0.289276 -0.228675 1.188 17 32 12
0.291121 -0.228675 1.188 17 32 12
0.292719 -0.228482 1.187 17 32 12
0.294563 -0.228482 1.187 17 32 12
0.296406 -0.228482 1.187 18 33 13
0.29825 -0.228482 1.187 18 33 13
0.300093 -0.228482 1.187 16 31 11
0.301937 -0.228482 1.187 16 31 11
0.30378 -0.228482 1.187 16 31 11
0.305623 -0.228482 1.187 17 32 12
0.307726 -0.228675 1.188 18 33 13
0.309571 -0.228675 1.188 16 31 11
0.311416 -0.228675 1.188 16 31 11
0.313261 -0.228675 1.188 16 31 11
0.315106 -0.228675 1.188 18 33 13
0.316951 -0.228675 1.188 18 33 13
0.318796 -0.228675 1.188 19 34 14
0.322486 -0.228675 1.188 18 33 13
0.324604 -0.228867 1.189 20 35 15
0.328573 -0.22906 1.19 19 34 14
0.330421 -0.22906 1.19 20 35 15
0.332269 -0.22906 1.19 18 33 13
0.334117 -0.22906 1.19 17 32 12
0.335966 -0.22906 1.19 20 34 17
0.337814 -0.22906 1.19 23 37 20
0.339662 -0.22906 1.19 22 36 19
0.341797 -0.229252 1.191 22 36 19
0.343358 -0.22906 1.19 22 36 19
0.345206 -0.22906 1.19 17 31 14
0.347054 -0.22906 1.19 18 32 15
0.348609 -0.228867 1.189 17 31 14
0.349866 -0.228482 1.187 18 34 17
0.35171 -0.228482 1.187 17 33 16
0.352957 -0.228097 1.185 20 36 19
0.354199 -0.227712 1.183 20 36 19
0.355735 -0.22752 1.182 20 36 19
0.356966 -0.227135 1.18 18 34 17
0.35819 -0.22675 1.178 17 33 16
0.359714 -0.226558 1.177 7 23 6
0.360928 -0.226173 1.175 35 50 37
0.362135 -0.225788 1.173 39 54 41
0.363336 -0.225403 1.171 8 20 15
0.364843 -0.22521 1.17 8 20 15
0.366033 -0.224825 1.168 9 20 19
0.367217 -0.22444 1.166 4 15 14
0.36523 -0.22213 1.154 36 47 51
0.364826 -0.218666 1.136 79 89 96
0.3653 -0.217896 1.132 82 92 99
0.365761 -0.217126 1.128 73 83 90
-0.163358 -0.222627 1.166 4 13 4
-0.161547 -0.222627 1.166 6 15 6
-0.159462 -0.222245 1.164 7 15 8
-0.157384 -0.221863 1.162 5 13 6
-0.155311 -0.221482 1.16 0 1 6
-0.15298 -0.220718 1.156 1 5 10
-0.150924 -0.220336 1.154 76 86 108
-0.148614 -0.219572 1.15 93 103 125
-0.14619 -0.218618 1.145 63 80 108
-0.144034 -0.218045 1.142 66 83 111
-0.14226 -0.218045 1.142 75 92 127
-0.140363 -0.217854 1.141 98 115 150
-0.138591 -0.217854 1.141 97 117 151
-0.136819 -0.217854 1.141 88 108 142
-0.135166 -0.218045 1.142 70 89 125
-0.133392 -0.218045 1.142 77 96 132
-0.131619 -0.218045 1.142 91 110 146
-0.129845 -0.218045 1.142 91 110 146
-0.128071 -0.218045 1.142 86 107 143
-0.126298 -0.218045 1.142 85 106 142
-0.124524 -0.218045 1.142 85 107 139
-0.122751 -0.218045 1.142 85 107 139
-0.120977 -0.218045 1.142 90 112 144
-0.119204 -0.218045 1.142 85 107 139
-0.11743 -0.218045 1.142 82 104 136
-0.115656 -0.218045 1.142 74 96 128
-0.113883 -0.218045 1.142 81 103 135
-0.112109 -0.218045 1.142 88 110 142
-0.110336 -0.218045 1.142 87 110 139
-0.108657 -0.218236 1.143 86 109 138
-0.106882 -0.218236 1.143 89 110 139
-0.105107 -0.218236 1.143 87 108 137
-0.103422 -0.218427 1.144 90 112 139
-0.101646 -0.218427 1.144 99 121 148
-0.099869 -0.218427 1.144 105 127 154
-0.0981781 -0.218618 1.145 76 98 125
-0.0963998 -0.218618 1.145 67 89 116
-0.0946216 -0.218618 1.145 71 93 120
-0.0928434 -0.218618 1.145 89 111 138
-0.0911447 -0.218809 1.146 90 112 139
-0.0893649 -0.218809 1.146 90 111 140
-0.0876616 -0.218999 1.147 90 111 140
-0.0859551 -0.21919 1.148 91 112 141
-0.0842456 -0.219381 1.149 92 113 142
-0.0825329 -0.219572 1.15 96 113 146
-0.0808171 -0.219763 1.151 84 101 134
-0.0791669 -0.220145 1.153 71 90 118
-0.0756512 -0.220336 1.154 86 105 133
-0.073923 -0.220527 1.155 86 105 133
-0.0721917 -0.220718 1.156 86 105 133
-0.0705181 -0.2211 1.158 87 106 134
-0.0687197 -0.2211 1.158 87 107 132
-0.0669791 -0.221291 1.159 86 106 131
-0.0652354 -0.221482 1.16 84 102 127
-0.0634885 -0.221673 1.161 81 99 124
-0.0616855 -0.221673 1.161 75 95 115
-0.059934 -0.221863 1.162 63 83 103
-0.0581293 -0.221863 1.162 63 84 100
-0.0563732 -0.222054 1.163 49 70 86
-0.0546139 -0.222245 1.164 36 55 69
-0.0528062 -0.222245 1.164 26 45 59
-0.0510423 -0.222436 1.165 18 37 44
-0.0492753 -0.222627 1.166 13 32 39
-0.0474644 -0.222627 1.166 10 33 29
-0.0456927 -0.222818 1.167 6 29 25
-0.0438803 -0.222818 1.167 8 27 21
-0.042104 -0.223009 1.168 8 27 21
-0.0403246 -0.2232 1.169 13 31 16
-0.038542 -0.223391 1.17 15 33 18
-0.0367563 -0.223582 1.171 16 35 15
-0.0349676 -0.223773 1.172 14 33 13
-0.0331757 -0.223964 1.173 19 40 15
-0.0314074 -0.224346 1.175 20 41 16
-0.0296078 -0.224536 1.176 22 44 15
-0.0278287 -0.224918 1.178 22 44 15
-0.0259992 -0.224918 1.178 23 43 14
-0.0242108 -0.2253 1.18 23 43 14
-0.0223972 -0.225491 1.181 27 47 18
-0.020563 -0.225491 1.181 25 45 16
-0.0187447 -0.225682 1.182 27 47 18
-0.0169091 -0.225682 1.182 25 45 16
-0.0150861 -0.225873 1.183 27 47 18
-0.0132601 -0.226064 1.184 28 48 19
-0.0114213 -0.226064 1.184 28 48 19
-0.00958251 -0.226064 1.184 27 47 18
-0.00775025 -0.226255 1.185 27 47 18
-0.00590991 -0.226255 1.185 25 45 16
-0.00406956 -0.226255 1.185 27 47 18
-0.0022311 -0.226446 1.186 27 47 18
-0.0003892 -0.226446 1.186 27 47 18
0.00145392 -0.226637 1.187 28 48 19
0.00329737 -0.226637 1.187 29 49 20
0.00514083 -0.226637 1.187 28 48 19
0.00699016 -0.226828 1.188 30 51 19
0.00883517 -0.226828 1.188 27 48 16
0.0106802 -0.226828 1.188 27 48 16
0.0125252 -0.226828 1.188 25 46 14
0.0143823 -0.227019 1.189 25 46 14
0.0162288 -0.227019 1.189 24 45 13
0.0180754 -0.227019 1.189 24 45 13
0.0199219 -0.227019 1.189 27 48 16
0.0217685 -0.227019 1.189 27 48 16
0.0236151 -0.227019 1.189 28 49 17
0.0254616 -0.227019 1.189 28 49 17
0.0273082 -0.227019 1.189 27 48 16
0.0291547 -0.227019 1.189 27 48 16
0.0310013 -0.227019 1.189 27 48 16
0.0328202 -0.226828 1.188 27 48 16
0.0346652 -0.226828 1.188 27 48 16
0.0365102 -0.226828 1.188 27 48 16
0.0383552 -0.226828 1.188 27 48 16
0.0402341 -0.227019 1.189 20 42 8
0.0420806 -0.227019 1.189 21 43 9
0.0439272 -0.227019 1.189 27 49 15
0.0457738 -0.227019 1.189 28 50 16
0.0476203 -0.227019 1.189 31 53 19
0.0494669 -0.227019 1.189 30 52 18
0.0513134 -0.227019 1.189 25 47 13
0.05316 -0.227019 1.189 27 49 15
0.0550065 -0.227019 1.189 28 50 16
0.0568531 -0.227019 1.189 27 49 15
0.0586997 -0.227019 1.189 27 49 15
0.0604953 -0.226828 1.188 27 49 15
0.0622878 -0.226637 1.187 27 49 15
0.0641313 -0.226637 1.187 27 49 15
0.0659191 -0.226446 1.186 27 48 16
0.0677039 -0.226255 1.185 25 46 14
0.0694856 -0.226064 1.184 27 48 16
0.0712641 -0.225873 1.183 28 49 17
0.0730396 -0.225682 1.182 29 50 18
0.0748119 -0.225491 1.181 29 50 18
0.0765811 -0.2253 1.18 28 49 17
0.0784137 -0.2253 1.18 28 49 17
0.0802463 -0.2253 1.18 28 49 17
0.0820789 -0.2253 1.18 28 49 17
0.0839115 -0.2253 1.18 25 47 13
0.0858167 -0.225491 1.181 28 50 16
0.0877251 -0.225682 1.182 28 50 16
0.0896365 -0.225873 1.183 27 49 15
0.0916284 -0.226255 1.185 25 47 13
0.0935476 -0.226446 1.186 25 47 13
0.0954699 -0.226637 1.187 24 47 10
0.0974774 -0.227019 1.189 25 48 11
0.0994075 -0.22721 1.19 24 47 10
0.101426 -0.227591 1.192 25 48 11
0.103277 -0.227591 1.192 27 50 13
0.105216 -0.227782 1.193 28 51 14
0.107069 -0.227782 1.193 27 50 13
0.109013 -0.227973 1.194 28 51 14
0.110775 -0.227782 1.193 29 51 17
0.112533 -0.227591 1.192 28 50 16
0.114384 -0.227591 1.192 29 51 17
0.116138 -0.2274 1.191 28 50 16
0.117988 -0.2274 1.191 29 51 17
0.119737 -0.22721 1.19 28 50 16
0.121585 -0.22721 1.19 29 50 18
0.123433 -0.22721 1.19 29 50 18
0.125176 -0.227019 1.189 30 51 19
0.126915 -0.226828 1.188 30 51 19
0.12876 -0.226828 1.188 30 51 19
0.130605 -0.226828 1.188 28 49 17
0.132339 -0.226637 1.187 28 49 17
0.134182 -0.226637 1.187 28 49 17
0.136026 -0.226637 1.187 29 50 18
0.137869 -0.226637 1.187 29 50 18
0.139713 -0.226637 1.187 29 50 18
0.141556 -0.226637 1.187 28 49 17
0.14352 -0.226828 1.188 28 49 17
0.145365 -0.226828 1.188 28 49 17
0.147334 -0.227019 1.189 31 51 17
0.149306 -0.22721 1.19 31 51 17
0.151155 -0.22721 1.19 30 50 16
0.153003 -0.22721 1.19 31 51 17
0.154851 -0.22721 1.19 32 52 18
0.156831 -0.2274 1.191 31 51 17
0.158547 -0.22721 1.19 30 50 16
0.160395 -0.22721 1.19 31 51 17
0.16238 -0.2274 1.191 32 52 18
0.164091 -0.22721 1.19 31 51 17
0.165939 -0.22721 1.19 31 51 17
0.167788 -0.22721 1.19 32 52 18
0.169636 -0.22721 1.19 32 52 18
0.171484 -0.22721 1.19 33 53 19
0.173186 -0.227019 1.189 33 53 19
0.175033 -0.227019 1.189 33 53 19
0.176879 -0.227019 1.189 33 53 19
0.178726 -0.227019 1.189 34 54 20
0.180572 -0.227019 1.189 34 54 20
0.182419 -0.227019 1.189 34 54 20
0.184266 -0.227019 1.189 33 53 19
0.186112 -0.227019 1.189 33 53 19
0.187959 -0.227019 1.189 36 56 22
0.189805 -0.227019 1.189 34 54 20
0.191813 -0.22721 1.19 34 54 20
0.193661 -0.22721 1.19 34 54 20
0.195509 -0.22721 1.19 34 54 20
0.197357 -0.22721 1.19 33 53 19
0.199205 -0.22721 1.19 33 52 20
0.201054 -0.22721 1.19 36 55 23
0.202902 -0.22721 1.19 37 56 24
0.20475 -0.22721 1.19 36 55 23
0.206598 -0.22721 1.19 34 53 21
0.208446 -0.22721 1.19 32 51 19
0.210294 -0.22721 1.19 36 55 23
0.211786 -0.226828 1.188 34 53 21
0.213451 -0.226637 1.187 33 52 20
0.215294 -0.226637 1.187 33 52 20
0.217138 -0.226637 1.187 32 51 19
0.218981 -0.226637 1.187 33 52 20
0.220825 -0.226637 1.187 33 52 20
0.222668 -0.226637 1.187 31 50 18
0.224512 -0.226637 1.187 30 49 17
0.226355 -0.226637 1.187 30 49 17
0.228391 -0.226828 1.188 29 48 16
0.23043 -0.227019 1.189 29 48 16
0.232276 -0.227019 1.189 29 48 16
0.234123 -0.227019 1.189 27 46 14
0.235969 -0.227019 1.189 25 44 12
0.237816 -0.227019 1.189 24 43 11
0.239864 -0.22721 1.19 23 42 10
0.241712 -0.22721 1.19 23 42 10
0.24356 -0.22721 1.19 23 42 10
0.245408 -0.22721 1.19 22 41 9
0.247049 -0.227019 1.189 22 40 11
0.248686 -0.226828 1.188 19 37 8
0.25032 -0.226637 1.187 17 35 8
0.252163 -0.226637 1.187 16 34 7
0.254007 -0.226637 1.187 17 34 9
0.25585 -0.226637 1.187 16 33 8
0.257694 -0.226637 1.187 15 34 9
0.259537 -0.226637 1.187 15 34 9
0.261381 -0.226637 1.187 15 34 9
0.263224 -0.226637 1.187 14 33 8
0.265067 -0.226637 1.187 13 32 7
0.266911 -0.226637 1.187 13 32 7
0.268754 -0.226637 1.187 17 34 9
0.270598 -0.226637 1.187 17 34 9
0.272441 -0.226637 1.187 17 34 9
0.274285 -0.226637 1.187 16 33 8
0.276361 -0.226828 1.188 15 32 7
0.278206 -0.226828 1.188 15 32 7
0.280287 -0.227019 1.189 15 31 9
0.282133 -0.227019 1.189 16 32 10
0.28398 -0.227019 1.189 15 30 10
0.285826 -0.227019 1.189 16 31 11
0.287673 -0.227019 1.189 17 32 12
0.289519 -0.227019 1.189 17 32 12
0.291366 -0.227019 1.189 18 33 13
0.292719 -0.226637 1.187 18 33 13
0.294563 -0.226637 1.187 18 33 13
0.296406 -0.226637 1.187 18 33 13
0.29825 -0.226637 1.187 18 33 13
0.300093 -0.226637 1.187 17 32 12
0.301937 -0.226637 1.187 18 33 13
0.30378 -0.226637 1.187 16 31 11
0.305623 -0.226637 1.187 16 31 11
0.309571 -0.226828 1.188 16 31 11
0.311416 -0.226828 1.188 16 31 11
0.313261 -0.226828 1.188 16 31 11
0.315106 -0.226828 1.188 17 32 12
0.316951 -0.226828 1.188 19 34 14
0.318796 -0.226828 1.188 18 33 13
0.320371 -0.226637 1.187 18 33 13
0.322486 -0.226828 1.188 19 34 14
0.324331 -0.226828 1.188 22 37 17
0.326176 -0.226828 1.188 22 37 17
0.328021 -0.226828 1.188 18 33 13
0.329866 -0.226828 1.188 18 33 13
0.331711 -0.226828 1.188 17 32 12
0.333837 -0.227019 1.189 18 33 13
0.335683 -0.227019 1.189 19 34 14
0.33753 -0.227019 1.189 20 35 15
0.339376 -0.227019 1.189 22 37 17
0.341223 -0.227019 1.189 22 37 17
0.34307 -0.227019 1.189 22 37 17
0.344916 -0.227019 1.189 19 34 14
0.346763 -0.227019 1.189 20 35 15
0.348316 -0.226828 1.188 18 33 13
0.349866 -0.226637 1.187 18 35 15
0.351413 -0.226446 1.186 18 35 15
0.352957 -0.226255 1.185 18 35 15
0.354199 -0.225873 1.183 21 38 18
0.355434 -0.225491 1.181 18 35 15
0.356966 -0.2253 1.18 20 37 17
0.35819 -0.224918 1.178 21 37 20
0.359409 -0.224536 1.176 15 31 14
0.360928 -0.224346 1.175 35 50 37
0.362135 -0.223964 1.173 39 54 41
0.363336 -0.223582 1.171 6 19 11
0.364531 -0.2232 1.169 7 20 12
0.366033 -0.223009 1.168 7 18 16
0.366902 -0.222436 1.165 6 17 15
0.364597 -0.219954 1.152 40 51 55
0.364478 -0.218809 1.146 83 94 98
0.364505 -0.216708 1.135 79 89 96
0.364654 -0.215754 1.13 83 93 100
0.365436 -0.215181 1.127 73 83 90
-0.163358 -0.220814 1.166 6 14 7
-0.161409 -0.220625 1.165 6 14 7
-0.159325 -0.220246 1.163 7 15 8
-0.157248 -0.219867 1.161 3 11 4
-0.155044 -0.219299 1.158 0 0 7
-0.15298 -0.21892 1.156 4 10 17
-0.150793 -0.218352 1.153 94 107 126
-0.148614 -0.217784 1.15 106 119 138
-0.146062 -0.216648 1.144 90 108 138
-0.144034 -0.216269 1.142 86 104 134
-0.14226 -0.216269 1.142 88 109 145
-0.140363 -0.21608 1.141 94 115 151
-0.13847 -0.21589 1.14 94 115 151
-0.136699 -0.21589 1.14 80 101 137
-0.134929 -0.21589 1.14 73 94 130
-0.133159 -0.21589 1.14 83 104 140
-0.131503 -0.21608 1.141 93 114 150
-0.129731 -0.21608 1.141 92 113 149
-0.127959 -0.21608 1.141 81 102 138
-0.126187 -0.21608 1.141 76 97 133
-0.124306 -0.21589 1.14 82 104 138
-0.122536 -0.21589 1.14 83 105 139
-0.120765 -0.21589 1.14 87 109 141
-0.118995 -0.21589 1.14 86 108 140
-0.117224 -0.21589 1.14 85 107 139
-0.115454 -0.21589 1.14 78 100 132
-0.113683 -0.21589 1.14 79 101 133
-0.111913 -0.21589 1.14 81 103 135
-0.110143 -0.21589 1.14 87 109 141
-0.108372 -0.21589 1.14 87 109 141
-0.106695 -0.21608 1.141 87 109 141
-0.104923 -0.21608 1.141 85 107 139
-0.103151 -0.21608 1.141 87 109 136
-0.101379 -0.21608 1.141 102 124 151
-0.0996944 -0.216269 1.142 108 131 160
-0.0979208 -0.216269 1.142 76 99 128
-0.0961473 -0.216269 1.142 67 89 116
-0.0943737 -0.216269 1.142 70 92 119
-0.0926001 -0.216269 1.142 86 109 138
-0.0908266 -0.216269 1.142 89 112 141
-0.089053 -0.216269 1.142 89 111 143
-0.0872794 -0.216269 1.142 88 110 142
-0.0856556 -0.216648 1.144 82 104 136
-0.0839523 -0.216837 1.145 86 108 140
-0.082174 -0.216837 1.145 85 105 139
-0.0803958 -0.216837 1.145 67 87 121
-0.0787549 -0.217216 1.147 60 80 112
-0.0770407 -0.217405 1.148 77 97 129
-0.0753234 -0.217595 1.149 82 99 132
-0.0736669 -0.217974 1.151 82 99 132
-0.0718794 -0.217974 1.151 81 102 131
-0.0701528 -0.218163 1.152 83 104 133
-0.068423 -0.218352 1.153 85 106 135
-0.0666901 -0.218542 1.154 89 110 139
-0.0648979 -0.218542 1.154 89 111 138
-0.0631057 -0.218542 1.154 89 111 138
-0.0596245 -0.21892 1.156 81 104 128
-0.0578292 -0.21892 1.156 81 105 127
-0.0560824 -0.21911 1.157 82 106 128
-0.0543324 -0.219299 1.158 81 106 125
-0.052534 -0.219299 1.158 80 105 124
-0.0508232 -0.219678 1.16 78 101 117
-0.0490217 -0.219678 1.16 69 92 108
-0.0473016 -0.220057 1.162 60 84 92
-0.045497 -0.220057 1.162 53 77 85
-0.0436923 -0.220057 1.162 45 64 71
-0.0419598 -0.220435 1.164 22 41 48
-0.0401866 -0.220625 1.165 16 35 29
-0.0366308 -0.221004 1.167 7 26 15
-0.0348781 -0.221382 1.169 10 29 18
-0.0330908 -0.221572 1.17 13 34 9
-0.0313273 -0.22195 1.172 21 42 17
-0.0295323 -0.22214 1.173 21 43 14
-0.0277578 -0.222519 1.175 22 44 15
-0.0259771 -0.222897 1.177 24 44 15
-0.0241697 -0.223087 1.178 24 44 15
-0.0223782 -0.223465 1.18 24 44 15
-0.020563 -0.223655 1.181 24 44 15
-0.0187447 -0.223844 1.182 27 47 18
-0.0169091 -0.223844 1.182 29 49 20
-0.0150861 -0.224034 1.183 29 49 20
-0.0132489 -0.224034 1.183 29 49 20
-0.0114213 -0.224223 1.184 28 48 19
-0.00958251 -0.224223 1.184 25 45 16
-0.00775025 -0.224412 1.185 27 47 18
-0.00590991 -0.224412 1.185 25 45 16
-0.00406956 -0.224412 1.185 27 47 18
-0.0022311 -0.224602 1.186 27 47 18
-0.0003892 -0.224602 1.186 27 47 18
0.00145392 -0.224791 1.187 29 49 20
0.00329737 -0.224791 1.187 29 49 20
0.00514083 -0.224791 1.187 28 48 19
0.00698428 -0.224791 1.187 30 51 19
0.00882773 -0.224791 1.187 28 49 17
0.0106712 -0.224791 1.187 27 48 16
0.0125146 -0.224791 1.187 27 48 16
0.0143581 -0.224791 1.187 27 49 15
0.0162152 -0.22498 1.188 36 58 24
0.0180602 -0.22498 1.188 36 58 24
0.0199052 -0.22498 1.188 31 53 19
0.0217502 -0.22498 1.188 27 49 15
0.0235952 -0.22498 1.188 28 50 16
0.0254402 -0.22498 1.188 29 51 17
0.0272852 -0.22498 1.188 29 51 17
0.0291302 -0.22498 1.188 28 50 16
0.0309491 -0.224791 1.187 28 50 16
0.0327926 -0.224791 1.187 27 49 15
0.034636 -0.224791 1.187 27 49 15
0.0364795 -0.224791 1.187 27 49 15
0.038323 -0.224791 1.187 25 47 13
0.0401664 -0.224791 1.187 24 46 12
0.0420099 -0.224791 1.187 23 45 11
0.0438533 -0.224791 1.187 27 47 13
0.0457353 -0.22498 1.188 27 47 13
0.0475803 -0.22498 1.188 28 50 16
0.0494253 -0.22498 1.188 29 51 17
0.0512703 -0.22498 1.188 27 49 15
0.0531153 -0.22498 1.188 25 47 13
0.0549603 -0.22498 1.188 27 49 15
0.0568053 -0.22498 1.188 27 49 15
0.0586009 -0.224791 1.187 27 49 15
0.0604444 -0.224791 1.187 27 49 15
0.0622878 -0.224791 1.187 27 49 15
0.0640772 -0.224602 1.186 27 49 15
0.0658636 -0.224412 1.185 27 48 16
0.0677039 -0.224412 1.185 25 46 14
0.0694269 -0.224034 1.183 27 48 16
0.0712039 -0.223844 1.182 28 49 17
0.0729778 -0.223655 1.181 28 49 17
0.0747486 -0.223465 1.18 27 48 16
0.0765811 -0.223465 1.18 28 49 17
0.0784137 -0.223465 1.18 28 49 17
0.0802463 -0.223465 1.18 29 50 18
0.0820789 -0.223465 1.18 30 51 19
0.0839115 -0.223465 1.18 29 50 18
0.0858167 -0.223655 1.181 28 49 17
0.0877251 -0.223844 1.182 28 50 16
0.0896365 -0.224034 1.183 28 50 16
0.0916284 -0.224412 1.185 27 49 15
0.0935476 -0.224602 1.186 27 49 15
0.0954699 -0.224791 1.187 25 48 11
0.0974774 -0.22517 1.189 27 50 13
0.0994075 -0.225359 1.19 25 48 11
0.101341 -0.225549 1.191 25 48 11
0.103277 -0.225738 1.192 27 50 13
0.105216 -0.225927 1.193 28 51 14
0.107069 -0.225927 1.193 28 51 14
0.108922 -0.225927 1.193 27 50 13
0.110682 -0.225738 1.192 27 49 15
0.112533 -0.225738 1.192 27 49 15
0.114384 -0.225738 1.192 28 50 16
0.116235 -0.225738 1.192 28 50 16
0.117988 -0.225549 1.191 28 50 16
0.119737 -0.225359 1.19 27 49 15
0.121585 -0.225359 1.19 29 51 17
0.123433 -0.225359 1.19 29 51 17
0.125281 -0.225359 1.19 30 52 18
0.127022 -0.22517 1.189 31 53 19
0.12876 -0.22498 1.188 29 51 17
0.130605 -0.22498 1.188 28 50 16
0.13245 -0.22498 1.188 28 50 16
0.134295 -0.22498 1.188 28 50 16
0.13614 -0.22498 1.188 29 51 17
0.137985 -0.22498 1.188 30 52 18
0.13983 -0.22498 1.188 30 52 18
0.141675 -0.22498 1.188 30 52 18
0.14352 -0.22498 1.188 28 50 16
0.145488 -0.22517 1.189 28 50 16
0.147458 -0.225359 1.19 32 52 18
0.149306 -0.225359 1.19 31 51 17
0.151282 -0.225549 1.191 31 51 17
0.15326 -0.225738 1.192 31 51 17
0.155111 -0.225738 1.192 32 52 18
0.156962 -0.225738 1.192 30 50 16
0.158813 -0.225738 1.192 30 50 16
0.160665 -0.225738 1.192 31 51 17
0.16238 -0.225549 1.191 32 52 18
0.164229 -0.225549 1.191 31 51 17
0.165939 -0.225359 1.19 33 53 19
0.167788 -0.225359 1.19 34 54 20
0.169636 -0.225359 1.19 34 54 20
0.171484 -0.225359 1.19 33 53 19
0.173186 -0.22517 1.189 33 53 19
0.175033 -0.22517 1.189 33 53 19
0.176879 -0.22517 1.189 34 54 20
0.178726 -0.22517 1.189 34 54 20
0.180572 -0.22517 1.189 34 54 20
0.182419 -0.22517 1.189 33 53 19
0.184266 -0.22517 1.189 33 53 19
0.186112 -0.22517 1.189 33 53 19
0.187959 -0.22517 1.189 36 56 22
0.189805 -0.22517 1.189 34 54 20
0.191652 -0.22517 1.189 34 54 20
0.193498 -0.22517 1.189 33 53 19
0.195509 -0.225359 1.19 33 52 20
0.197357 -0.225359 1.19 34 53 21
0.199205 -0.225359 1.19 34 53 21
0.201054 -0.225359 1.19 36 55 23
0.202902 -0.225359 1.19 37 56 24
0.20475 -0.225359 1.19 34 53 21
0.206424 -0.22517 1.189 34 53 21
0.208271 -0.22517 1.189 32 51 19
0.209941 -0.22498 1.188 36 55 23
0.211607 -0.224791 1.187 34 53 21
0.213271 -0.224602 1.186 33 52 20
0.215113 -0.224602 1.186 32 51 19
0.216955 -0.224602 1.186 31 50 18
0.218797 -0.224602 1.186 33 52 20
0.220639 -0.224602 1.186 32 51 19
0.222668 -0.224791 1.187 31 50 18
0.224512 -0.224791 1.187 30 49 17
0.226355 -0.224791 1.187 30 49 17
0.228198 -0.224791 1.187 30 49 17
0.230236 -0.22498 1.188 31 50 18
0.232276 -0.22517 1.189 30 49 17
0.234123 -0.22517 1.189 33 52 20
0.235969 -0.22517 1.189 25 44 12
0.237816 -0.22517 1.189 24 43 11
0.239864 -0.225359 1.19 23 42 10
0.241712 -0.225359 1.19 23 42 10
0.24356 -0.225359 1.19 23 42 10
0.245202 -0.22517 1.189 22 41 9
0.247049 -0.22517 1.189 22 40 11
0.248686 -0.22498 1.188 22 40 11
0.25032 -0.224791 1.187 16 34 7
0.252163 -0.224791 1.187 17 35 8
0.254007 -0.224791 1.187 18 35 10
0.255635 -0.224602 1.186 18 35 10
0.257477 -0.224602 1.186 17 34 9
0.259318 -0.224602 1.186 18 35 10
0.261381 -0.224791 1.187 18 35 10
0.263224 -0.224791 1.187 17 34 9
0.265067 -0.224791 1.187 15 32 7
0.266911 -0.224791 1.187 13 30 5
0.268754 -0.224791 1.187 17 34 9
0.270598 -0.224791 1.187 17 34 9
0.272441 -0.224791 1.187 16 33 8
0.274285 -0.224791 1.187 16 33 8
0.276361 -0.22498 1.188 16 33 8
0.27844 -0.22517 1.189 17 34 9
0.280287 -0.22517 1.189 16 32 10
0.282133 -0.22517 1.189 16 32 10
0.284219 -0.225359 1.19 15 30 10
0.286067 -0.225359 1.19 13 28 8
0.287915 -0.225359 1.19 15 30 10
0.289519 -0.22517 1.189 15 30 10
0.291366 -0.22517 1.189 16 31 11
0.292966 -0.22498 1.188 16 31 11
0.294563 -0.224791 1.187 17 32 12
0.296406 -0.224791 1.187 17 32 12
0.29825 -0.224791 1.187 18 33 13
0.300093 -0.224791 1.187 16 31 11
0.301937 -0.224791 1.187 18 33 13
0.30378 -0.224791 1.187 17 32 12
0.305623 -0.224791 1.187 17 32 12
0.309571 -0.22498 1.188 17 32 12
0.311416 -0.22498 1.188 17 32 12
0.313261 -0.22498 1.188 17 32 12
0.314841 -0.224791 1.187 17 32 12
0.316684 -0.224791 1.187 17 32 12
0.318528 -0.224791 1.187 18 33 13
0.320371 -0.224791 1.187 18 33 13
0.322214 -0.224791 1.187 19 34 14
0.324058 -0.224791 1.187 20 35 15
0.325901 -0.224791 1.187 22 37 17
0.327745 -0.224791 1.187 19 34 14
0.329588 -0.224791 1.187 18 33 13
0.331432 -0.224791 1.187 18 33 13
0.333275 -0.224791 1.187 23 38 18
0.335119 -0.224791 1.187 20 35 15
0.336962 -0.224791 1.187 20 35 15
0.338806 -0.224791 1.187 20 35 15
0.340649 -0.224791 1.187 20 35 15
0.342492 -0.224791 1.187 20 35 15
0.344626 -0.22498 1.188 20 35 15
0.346179 -0.224791 1.187 18 35 15
0.348023 -0.224791 1.187 15 32 12
0.349866 -0.224791 1.187 20 37 17
0.351117 -0.224412 1.185 18 35 15
0.35266 -0.224223 1.184 20 37 17
0.3539 -0.223844 1.182 21 38 18
0.355434 -0.223655 1.181 18 35 15
0.356966 -0.223465 1.18 18 35 15
0.35819 -0.223087 1.178 18 34 17
0.359409 -0.222708 1.176 16 32 15
0.360928 -0.222519 1.175 34 50 35
0.362135 -0.22214 1.173 39 55 40
0.363336 -0.221761 1.171 8 20 10
0.364531 -0.221382 1.169 8 20 10
0.366033 -0.221193 1.168 9 18 16
0.366588 -0.220435 1.164 8 17 15
0.364597 -0.218163 1.152 37 49 51
0.364478 -0.217027 1.146 83 95 97
0.36434 -0.21589 1.14 83 93 100
0.364505 -0.214943 1.135 76 86 93
0.364977 -0.214186 1.131 84 94 101
0.365436 -0.213428 1.127 73 83 90
-0.163218 -0.218813 1.165 6 14 7
-0.16127 -0.218626 1.164 7 15 8
-0.159188 -0.21825 1.162 7 14 10
-0.157113 -0.217874 1.16 1 8 4
-0.155044 -0.217499 1.158 0 0 9
-0.152848 -0.216935 1.155 10 15 24
-0.150531 -0.216184 1.151 106 119 138
-0.147968 -0.215057 1.145 115 128 147
-0.145935 -0.214681 1.143 104 122 152
-0.143907 -0.214306 1.141 99 117 147
-0.142011 -0.214118 1.14 85 107 141
-0.14024 -0.214118 1.14 92 114 148
-0.13847 -0.214118 1.14 90 112 146
-0.136699 -0.214118 1.14 79 101 135
-0.134929 -0.214118 1.14 76 98 132
-0.133159 -0.214118 1.14 83 105 139
-0.131388 -0.214118 1.14 94 116 150
-0.129618 -0.214118 1.14 89 111 145
-0.127847 -0.214118 1.14 76 98 132
-0.126077 -0.214118 1.14 79 101 135
-0.124306 -0.214118 1.14 88 110 144
-0.122536 -0.214118 1.14 88 110 144
-0.120659 -0.21393 1.139 90 112 146
-0.11889 -0.21393 1.139 92 114 148
-0.117122 -0.21393 1.139 93 115 149
-0.115353 -0.21393 1.139 97 119 153
-0.113584 -0.21393 1.139 100 122 156
-0.111815 -0.21393 1.139 99 121 155
-0.110046 -0.21393 1.139 96 118 150
-0.108372 -0.214118 1.14 90 112 144
-0.106602 -0.214118 1.14 82 104 136
-0.104831 -0.214118 1.14 81 103 135
-0.103061 -0.214118 1.14 88 112 139
-0.10129 -0.214118 1.14 108 132 159
-0.0996071 -0.214306 1.141 115 138 167
-0.0978351 -0.214306 1.141 80 103 132
-0.0960631 -0.214306 1.141 70 92 119
-0.0942911 -0.214306 1.141 88 110 137
-0.092438 -0.214118 1.14 89 111 143
-0.0906675 -0.214118 1.14 88 110 142
-0.088897 -0.214118 1.14 87 109 141
-0.087203 -0.214306 1.141 76 98 130
-0.085431 -0.214306 1.141 69 91 125
-0.0837323 -0.214493 1.142 80 102 136
-0.0819587 -0.214493 1.142 85 105 139
-0.0801852 -0.214493 1.142 66 86 120
-0.0784803 -0.214681 1.143 61 81 113
-0.0767723 -0.214869 1.144 75 95 127
-0.0749956 -0.214869 1.144 83 103 135
-0.0732829 -0.215057 1.145 81 101 133
-0.0715672 -0.215245 1.146 81 101 133
-0.0697874 -0.215245 1.146 84 104 136
-0.0680076 -0.215245 1.146 84 104 136
-0.0662278 -0.215245 1.146 84 104 136
-0.0645043 -0.215433 1.147 84 105 134
-0.062723 -0.215433 1.147 84 105 134
-0.0610479 -0.215808 1.149 84 106 133
-0.059315 -0.215996 1.15 84 106 133
-0.0575791 -0.216184 1.151 82 105 129
-0.0557915 -0.216184 1.151 82 105 129
-0.0540978 -0.216559 1.153 83 106 130
-0.0523525 -0.216747 1.154 83 106 130
-0.050648 -0.217123 1.156 83 108 127
-0.0488949 -0.217311 1.157 83 108 127
-0.0453403 -0.217499 1.158 89 112 128
-0.0435419 -0.217499 1.158 98 120 133
-0.0418156 -0.217874 1.16 50 72 85
-0.0400486 -0.218062 1.161 42 60 65
-0.0382785 -0.21825 1.162 59 77 82
-0.0365366 -0.218626 1.164 29 47 52
-0.0347886 -0.219001 1.166 14 32 37
-0.033006 -0.219189 1.167 12 30 13
-0.0312471 -0.219565 1.169 16 34 17
-0.0294819 -0.21994 1.171 20 42 15
-0.0277342 -0.220504 1.174 21 43 16
-0.025933 -0.220692 1.175 24 44 15
-0.0241697 -0.221255 1.178 24 44 15
-0.0223782 -0.221631 1.18 24 44 15
-0.0205456 -0.221631 1.18 24 44 15
-0.0187289 -0.221819 1.181 24 44 15
-0.0169091 -0.222006 1.182 25 45 16
-0.0150734 -0.222006 1.182 27 47 18
-0.0132489 -0.222194 1.183 27 47 18
-0.0114213 -0.222382 1.184 30 48 19
-0.00958251 -0.222382 1.184 29 47 18
-0.00775025 -0.22257 1.185 30 50 21
-0.00590991 -0.22257 1.185 25 45 16
-0.004073 -0.222758 1.186 27 47 18
-0.0022311 -0.222758 1.186 27 47 18
-0.0003892 -0.222758 1.186 27 47 18
0.00145392 -0.222945 1.187 27 47 18
0.00329737 -0.222945 1.187 28 48 19
0.00514083 -0.222945 1.187 28 48 19
0.00698428 -0.222945 1.187 30 51 19
0.00882773 -0.222945 1.187 28 49 17
0.0106712 -0.222945 1.187 27 48 16
0.0125146 -0.222945 1.187 28 49 17
0.0143581 -0.222945 1.187 28 49 17
0.0162015 -0.222945 1.187 36 57 25
0.018045 -0.222945 1.187 38 59 27
0.0198884 -0.222945 1.187 36 57 25
0.0217319 -0.222945 1.187 27 48 16
0.0235753 -0.222945 1.187 29 50 18
0.0254188 -0.222945 1.187 30 51 19
0.0272622 -0.222945 1.187 29 50 18
0.0291057 -0.222945 1.187 30 49 17
0.0309491 -0.222945 1.187 30 49 17
0.0327926 -0.222945 1.187 29 49 15
0.034636 -0.222945 1.187 29 49 15
0.0364795 -0.222945 1.187 30 50 16
0.038323 -0.222945 1.187 29 49 15
0.0401664 -0.222945 1.187 26 46 12
0.0420099 -0.222945 1.187 27 47 13
0.0438533 -0.222945 1.187 30 51 14
0.0456968 -0.222945 1.187 29 50 13
0.0475402 -0.222945 1.187 27 50 13
0.0493837 -0.222945 1.187 28 51 14
0.0512271 -0.222945 1.187 28 51 14
0.0530706 -0.222945 1.187 28 51 14
0.054914 -0.222945 1.187 29 52 15
0.0567575 -0.222945 1.187 29 52 15
0.0586009 -0.222945 1.187 28 50 16
0.0603934 -0.222758 1.186 27 49 15
0.0622353 -0.222758 1.186 27 49 15
0.0640232 -0.22257 1.185 25 47 13
0.0658636 -0.22257 1.185 25 46 14
0.0676468 -0.222382 1.184 27 48 16
0.0694269 -0.222194 1.183 25 46 14
0.0712039 -0.222006 1.182 28 49 17
0.0729778 -0.221819 1.181 27 48 16
0.0748119 -0.221819 1.181 27 48 16
0.0765811 -0.221631 1.18 29 50 18
0.0784137 -0.221631 1.18 29 50 18
0.0802463 -0.221631 1.18 30 51 19
0.0820789 -0.221631 1.18 30 51 19
0.0839826 -0.221819 1.181 30 51 19
0.0858894 -0.222006 1.182 28 49 17
0.0877251 -0.222006 1.182 28 50 16
0.0896365 -0.222194 1.183 28 50 16
0.0915511 -0.222382 1.184 28 50 16
0.0934687 -0.22257 1.185 28 50 16
0.0954699 -0.222945 1.187 27 49 15
0.0973954 -0.223133 1.188 27 49 15
0.0994075 -0.223509 1.19 25 47 13
0.101341 -0.223697 1.191 27 49 15
0.103277 -0.223885 1.192 28 50 16
0.105128 -0.223885 1.192 28 50 16
0.106979 -0.223885 1.192 28 50 16
0.108831 -0.223885 1.192 28 50 16
0.110682 -0.223885 1.192 28 50 16
0.112533 -0.223885 1.192 29 51 17
0.114384 -0.223885 1.192 29 51 17
0.116235 -0.223885 1.192 28 50 16
0.117988 -0.223697 1.191 28 50 16
0.119737 -0.223509 1.19 28 50 16
0.121585 -0.223509 1.19 29 51 17
0.123433 -0.223509 1.19 29 51 17
0.125281 -0.223509 1.19 28 50 16
0.127129 -0.223509 1.19 29 51 17
0.128869 -0.223321 1.189 28 50 16
0.130715 -0.223321 1.189 29 51 17
0.13245 -0.223133 1.188 29 51 17
0.134295 -0.223133 1.188 28 50 16
0.136255 -0.223321 1.189 28 50 16
0.138102 -0.223321 1.189 29 51 17
0.139948 -0.223321 1.189 29 51 17
0.141795 -0.223321 1.189 29 51 17
0.143762 -0.223509 1.19 30 50 16
0.14561 -0.223509 1.19 30 50 16
0.147458 -0.223509 1.19 32 52 18
0.149432 -0.223697 1.191 32 52 18
0.151282 -0.223697 1.191 32 52 18
0.15326 -0.223885 1.192 32 52 18
0.155111 -0.223885 1.192 32 52 18
0.156962 -0.223885 1.192 31 51 17
0.158813 -0.223885 1.192 30 50 16
0.160665 -0.223885 1.192 32 52 18
0.162516 -0.223885 1.192 33 53 19
0.164367 -0.223885 1.192 33 53 19
0.166079 -0.223697 1.191 34 54 20
0.167788 -0.223509 1.19 36 56 22
0.169636 -0.223509 1.19 34 54 20
0.171484 -0.223509 1.19 33 53 19
0.173186 -0.223321 1.189 33 53 19
0.175033 -0.223321 1.189 34 54 20
0.176879 -0.223321 1.189 38 58 24
0.178576 -0.223133 1.188 34 54 20
0.180572 -0.223321 1.189 34 54 20
0.182266 -0.223133 1.188 33 53 19
0.184111 -0.223133 1.188 34 54 20
0.186112 -0.223321 1.189 34 54 20
0.187959 -0.223321 1.189 36 56 22
0.189805 -0.223321 1.189 34 54 20
0.191652 -0.223321 1.189 34 54 20
0.193498 -0.223321 1.189 33 53 19
0.195509 -0.223509 1.19 33 52 20
0.197357 -0.223509 1.19 33 52 20
0.199205 -0.223509 1.19 33 52 20
0.201054 -0.223509 1.19 34 53 21
0.202902 -0.223509 1.19 37 56 24
0.204578 -0.223321 1.189 34 53 21
0.206424 -0.223321 1.189 33 52 20
0.208096 -0.223133 1.188 33 52 20
0.209764 -0.222945 1.187 36 55 23
0.211607 -0.222945 1.187 33 52 20
0.213091 -0.22257 1.185 32 51 19
0.214932 -0.22257 1.185 32 51 19
0.216772 -0.22257 1.185 31 50 18
0.218612 -0.22257 1.185 32 51 19
0.220453 -0.22257 1.185 31 50 18
0.222293 -0.22257 1.185 31 50 18
0.224322 -0.222758 1.186 31 50 18
0.226164 -0.222758 1.186 31 50 18
0.228198 -0.222945 1.187 31 50 18
0.230042 -0.222945 1.187 30 49 17
0.232081 -0.223133 1.188 26 45 13
0.234123 -0.223321 1.189 27 46 14
0.235969 -0.223321 1.189 25 44 12
0.237816 -0.223321 1.189 24 43 11
0.239662 -0.223321 1.189 24 43 11
0.241712 -0.223509 1.19 24 43 11
0.243355 -0.223321 1.189 24 42 13
0.245202 -0.223321 1.189 23 41 12
0.247049 -0.223321 1.189 23 41 12
0.248686 -0.223133 1.188 19 37 8
0.25032 -0.222945 1.187 16 34 7
0.252163 -0.222945 1.187 17 35 8
0.254007 -0.222945 1.187 18 35 10
0.255635 -0.222758 1.186 18 35 10
0.257477 -0.222758 1.186 16 33 8
0.259318 -0.222758 1.186 15 32 7
0.26116 -0.222758 1.186 13 30 5
0.263224 -0.222945 1.187 13 30 5
0.265067 -0.222945 1.187 13 30 5
0.266911 -0.222945 1.187 15 32 7
0.268754 -0.222945 1.187 17 34 9
0.270598 -0.222945 1.187 18 35 10
0.272441 -0.222945 1.187 16 33 8
0.274285 -0.222945 1.187 16 33 8
0.276361 -0.223133 1.188 17 34 9
0.27844 -0.223321 1.189 17 34 9
0.280287 -0.223321 1.189 17 33 11
0.28237 -0.223509 1.19 16 32 10
0.284219 -0.223509 1.19 13 28 8
0.286067 -0.223509 1.19 13 28 8
0.287915 -0.223509 1.19 13 28 8
0.289763 -0.223509 1.19 16 31 11
0.291366 -0.223321 1.189 17 32 12
0.292966 -0.223133 1.188 17 32 12
0.294563 -0.222945 1.187 16 31 11
0.296406 -0.222945 1.187 18 33 13
0.29825 -0.222945 1.187 18 33 13
0.300093 -0.222945 1.187 17 32 12
0.301937 -0.222945 1.187 17 32 12
0.30378 -0.222945 1.187 17 32 12
0.305623 -0.222945 1.187 17 32 12
0.307467 -0.222945 1.187 17 32 12
0.30931 -0.222945 1.187 18 33 13
0.311416 -0.223133 1.188 18 33 13
0.312997 -0.222945 1.187 17 32 12
0.314841 -0.222945 1.187 17 32 12
0.316684 -0.222945 1.187 17 32 12
0.318259 -0.222758 1.186 17 32 12
0.320371 -0.222945 1.187 17 32 12
0.322214 -0.222945 1.187 18 33 13
0.323785 -0.222758 1.186 18 33 13
0.325627 -0.222758 1.186 20 35 15
0.327193 -0.22257 1.185 20 35 15
0.329033 -0.22257 1.185 20 35 15
0.331153 -0.222758 1.186 23 38 18
0.332994 -0.222758 1.186 23 38 18
0.334836 -0.222758 1.186 24 39 19
0.336678 -0.222758 1.186 19 34 14
0.33852 -0.222758 1.186 20 35 15
0.340649 -0.222945 1.187 20 35 15
0.342492 -0.222945 1.187 22 37 17
0.344336 -0.222945 1.187 20 35 15
0.346179 -0.222945 1.187 20 37 17
0.348023 -0.222945 1.187 16 33 13
0.349571 -0.222758 1.186 20 37 17
0.351117 -0.22257 1.185 20 37 17
0.35266 -0.222382 1.184 20 37 17
0.3539 -0.222006 1.182 20 37 17
0.355434 -0.221819 1.181 17 34 14
0.356966 -0.221631 1.18 18 35 15
0.35819 -0.221255 1.178 16 32 15
0.359714 -0.221067 1.177 13 29 12
0.360928 -0.220692 1.175 32 48 33
0.362135 -0.220316 1.173 36 52 37
0.363336 -0.21994 1.171 10 22 12
0.364531 -0.219565 1.169 9 21 11
0.366033 -0.219377 1.168 4 16 11
0.366588 -0.218626 1.164 7 19 14
0.364281 -0.216184 1.151 36 48 50
0.36416 -0.215057 1.145 84 96 98
0.36434 -0.214118 1.14 84 95 99
0.364184 -0.212991 1.134 83 94 98
0.364654 -0.21224 1.13 85 95 102
0.365436 -0.211676 1.127 75 85 92
-0.163078 -0.216816 1.164 4 12 5
-0.161132 -0.216629 1.163 4 12 5
-0.159051 -0.216257 1.161 6 13 9
-0.156977 -0.215884 1.159 0 7 3
-0.154776 -0.215326 1.156 0 0 11
-0.152716 -0.214953 1.154 15 20 31
-0.150531 -0.214394 1.151 104 119 140
-0.147968 -0.213277 1.145 121 136 157
-0.145807 -0.212718 1.142 108 128 160
-0.143907 -0.212531 1.141 105 125 157
-0.142011 -0.212345 1.14 97 121 155
-0.14024 -0.212345 1.14 90 114 148
-0.13847 -0.212345 1.14 84 108 142
-0.13658 -0.212159 1.139 78 102 136
-0.134929 -0.212345 1.14 79 102 138
-0.133159 -0.212345 1.14 81 104 140
-0.131388 -0.212345 1.14 89 110 146
-0.129618 -0.212345 1.14 87 108 144
-0.127847 -0.212345 1.14 80 101 137
-0.126077 -0.212345 1.14 87 108 144
-0.124197 -0.212159 1.139 93 114 150
-0.122428 -0.212159 1.139 97 118 154
-0.120553 -0.211973 1.138 99 120 156
-0.118786 -0.211973 1.138 99 120 156
-0.117019 -0.211973 1.138 94 117 153
-0.115251 -0.211973 1.138 92 115 151
-0.113484 -0.211973 1.138 95 119 153
-0.111717 -0.211973 1.138 97 121 155
-0.110046 -0.212159 1.139 94 118 150
-0.108277 -0.212159 1.139 88 112 144
-0.106508 -0.212159 1.139 80 104 136
-0.104831 -0.212345 1.14 79 103 135
-0.103061 -0.212345 1.14 100 123 152
-0.10129 -0.212345 1.14 114 137 166
-0.0995198 -0.212345 1.14 115 138 167
-0.0977493 -0.212345 1.14 83 106 135
-0.0959789 -0.212345 1.14 69 92 121
-0.0942084 -0.212345 1.14 88 111 140
-0.092438 -0.212345 1.14 83 105 139
-0.0906675 -0.212345 1.14 68 90 124
-0.088897 -0.212345 1.14 68 90 124
-0.0870502 -0.212159 1.139 68 90 124
-0.0853561 -0.212345 1.14 71 93 127
-0.0835857 -0.212345 1.14 86 108 142
-0.0818152 -0.212345 1.14 88 110 144
-0.0800448 -0.212345 1.14 69 91 125
-0.078343 -0.212531 1.141 61 83 117
-0.0765709 -0.212531 1.141 72 94 128
-0.0748645 -0.212718 1.142 83 103 137
-0.0730909 -0.212718 1.142 75 95 129
-0.0713798 -0.212904 1.143 80 100 134
-0.0696047 -0.212904 1.143 89 109 143
-0.0678296 -0.212904 1.143 85 105 139
-0.0661122 -0.21309 1.144 80 100 134
-0.0643356 -0.21309 1.144 76 98 130
-0.0626136 -0.213277 1.145 76 98 130
-0.0608354 -0.213277 1.145 76 99 128
-0.0590571 -0.213277 1.145 79 102 131
-0.057379 -0.213649 1.147 76 99 128
-0.0555976 -0.213649 1.147 74 97 126
-0.0539101 -0.214022 1.149 80 103 132
-0.0521711 -0.214208 1.15 80 103 132
-0.0504289 -0.214394 1.151 75 99 126
-0.0486836 -0.21458 1.152 72 96 123
-0.0469352 -0.214767 1.153 82 108 130
-0.0451837 -0.214953 1.154 93 119 141
-0.0434667 -0.215326 1.156 95 119 141
-0.0399451 -0.215698 1.158 43 67 80
-0.0381796 -0.215884 1.159 103 127 140
-0.0364424 -0.216257 1.161 103 122 136
-0.0347289 -0.216816 1.164 53 72 86
-0.0329494 -0.217002 1.165 9 28 17
-0.0311936 -0.217374 1.167 14 33 22
-0.0294567 -0.217933 1.17 13 38 10
-0.0276869 -0.218306 1.172 18 43 15
-0.025933 -0.218865 1.175 22 44 15
-0.0241287 -0.219051 1.176 23 45 16
-0.0223403 -0.219423 1.178 22 44 15
-0.0205456 -0.219796 1.18 22 44 15
-0.0187289 -0.219982 1.181 24 44 15
-0.0168948 -0.219982 1.181 25 45 16
-0.0150734 -0.220168 1.182 25 45 16
-0.0132489 -0.220355 1.183 27 47 18
-0.0114213 -0.220541 1.184 27 47 18
-0.00958251 -0.220541 1.184 27 47 18
-0.00775025 -0.220727 1.185 30 50 21
-0.00590991 -0.220727 1.185 25 45 16
-0.004073 -0.220914 1.186 27 47 18
-0.00223298 -0.2211 1.187 27 47 18
-0.000389528 -0.2211 1.187 27 47 18
0.00145392 -0.2211 1.187 27 47 18
0.00329737 -0.2211 1.187 27 47 18
0.00514083 -0.2211 1.187 27 47 18
0.00698428 -0.2211 1.187 28 49 17
0.00882773 -0.2211 1.187 28 49 17
0.0106712 -0.2211 1.187 28 49 17
0.0125146 -0.2211 1.187 28 49 17
0.0143581 -0.2211 1.187 32 53 21
0.0162015 -0.2211 1.187 32 53 21
0.018045 -0.2211 1.187 32 54 20
0.0198884 -0.2211 1.187 34 56 22
0.0217319 -0.2211 1.187 30 52 18
0.0235753 -0.2211 1.187 30 52 18
0.0254188 -0.2211 1.187 30 52 18
0.0272622 -0.2211 1.187 28 50 16
0.0291057 -0.2211 1.187 30 50 16
0.0309231 -0.220914 1.186 30 50 16
0.032765 -0.220914 1.186 29 49 15
0.0346069 -0.220914 1.186 29 49 15
0.0364488 -0.220914 1.186 29 49 15
0.0382584 -0.220727 1.185 29 49 15
0.0400987 -0.220727 1.185 29 50 13
0.0419745 -0.220914 1.186 27 48 11
0.0438164 -0.220914 1.186 30 51 14
0.0456583 -0.220914 1.186 30 51 14
0.0475002 -0.220914 1.186 30 51 14
0.0493421 -0.220914 1.186 31 52 15
0.051184 -0.220914 1.186 30 53 16
0.0530259 -0.220914 1.186 31 54 17
0.0548678 -0.220914 1.186 31 54 17
0.0567097 -0.220914 1.186 31 54 17
0.0585515 -0.220914 1.186 29 51 17
0.0603425 -0.220727 1.185 25 47 13
0.0621829 -0.220727 1.185 27 48 16
0.0640232 -0.220727 1.185 25 46 14
0.0658636 -0.220727 1.185 28 49 17
0.0676468 -0.220541 1.184 29 50 18
0.0694269 -0.220355 1.183 28 49 17
0.0712039 -0.220168 1.182 29 50 18
0.0730396 -0.220168 1.182 27 48 16
0.0748119 -0.219982 1.181 28 49 17
0.076646 -0.219982 1.181 29 50 18
0.0784802 -0.219982 1.181 29 50 18
0.0802463 -0.219796 1.18 29 50 18
