ply
format ascii 1.0
comment Created by Open3D
element vertex 1431
property double x
property double y
property double z
property uchar red
property uchar green
property uchar blue
end_header
0.293322 -0.260602 1.182 10 24 9
0.295158 -0.260602 1.182 10 24 9
0.296993 -0.260602 1.182 10 24 9
0.298829 -0.260602 1.182 10 24 9
0.300665 -0.260602 1.182 11 25 10
0.3025 -0.260602 1.182 12 26 11
0.304594 -0.260822 1.183 11 24 11
0.306431 -0.260822 1.183 10 23 10
0.308268 -0.260822 1.183 10 23 10
0.310105 -0.260822 1.183 12 25 12
0.311942 -0.260822 1.183 12 26 11
0.31378 -0.260822 1.183 13 27 12
0.315617 -0.260822 1.183 13 27 12
0.317186 -0.260602 1.182 13 27 12
0.319022 -0.260602 1.182 13 27 12
0.320857 -0.260602 1.182 13 27 12
0.322693 -0.260602 1.182 13 27 12
0.323979 -0.260161 1.18 13 27 12
0.325812 -0.260161 1.18 17 28 14
0.327645 -0.260161 1.18 17 28 14
0.329198 -0.25994 1.179 16 30 13
0.330748 -0.25972 1.178 17 31 14
0.332578 -0.25972 1.178 15 31 14
0.334407 -0.25972 1.178 15 31 14
0.336237 -0.25972 1.178 20 37 17
0.338353 -0.25994 1.179 20 37 17
0.340184 -0.25994 1.179 18 35 15
0.342015 -0.25994 1.179 18 35 15
0.344138 -0.260161 1.18 16 33 13
0.34597 -0.260161 1.18 15 32 12
0.347803 -0.260161 1.18 16 33 13
0.349636 -0.260161 1.18 16 33 13
0.351468 -0.260161 1.18 16 33 13
0.353301 -0.260161 1.18 15 32 12
0.355133 -0.260161 1.18 16 33 13
0.356663 -0.25994 1.179 15 32 12
0.35819 -0.25972 1.178 15 31 14
0.36002 -0.25972 1.178 9 25 8
0.361542 -0.259499 1.177 25 36 28
0.363061 -0.259279 1.176 50 61 53
0.364577 -0.259058 1.175 11 18 14
0.366402 -0.259058 1.175 11 18 14
0.3676 -0.258617 1.173 22 23 20
0.369107 -0.258397 1.172 18 19 16
0.369661 -0.257515 1.168 16 17 14
0.370839 -0.257074 1.166 62 63 60
0.371372 -0.256192 1.162 84 88 87
0.371249 -0.254869 1.156 79 83 82
0.372399 -0.254428 1.154 65 69 68
0.373543 -0.253987 1.152 65 69 68
-0.164759 -0.25745 1.176 7 17 5
-0.161517 -0.258107 1.179 8 18 6
-0.160093 -0.258764 1.182 8 18 6
-0.158391 -0.258983 1.183 7 17 5
-0.156818 -0.25942 1.185 7 17 5
-0.155109 -0.259639 1.186 7 18 4
-0.153396 -0.259858 1.187 7 18 4
-0.151553 -0.259858 1.187 10 21 5
-0.149709 -0.259858 1.187 11 22 6
-0.14799 -0.260077 1.188 10 21 5
-0.146145 -0.260077 1.188 14 25 9
-0.1443 -0.260077 1.188 14 26 7
-0.142335 -0.259858 1.187 14 26 7
-0.140492 -0.259858 1.187 17 29 10
-0.138648 -0.259858 1.187 14 26 7
-0.13669 -0.259639 1.186 15 27 8
-0.134734 -0.25942 1.185 15 27 8
-0.132894 -0.25942 1.185 12 27 7
-0.131053 -0.25942 1.185 15 30 10
-0.129213 -0.25942 1.185 15 30 10
-0.12748 -0.259639 1.186 16 31 11
-0.125638 -0.259639 1.186 15 30 10
-0.123901 -0.259858 1.187 15 30 10
-0.122057 -0.259858 1.187 15 30 10
-0.120214 -0.259858 1.187 13 28 8
-0.11847 -0.260077 1.188 13 28 8
-0.116625 -0.260077 1.188 13 28 8
-0.114877 -0.260296 1.189 12 27 7
-0.11303 -0.260296 1.189 13 28 8
-0.111184 -0.260296 1.189 13 27 10
-0.109337 -0.260296 1.189 15 29 12
-0.107491 -0.260296 1.189 13 27 10
-0.105644 -0.260296 1.189 13 27 10
-0.10371 -0.260077 1.188 12 26 9
-0.101865 -0.260077 1.188 13 27 10
-0.0999359 -0.259858 1.187 12 26 9
-0.0980098 -0.259639 1.186 13 27 10
-0.0961679 -0.259639 1.186 12 26 9
-0.0942465 -0.25942 1.185 12 26 9
-0.0924061 -0.25942 1.185 12 26 9
-0.0904894 -0.259202 1.184 12 26 9
-0.0885757 -0.258983 1.183 12 26 9
-0.0866651 -0.258764 1.182 11 25 8
-0.0848295 -0.258764 1.182 10 24 7
-0.0829236 -0.258545 1.181 10 24 7
-0.0810208 -0.258326 1.18 9 23 6
-0.0791882 -0.258326 1.18 10 24 7
-0.07729 -0.258107 1.179 10 24 7
-0.075459 -0.258107 1.179 11 25 8
-0.0735655 -0.257888 1.178 12 26 9
-0.0717361 -0.257888 1.178 12 26 9
-0.0699066 -0.257888 1.178 13 24 8
-0.0680771 -0.257888 1.178 12 23 7
-0.0662476 -0.257888 1.178 12 23 7
-0.0644729 -0.258107 1.179 12 23 7
-0.0625887 -0.257888 1.178 12 23 7
-0.0608108 -0.258107 1.179 13 24 8
-0.0590298 -0.258326 1.18 12 23 7
-0.0571972 -0.258326 1.18 12 23 7
-0.0554116 -0.258545 1.181 10 24 7
-0.0535774 -0.258545 1.181 10 24 7
-0.0517871 -0.258764 1.182 11 25 8
-0.0499514 -0.258764 1.182 11 25 8
-0.0481157 -0.258764 1.182 10 24 7
-0.0463192 -0.258983 1.183 10 24 7
-0.0444444 -0.258764 1.182 10 24 7
-0.0426087 -0.258764 1.182 10 24 7
-0.0408075 -0.258983 1.183 11 25 8
-0.0389702 -0.258983 1.183 10 24 7
-0.037133 -0.258983 1.183 8 22 7
-0.0353256 -0.259202 1.184 9 23 8
-0.0335151 -0.25942 1.185 9 23 8
-0.0316747 -0.25942 1.185 9 23 8
-0.0298344 -0.25942 1.185 9 23 8
-0.0280177 -0.259639 1.186 10 24 9
-0.0261758 -0.259639 1.186 9 23 8
-0.0243544 -0.259858 1.187 9 23 8
-0.0225109 -0.259858 1.187 9 23 8
-0.0206675 -0.259858 1.187 9 23 8
-0.018824 -0.259858 1.187 9 23 8
-0.0169949 -0.260077 1.188 9 23 8
-0.0151499 -0.260077 1.188 9 23 8
-0.0133049 -0.260077 1.188 8 22 7
-0.0114695 -0.260296 1.189 6 20 5
-0.00961488 -0.260077 1.188 6 20 5
-0.00777641 -0.260296 1.189 6 20 5
-0.00592986 -0.260296 1.189 8 22 7
-0.0040833 -0.260296 1.189 8 22 7
-0.00223674 -0.260296 1.189 9 23 8
-0.000390184 -0.260296 1.189 9 23 8
0.00145637 -0.260296 1.189 9 23 8
0.00330015 -0.260077 1.188 11 22 8
0.00514516 -0.260077 1.188 10 21 7
0.00699605 -0.260296 1.189 12 23 9
0.00885004 -0.260515 1.19 12 23 9
0.0106982 -0.260515 1.19 9 23 8
0.0125673 -0.260953 1.192 10 24 9
0.0144186 -0.260953 1.192 10 24 9
0.0162698 -0.260953 1.192 10 24 9
0.018121 -0.260953 1.192 10 24 9
0.019989 -0.261172 1.193 10 24 9
0.0218417 -0.261172 1.193 10 24 9
0.0236746 -0.260953 1.192 10 24 9
0.0255259 -0.260953 1.192 10 24 9
0.0273771 -0.260953 1.192 11 25 10
0.0292038 -0.260734 1.191 10 24 9
0.0310274 -0.260515 1.19 9 23 8
0.0328755 -0.260515 1.19 9 23 8
0.0346944 -0.260296 1.189 10 24 9
0.0365102 -0.260077 1.188 10 24 9
0.038323 -0.259858 1.187 10 24 9
0.0401664 -0.259858 1.187 9 23 8
0.0419391 -0.25942 1.185 8 22 7
0.0437794 -0.25942 1.185 6 20 5
0.0455813 -0.259202 1.184 8 22 7
0.04734 -0.258764 1.182 9 23 8
0.0491756 -0.258764 1.182 10 24 9
0.0510113 -0.258764 1.182 9 23 8
0.0528023 -0.258545 1.181 11 25 10
0.0546364 -0.258545 1.181 11 25 10
0.0565184 -0.258764 1.182 10 24 9
0.0583541 -0.258764 1.182 10 24 9
0.0602916 -0.259202 1.184 11 25 10
0.0621829 -0.25942 1.185 12 26 11
0.0640232 -0.25942 1.185 11 25 10
0.0659747 -0.259858 1.187 11 25 10
0.0678182 -0.259858 1.187 10 24 9
0.0696616 -0.259858 1.187 11 25 10
0.0715051 -0.259858 1.187 10 24 9
0.0733485 -0.259858 1.187 10 24 9
0.075192 -0.259858 1.187 10 24 9
0.0770354 -0.259858 1.187 10 24 9
0.0788789 -0.259858 1.187 10 24 9
0.0805863 -0.25942 1.185 10 24 9
0.0824267 -0.25942 1.185 10 24 9
0.084267 -0.25942 1.185 10 24 9
0.0860347 -0.259202 1.184 10 24 9
0.0877993 -0.258983 1.183 9 23 8
0.0895607 -0.258764 1.182 9 23 8
0.0913964 -0.258764 1.182 10 24 9
0.0932321 -0.258764 1.182 10 24 9
0.0949874 -0.258545 1.181 10 24 9
0.0968215 -0.258545 1.181 11 25 10
0.0986556 -0.258545 1.181 10 24 9
0.10049 -0.258545 1.181 10 24 9
0.102324 -0.258545 1.181 9 23 8
0.104246 -0.258764 1.182 9 23 8
0.106082 -0.258764 1.182 9 23 8
0.107918 -0.258764 1.182 9 23 8
0.109846 -0.258983 1.183 10 24 9
0.111683 -0.258983 1.183 9 23 8
0.113617 -0.259202 1.184 10 24 9
0.115553 -0.25942 1.185 9 23 8
0.117393 -0.25942 1.185 9 23 8
0.119334 -0.259639 1.186 9 23 8
0.121278 -0.259858 1.187 9 23 8
0.123122 -0.259858 1.187 9 23 8
0.124965 -0.259858 1.187 9 23 8
0.126809 -0.259858 1.187 9 23 8
0.128544 -0.259639 1.186 9 23 6
0.130386 -0.259639 1.186 10 24 7
0.132116 -0.25942 1.185 10 24 7
0.133956 -0.25942 1.185 10 24 7
0.135797 -0.25942 1.185 9 23 6
0.137405 -0.258983 1.183 10 24 7
0.139124 -0.258764 1.182 9 23 6
0.14096 -0.258764 1.182 9 23 6
0.142796 -0.258764 1.182 9 23 6
0.144509 -0.258545 1.181 9 23 6
0.146219 -0.258326 1.18 8 22 5
0.148052 -0.258326 1.18 9 23 6
0.149884 -0.258326 1.18 8 22 5
0.151717 -0.258326 1.18 10 24 7
0.15355 -0.258326 1.18 10 24 7
0.155382 -0.258326 1.18 10 24 7
0.157215 -0.258326 1.18 10 24 7
0.158912 -0.258107 1.179 9 23 6
0.16088 -0.258326 1.18 9 23 6
0.162712 -0.258326 1.18 9 23 6
0.164545 -0.258326 1.18 6 20 5
0.166378 -0.258326 1.18 6 20 5
0.16821 -0.258326 1.18 8 22 7
0.170043 -0.258326 1.18 9 23 8
0.172021 -0.258545 1.181 8 22 5
0.174002 -0.258764 1.182 8 22 5
0.175838 -0.258764 1.182 6 20 3
0.177674 -0.258764 1.182 8 22 5
0.179509 -0.258764 1.182 8 22 5
0.181345 -0.258764 1.182 6 20 3
0.183181 -0.258764 1.182 1 16 0
0.185016 -0.258764 1.182 3 18 0
0.186852 -0.258764 1.182 5 21 0
0.188688 -0.258764 1.182 12 28 6
0.190523 -0.258764 1.182 19 37 10
0.192359 -0.258764 1.182 25 43 16
0.194359 -0.258983 1.183 23 43 14
0.196362 -0.259202 1.184 20 40 11
0.198201 -0.259202 1.184 20 40 11
0.200209 -0.25942 1.185 20 40 11
0.202049 -0.25942 1.185 21 41 12
0.203889 -0.25942 1.185 22 42 13
0.20573 -0.25942 1.185 23 43 14
0.20757 -0.25942 1.185 23 43 14
0.209411 -0.25942 1.185 23 43 14
0.211251 -0.25942 1.185 22 42 13
0.213091 -0.25942 1.185 22 42 13
0.214932 -0.25942 1.185 21 41 12
0.216955 -0.259639 1.186 21 41 12
0.218981 -0.259858 1.187 22 42 13
0.221011 -0.260077 1.188 20 40 11
0.223231 -0.260515 1.19 20 40 11
0.225268 -0.260734 1.191 18 38 11
0.227308 -0.260953 1.192 18 38 11
0.22916 -0.260953 1.192 17 37 10
0.231011 -0.260953 1.192 18 38 11
0.232862 -0.260953 1.192 18 36 9
0.234713 -0.260953 1.192 18 36 9
0.236366 -0.260734 1.191 19 37 10
0.238016 -0.260515 1.19 17 35 8
0.239864 -0.260515 1.19 13 31 4
0.241712 -0.260515 1.19 13 31 4
0.243151 -0.260077 1.188 13 30 5
0.244996 -0.260077 1.188 12 29 4
0.246841 -0.260077 1.188 11 27 5
0.248476 -0.259858 1.187 11 27 5
0.25032 -0.259858 1.187 9 24 4
0.252163 -0.259858 1.187 8 23 3
0.254007 -0.259858 1.187 8 22 5
0.25585 -0.259858 1.187 8 22 5
0.257477 -0.259639 1.186 8 22 7
0.259318 -0.259639 1.186 6 20 5
0.261381 -0.259858 1.187 6 20 5
0.263224 -0.259858 1.187 6 20 5
0.265067 -0.259858 1.187 8 22 7
0.266911 -0.259858 1.187 9 23 8
0.268754 -0.259858 1.187 8 22 7
0.270598 -0.259858 1.187 9 23 8
0.272441 -0.259858 1.187 8 22 7
0.274054 -0.259639 1.186 9 23 8
0.275663 -0.25942 1.185 9 23 8
0.277503 -0.25942 1.185 9 23 8
0.279108 -0.259202 1.184 8 21 8
0.280947 -0.259202 1.184 9 22 9
0.282547 -0.258983 1.183 9 22 9
0.284143 -0.258764 1.182 10 23 10
0.285979 -0.258764 1.182 11 24 11
0.287815 -0.258764 1.182 11 24 11
0.289651 -0.258764 1.182 11 25 10
0.291486 -0.258764 1.182 11 25 10
0.293322 -0.258764 1.182 10 24 9
0.295158 -0.258764 1.182 10 24 9
0.296993 -0.258764 1.182 10 24 9
0.298829 -0.258764 1.182 11 25 10
0.300919 -0.258983 1.183 12 26 11
0.302756 -0.258983 1.183 11 25 10
0.304594 -0.258983 1.183 10 23 10
0.306431 -0.258983 1.183 10 23 10
0.308268 -0.258983 1.183 10 23 10
0.310105 -0.258983 1.183 10 23 10
0.311942 -0.258983 1.183 10 23 10
0.31378 -0.258983 1.183 11 24 11
0.315617 -0.258983 1.183 12 25 12
0.317186 -0.258764 1.182 12 25 12
0.319022 -0.258764 1.182 13 27 12
0.320857 -0.258764 1.182 13 27 12
0.32242 -0.258545 1.181 15 29 14
0.323979 -0.258326 1.18 15 29 14
0.325812 -0.258326 1.18 20 31 17
0.327645 -0.258326 1.18 20 31 17
0.329198 -0.258107 1.179 18 32 15
0.331029 -0.258107 1.179 17 31 14
0.33286 -0.258107 1.179 18 32 15
0.334691 -0.258107 1.179 19 33 16
0.336522 -0.258107 1.179 22 37 17
0.338353 -0.258107 1.179 20 35 15
0.340184 -0.258107 1.179 19 34 14
0.342015 -0.258107 1.179 20 35 15
0.344138 -0.258326 1.18 17 32 12
0.34597 -0.258326 1.18 17 32 12
0.347803 -0.258326 1.18 17 32 12
0.349636 -0.258326 1.18 18 33 13
0.351468 -0.258326 1.18 18 33 13
0.353001 -0.258107 1.179 18 33 13
0.354832 -0.258107 1.179 18 33 13
0.356361 -0.257888 1.178 18 33 13
0.35819 -0.257888 1.178 17 31 14
0.359714 -0.257669 1.177 12 26 9
0.361235 -0.25745 1.176 27 36 27
0.362753 -0.257231 1.175 52 61 52
0.364267 -0.257012 1.174 8 15 11
0.365779 -0.256793 1.173 11 18 14
0.367287 -0.256575 1.172 20 25 21
0.368477 -0.256137 1.17 14 19 15
0.369028 -0.255261 1.166 15 19 18
0.369885 -0.254604 1.163 63 67 66
0.369454 -0.253072 1.156 84 90 89
0.370607 -0.252634 1.154 78 84 83
0.371431 -0.251977 1.151 62 66 65
0.37257 -0.251539 1.149 59 63 62
-0.164759 -0.255622 1.176 7 17 5
-0.161654 -0.256491 1.18 8 18 6
-0.159957 -0.256708 1.181 8 18 6
-0.158391 -0.257143 1.183 7 17 5
-0.156818 -0.257578 1.185 7 17 5
-0.154978 -0.257578 1.185 6 17 3
-0.153267 -0.257795 1.186 6 17 3
-0.151553 -0.258013 1.187 7 18 2
-0.149709 -0.258013 1.187 5 16 0
-0.147866 -0.258013 1.187 8 20 1
-0.146022 -0.258013 1.187 14 26 7
-0.144179 -0.258013 1.187 14 26 7
-0.142335 -0.258013 1.187 14 26 7
-0.140373 -0.257795 1.186 15 27 8
-0.138532 -0.257795 1.186 14 26 7
-0.136574 -0.257578 1.185 14 26 7
-0.134734 -0.257578 1.185 14 26 7
-0.132894 -0.257578 1.185 13 28 8
-0.131053 -0.257578 1.185 13 28 8
-0.129213 -0.257578 1.185 13 28 8
-0.12748 -0.257795 1.186 13 28 8
-0.125638 -0.257795 1.186 13 28 8
-0.123901 -0.258013 1.187 13 28 8
-0.122057 -0.258013 1.187 13 28 8
-0.120315 -0.25823 1.188 13 28 8
-0.11857 -0.258447 1.189 13 28 8
-0.116723 -0.258447 1.189 12 27 7
-0.114973 -0.258665 1.19 12 27 7
-0.113125 -0.258665 1.19 13 28 8
-0.111277 -0.258665 1.19 15 29 12
-0.109429 -0.258665 1.19 16 30 13
-0.107581 -0.258665 1.19 13 27 10
-0.105733 -0.258665 1.19 12 26 9
-0.103885 -0.258665 1.19 12 26 9
-0.101951 -0.258447 1.189 12 26 9
-0.0999359 -0.258013 1.187 13 27 10
-0.0980925 -0.258013 1.187 15 29 12
-0.0961679 -0.257795 1.186 13 27 10
-0.0942465 -0.257578 1.185 13 27 10
-0.0924061 -0.257578 1.185 12 26 9
-0.0904894 -0.257361 1.184 11 25 8
-0.0885757 -0.257143 1.183 11 25 8
-0.0866651 -0.256926 1.182 11 25 8
-0.0848295 -0.256926 1.182 11 25 8
-0.0829236 -0.256708 1.181 11 25 8
-0.0810208 -0.256491 1.18 11 25 8
-0.0791882 -0.256491 1.18 11 25 8
-0.07729 -0.256274 1.179 11 25 8
-0.075459 -0.256274 1.179 12 26 9
-0.0735655 -0.256056 1.178 12 26 9
-0.0717361 -0.256056 1.178 13 27 10
-0.0699066 -0.256056 1.178 11 25 8
-0.0680771 -0.256056 1.178 10 24 7
-0.0662476 -0.256056 1.178 12 23 7
-0.0644182 -0.256056 1.178 11 22 6
-0.0625887 -0.256056 1.178 12 23 7
-0.0607592 -0.256056 1.178 12 23 7
-0.0589798 -0.256274 1.179 13 24 8
-0.0571972 -0.256491 1.18 12 23 7
-0.0553646 -0.256491 1.18 10 24 7
-0.0535321 -0.256491 1.18 10 24 7
-0.0517433 -0.256708 1.181 11 25 8
-0.0499514 -0.256926 1.182 11 25 8
-0.0481157 -0.256926 1.182 10 24 7
-0.04628 -0.256926 1.182 9 23 6
-0.0444444 -0.256926 1.182 9 23 6
-0.0426087 -0.256926 1.182 9 23 6
-0.040773 -0.256926 1.182 11 25 8
-0.0389373 -0.256926 1.182 9 23 6
-0.0371016 -0.256926 1.182 8 22 7
-0.0352659 -0.256926 1.182 6 20 5
-0.0334302 -0.256926 1.182 9 23 8
-0.0315946 -0.256926 1.182 9 23 8
-0.029784 -0.257143 1.183 10 24 9
-0.0279704 -0.257361 1.184 11 25 10
-0.0261316 -0.257361 1.184 10 24 9
-0.0243134 -0.257578 1.185 9 23 8
-0.022473 -0.257578 1.185 9 23 8
-0.0206327 -0.257578 1.185 8 22 7
-0.0187923 -0.257578 1.185 9 23 8
-0.0169663 -0.257795 1.186 10 24 9
-0.0151244 -0.257795 1.186 10 24 9
-0.0132937 -0.258013 1.187 10 24 9
-0.0114502 -0.258013 1.187 6 20 5
-0.00960679 -0.258013 1.187 6 20 5
-0.00776987 -0.25823 1.188 6 20 5
-0.00592487 -0.25823 1.188 8 22 7
-0.00407987 -0.25823 1.188 9 23 8
-0.00223486 -0.25823 1.188 9 23 8
-0.000389856 -0.25823 1.188 9 23 8
0.00145515 -0.25823 1.188 10 24 9
0.00330015 -0.25823 1.188 9 23 8
0.00514516 -0.25823 1.188 8 22 7
0.00700193 -0.258665 1.19 9 23 8
0.00885004 -0.258665 1.19 10 24 9
0.0107161 -0.259099 1.192 9 23 8
0.0125673 -0.259099 1.192 10 24 9
0.0144186 -0.259099 1.192 10 24 9
0.0162834 -0.259317 1.193 9 23 8
0.0181514 -0.259534 1.194 10 24 9
0.019989 -0.259317 1.193 11 25 10
0.0218417 -0.259317 1.193 10 24 9
0.0236746 -0.259099 1.192 10 24 9
0.0255259 -0.259099 1.192 10 24 9
0.0273541 -0.258882 1.191 11 25 10
0.0292038 -0.258882 1.191 10 24 9
0.0310274 -0.258665 1.19 9 23 8
0.0328755 -0.258665 1.19 10 24 9
0.0346944 -0.258447 1.189 11 25 10
0.0365102 -0.25823 1.188 10 24 9
0.038323 -0.258013 1.187 11 25 10
0.0401326 -0.257795 1.186 10 24 9
0.0419391 -0.257578 1.185 9 23 8
0.0437794 -0.257578 1.185 8 22 7
0.0455813 -0.257361 1.184 8 22 7
0.04738 -0.257143 1.183 10 24 9
0.0491756 -0.256926 1.182 10 24 9
0.0510545 -0.257143 1.183 10 24 9
0.0528917 -0.257143 1.183 10 24 9
0.054729 -0.257143 1.183 10 24 9
0.056614 -0.257361 1.184 10 24 9
0.0585022 -0.257578 1.185 10 24 9
0.0603425 -0.257578 1.185 11 25 10
0.0622878 -0.258013 1.187 11 25 10
0.0641313 -0.258013 1.187 10 24 9
0.0660303 -0.25823 1.188 10 24 9
0.0678753 -0.25823 1.188 10 24 9
0.0697203 -0.25823 1.188 10 24 9
0.0715653 -0.25823 1.188 10 24 9
0.0734103 -0.25823 1.188 10 24 9
0.075192 -0.258013 1.187 10 24 9
0.0770354 -0.258013 1.187 9 23 8
0.0788789 -0.258013 1.187 9 23 8
0.0807223 -0.258013 1.187 10 24 9
0.0824962 -0.257795 1.186 11 25 10
0.084267 -0.257578 1.185 11 25 10
0.0861074 -0.257578 1.185 11 25 10
0.0878735 -0.257361 1.184 10 24 9
0.0896365 -0.257143 1.183 10 24 9
0.0913964 -0.256926 1.182 10 24 9
0.0932321 -0.256926 1.182 10 24 9
0.0950678 -0.256926 1.182 10 24 9
0.0969035 -0.256926 1.182 11 25 10
0.0987392 -0.256926 1.182 10 24 9
0.100575 -0.256926 1.182 9 23 8
0.102411 -0.256926 1.182 10 24 9
0.104246 -0.256926 1.182 10 24 9
0.106082 -0.256926 1.182 9 23 8
0.107918 -0.256926 1.182 10 24 9
0.109846 -0.257143 1.183 9 23 8
0.111778 -0.257361 1.184 9 23 8
0.113713 -0.257578 1.185 10 24 9
0.115553 -0.257578 1.185 10 24 9
0.117492 -0.257795 1.186 10 24 9
0.119435 -0.258013 1.187 10 24 9
0.121278 -0.258013 1.187 9 23 8
0.123018 -0.257795 1.186 9 23 8
0.124965 -0.258013 1.187 9 23 8
0.126702 -0.257795 1.186 9 23 8
0.128544 -0.257795 1.186 9 23 6
0.130386 -0.257795 1.186 10 24 7
0.132116 -0.257578 1.185 10 24 7
0.133956 -0.257578 1.185 9 23 6
0.135797 -0.257578 1.185 9 23 6
0.137521 -0.257361 1.184 10 24 7
0.13936 -0.257361 1.184 9 23 6
0.141079 -0.257143 1.183 9 23 6
0.142916 -0.257143 1.183 9 23 6
0.144631 -0.256926 1.182 9 23 6
0.146467 -0.256926 1.182 9 23 6
0.148303 -0.256926 1.182 10 24 7
0.150138 -0.256926 1.182 10 24 7
0.151974 -0.256926 1.182 10 24 7
0.15368 -0.256708 1.181 10 24 7
0.155514 -0.256708 1.181 10 24 7
0.157348 -0.256708 1.181 10 24 7
0.159047 -0.256491 1.18 9 23 6
0.161016 -0.256708 1.181 9 23 6
0.162712 -0.256491 1.18 9 23 6
0.164545 -0.256491 1.18 9 23 8
0.166378 -0.256491 1.18 9 23 8
0.16821 -0.256491 1.18 9 23 8
0.170043 -0.256491 1.18 9 23 8
0.171875 -0.256491 1.18 8 22 5
0.173708 -0.256491 1.18 8 22 5
0.17554 -0.256491 1.18 6 20 3
0.177373 -0.256491 1.18 6 20 3
0.179357 -0.256708 1.181 6 20 5
0.181192 -0.256708 1.181 5 19 4
0.183026 -0.256708 1.181 4 18 1
0.18486 -0.256708 1.181 0 13 0
0.186694 -0.256708 1.181 2 17 0
0.188528 -0.256708 1.181 3 18 0
0.190523 -0.256926 1.182 13 30 5
0.192359 -0.256926 1.182 19 36 11
0.194195 -0.256926 1.182 19 37 10
0.196362 -0.257361 1.184 17 35 8
0.198201 -0.257361 1.184 20 40 11
0.200209 -0.257578 1.185 21 41 12
0.202049 -0.257578 1.185 21 41 12
0.203889 -0.257578 1.185 22 42 13
0.20573 -0.257578 1.185 23 43 14
0.20757 -0.257578 1.185 22 42 13
0.209411 -0.257578 1.185 23 43 14
0.211073 -0.257361 1.184 22 42 13
0.213091 -0.257578 1.185 24 42 13
0.214932 -0.257578 1.185 24 42 13
0.216955 -0.257795 1.186 24 42 13
0.218981 -0.258013 1.187 25 43 14
0.221011 -0.25823 1.188 24 42 13
0.223231 -0.258665 1.19 23 41 12
0.225268 -0.258882 1.191 20 38 11
0.227308 -0.259099 1.192 20 38 11
0.229352 -0.259317 1.193 20 38 11
0.231205 -0.259317 1.193 20 38 11
0.233057 -0.259317 1.193 18 36 9
0.23491 -0.259317 1.193 18 36 9
0.236565 -0.259099 1.192 18 36 9
0.238216 -0.258882 1.191 17 35 8
0.239864 -0.258665 1.19 13 31 4
0.241712 -0.258665 1.19 15 33 6
0.243355 -0.258447 1.189 13 30 5
0.244996 -0.25823 1.188 12 29 4
0.246633 -0.258013 1.187 11 27 5
0.248476 -0.258013 1.187 11 27 5
0.250109 -0.257795 1.186 10 25 5
0.251951 -0.257795 1.186 9 24 4
0.253579 -0.257578 1.185 9 23 6
0.255419 -0.257578 1.185 8 22 5
0.257259 -0.257578 1.185 6 20 5
0.2591 -0.257578 1.185 6 20 5
0.263002 -0.257795 1.186 6 20 5
0.264844 -0.257795 1.186 9 23 6
0.266911 -0.258013 1.187 9 23 6
0.268754 -0.258013 1.187 9 23 6
0.27037 -0.257795 1.186 9 23 6
0.272212 -0.257795 1.186 9 23 8
0.273823 -0.257578 1.185 8 22 7
0.275663 -0.257578 1.185 9 23 8
0.277269 -0.257361 1.184 8 22 7
0.278872 -0.257143 1.183 8 21 8
0.280709 -0.257143 1.183 9 22 9
0.282547 -0.257143 1.183 9 22 9
0.284143 -0.256926 1.182 10 23 10
0.285979 -0.256926 1.182 10 24 9
0.287815 -0.256926 1.182 10 24 9
0.289651 -0.256926 1.182 11 25 10
0.291486 -0.256926 1.182 11 25 10
0.29357 -0.257143 1.183 10 24 9
0.295407 -0.257143 1.183 11 25 10
0.297245 -0.257143 1.183 11 25 10
0.299082 -0.257143 1.183 12 26 11
0.300919 -0.257143 1.183 11 25 10
0.303012 -0.257361 1.184 11 25 10
0.304851 -0.257361 1.184 10 23 10
0.30669 -0.257361 1.184 10 23 10
0.308268 -0.257143 1.183 10 23 10
0.310105 -0.257143 1.183 10 23 10
0.311942 -0.257143 1.183 10 23 10
0.31378 -0.257143 1.183 10 23 10
0.315617 -0.257143 1.183 11 24 11
0.317186 -0.256926 1.182 13 26 13
0.319022 -0.256926 1.182 13 27 12
0.320586 -0.256708 1.181 15 29 14
0.32242 -0.256708 1.181 15 29 14
0.323979 -0.256491 1.18 15 29 14
0.325812 -0.256491 1.18 20 31 15
0.327645 -0.256491 1.18 21 32 16
0.329198 -0.256274 1.179 18 32 15
0.331029 -0.256274 1.179 17 31 14
0.33286 -0.256274 1.179 18 33 13
0.334691 -0.256274 1.179 19 34 14
0.336522 -0.256274 1.179 18 35 15
0.338353 -0.256274 1.179 18 35 15
0.340184 -0.256274 1.179 17 34 14
0.342015 -0.256274 1.179 18 35 15
0.343846 -0.256274 1.179 15 32 12
0.34597 -0.256491 1.18 15 32 12
0.347803 -0.256491 1.18 16 33 13
0.349636 -0.256491 1.18 18 35 15
0.35117 -0.256274 1.179 17 34 14
0.353001 -0.256274 1.179 16 33 13
0.354531 -0.256056 1.178 17 34 14
0.356361 -0.256056 1.178 16 33 13
0.357886 -0.255839 1.177 17 33 16
0.359103 -0.255404 1.175 13 29 12
0.360928 -0.255404 1.175 25 36 28
0.362753 -0.255404 1.175 48 59 51
0.363957 -0.25497 1.173 10 17 13
0.365467 -0.254752 1.172 11 18 14
0.366974 -0.254535 1.171 19 26 22
0.368477 -0.254317 1.17 12 19 15
0.369028 -0.253448 1.166 16 20 20
0.369885 -0.252796 1.163 65 69 69
0.369454 -0.251274 1.156 83 88 91
0.369965 -0.250405 1.152 79 84 87
0.370786 -0.249753 1.149 82 88 88
0.372246 -0.249535 1.148 82 88 88
-0.164899 -0.254009 1.177 7 17 5
-0.161654 -0.254656 1.18 10 20 8
-0.160093 -0.255088 1.182 7 17 5
-0.158257 -0.255088 1.182 8 18 6
-0.156686 -0.25552 1.184 7 17 5
-0.154978 -0.255735 1.185 6 17 3
-0.153138 -0.255735 1.185 7 18 4
-0.151425 -0.255951 1.186 8 19 3
-0.149583 -0.255951 1.186 8 19 3
-0.147741 -0.255951 1.186 14 26 7
-0.145899 -0.255951 1.186 14 26 7
-0.144057 -0.255951 1.186 15 27 8
-0.142215 -0.255951 1.186 15 27 8
-0.140255 -0.255735 1.185 17 29 10
-0.138415 -0.255735 1.185 17 29 10
-0.136574 -0.255735 1.185 15 27 8
-0.134734 -0.255735 1.185 15 27 8
-0.132894 -0.255735 1.185 15 27 8
-0.131053 -0.255735 1.185 15 27 8
-0.129213 -0.255735 1.185 13 28 8
-0.12748 -0.255951 1.186 13 28 8
-0.125744 -0.256167 1.187 15 30 10
-0.123901 -0.256167 1.187 13 28 8
-0.12216 -0.256383 1.188 15 30 10
-0.120416 -0.256599 1.189 13 28 8
-0.11867 -0.256814 1.19 12 27 7
-0.116821 -0.256814 1.19 13 28 8
-0.114973 -0.256814 1.19 13 28 8
-0.11322 -0.25703 1.191 15 30 10
-0.111371 -0.25703 1.191 16 30 13
-0.109521 -0.25703 1.191 16 30 13
-0.107671 -0.25703 1.191 16 30 13
-0.105822 -0.25703 1.191 13 27 10
-0.103885 -0.256814 1.19 12 26 9
-0.102037 -0.256814 1.19 12 26 9
-0.100104 -0.256599 1.189 12 26 9
-0.0980925 -0.256167 1.187 13 27 10
-0.096249 -0.256167 1.187 13 27 10
-0.094326 -0.255951 1.186 13 27 10
-0.0924061 -0.255735 1.185 12 26 9
-0.0905658 -0.255735 1.185 12 26 9
-0.0886506 -0.25552 1.184 12 26 9
-0.0867385 -0.255304 1.183 11 25 8
-0.0848295 -0.255088 1.182 11 25 8
-0.0829938 -0.255088 1.182 11 25 8
-0.0810894 -0.254872 1.181 12 26 9
-0.0791882 -0.254656 1.18 11 25 8
-0.0773556 -0.254656 1.18 11 25 8
-0.075459 -0.254441 1.179 12 26 9
-0.0735655 -0.254225 1.178 12 26 9
-0.0717361 -0.254225 1.178 12 26 9
-0.0699066 -0.254225 1.178 10 24 7
-0.0680771 -0.254225 1.178 9 23 6
-0.0662476 -0.254225 1.178 12 23 7
-0.0644182 -0.254225 1.178 12 23 7
-0.0625887 -0.254225 1.178 12 23 7
-0.0608108 -0.254441 1.179 13 24 8
-0.0589798 -0.254441 1.179 14 25 9
-0.0571972 -0.254656 1.18 12 23 7
-0.0553646 -0.254656 1.18 10 24 7
-0.0535321 -0.254656 1.18 10 24 7
-0.0517433 -0.254872 1.181 11 25 10
-0.0499092 -0.254872 1.181 10 24 9
-0.048075 -0.254872 1.181 10 24 9
-0.0462409 -0.254872 1.181 10 24 9
-0.0444068 -0.254872 1.181 10 24 9
-0.0425726 -0.254872 1.181 9 23 8
-0.0407385 -0.254872 1.181 11 25 10
-0.0389044 -0.254872 1.181 9 23 8
-0.0370388 -0.254656 1.18 8 22 7
-0.0352063 -0.254656 1.18 6 20 5
-0.033402 -0.254872 1.181 9 23 8
-0.0315946 -0.255088 1.182 9 23 8
-0.0297589 -0.255088 1.182 11 25 10
-0.0279232 -0.255088 1.182 11 25 10
-0.0260875 -0.255088 1.182 10 24 9
-0.0242518 -0.255088 1.182 10 24 9
-0.0224351 -0.255304 1.183 9 23 8
-0.0205804 -0.255088 1.182 9 23 8
-0.0187606 -0.255304 1.183 10 24 9
-0.0169234 -0.255304 1.183 10 24 9
-0.0150989 -0.25552 1.184 11 25 10
-0.0132713 -0.255735 1.185 11 25 10
-0.0114309 -0.255735 1.185 4 18 3
-0.00959869 -0.255951 1.186 6 20 5
-0.00775679 -0.255951 1.186 8 22 7
-0.00591988 -0.256167 1.187 8 22 7
-0.00407643 -0.256167 1.187 10 24 9
-0.00223298 -0.256167 1.187 10 24 9
-0.000389528 -0.256167 1.187 10 24 9
0.00145392 -0.256167 1.187 10 24 9
0.00330015 -0.256383 1.188 12 23 9
0.00514516 -0.256383 1.188 11 22 8
0.00700193 -0.256814 1.19 11 22 8
0.00885748 -0.25703 1.191 12 23 9
0.0107161 -0.257246 1.192 11 22 8
0.0125673 -0.257246 1.192 12 23 9
0.0144307 -0.257462 1.193 12 23 9
0.0162971 -0.257678 1.194 11 22 8
0.0181514 -0.257678 1.194 11 25 10
0.0200057 -0.257678 1.194 11 25 10
0.0218417 -0.257462 1.193 10 24 9
0.0236746 -0.257246 1.192 10 24 9
0.0255259 -0.257246 1.192 11 25 10
0.0273541 -0.25703 1.191 11 25 10
0.0291793 -0.256814 1.19 10 24 9
0.0310274 -0.256814 1.19 10 24 9
0.0328479 -0.256599 1.189 11 25 10
0.0346652 -0.256383 1.188 11 25 10
0.0365102 -0.256383 1.188 11 25 10
0.038323 -0.256167 1.187 11 25 10
0.0401664 -0.256167 1.187 11 25 10
0.0419745 -0.255951 1.186 10 24 9
0.0437794 -0.255735 1.185 10 24 9
0.0456198 -0.255735 1.185 10 24 9
0.0474601 -0.255735 1.185 11 25 10
0.0492588 -0.25552 1.184 11 25 10
0.0511408 -0.255735 1.185 11 25 10
0.0529811 -0.255735 1.185 10 24 9
0.0548215 -0.255735 1.185 10 24 9
0.0567097 -0.255951 1.186 10 24 9
0.0586009 -0.256167 1.187 10 24 9
0.0604953 -0.256383 1.188 10 24 9
0.0623928 -0.256599 1.189 8 22 7
0.0642934 -0.256814 1.19 10 24 9
0.0661415 -0.256814 1.19 10 24 9
0.0679896 -0.256814 1.19 10 24 9
0.0698377 -0.256814 1.19 10 24 9
0.0716858 -0.256814 1.19 10 24 9
0.0735339 -0.256814 1.19 9 23 8
0.0753187 -0.256599 1.189 10 24 9
0.0771652 -0.256599 1.189 9 23 8
0.0789453 -0.256383 1.188 10 24 9
0.0807223 -0.256167 1.187 11 25 10
0.0825658 -0.256167 1.187 11 25 10
0.084267 -0.255735 1.185 11 25 10
0.0861074 -0.255735 1.185 11 25 10
0.0878735 -0.25552 1.184 11 25 10
0.0897123 -0.25552 1.184 10 24 9
0.0914737 -0.255304 1.183 9 23 8
0.0932321 -0.255088 1.182 10 24 9
0.0950678 -0.255088 1.182 9 23 8
0.0969035 -0.255088 1.182 10 24 9
0.0987392 -0.255088 1.182 9 23 8
0.100575 -0.255088 1.182 9 23 8
0.102411 -0.255088 1.182 9 23 8
0.104246 -0.255088 1.182 9 23 8
0.106082 -0.255088 1.182 9 23 8
0.107918 -0.255088 1.182 9 23 8
0.109846 -0.255304 1.183 9 23 8
0.111778 -0.25552 1.184 9 23 8
0.113617 -0.25552 1.184 10 24 9
0.115553 -0.255735 1.185 10 24 9
0.117393 -0.255735 1.185 10 24 9
0.119334 -0.255951 1.186 10 24 9
0.121176 -0.255951 1.186 9 23 8
0.123122 -0.256167 1.187 9 23 8
0.124965 -0.256167 1.187 10 24 9
0.126702 -0.255951 1.186 9 23 8
0.128544 -0.255951 1.186 9 23 8
0.130386 -0.255951 1.186 10 24 9
0.132227 -0.255951 1.186 10 24 7
0.134069 -0.255951 1.186 10 24 7
0.135797 -0.255735 1.185 9 23 6
0.137637 -0.255735 1.185 9 23 6
0.13936 -0.25552 1.184 9 23 6
0.141198 -0.25552 1.184 9 23 6
0.143037 -0.25552 1.184 9 23 6
0.144754 -0.255304 1.183 9 23 6
0.146591 -0.255304 1.183 9 23 6
0.148303 -0.255088 1.182 10 24 7
0.150138 -0.255088 1.182 10 24 7
0.151974 -0.255088 1.182 10 24 7
0.15381 -0.255088 1.182 9 23 6
0.155645 -0.255088 1.182 10 24 7
0.157481 -0.255088 1.182 10 24 7
0.159317 -0.255088 1.182 9 23 6
0.161153 -0.255088 1.182 9 23 6
0.16285 -0.254872 1.181 9 23 6
0.164545 -0.254656 1.18 9 23 6
0.166378 -0.254656 1.18 9 23 6
0.16821 -0.254656 1.18 8 22 7
0.170043 -0.254656 1.18 8 22 7
0.171875 -0.254656 1.18 6 20 5
0.173708 -0.254656 1.18 8 22 7
0.17554 -0.254656 1.18 6 20 5
0.177373 -0.254656 1.18 6 20 5
0.179206 -0.254656 1.18 8 22 7
0.181038 -0.254656 1.18 5 19 4
0.182871 -0.254656 1.18 6 20 3
0.184703 -0.254656 1.18 5 19 2
0.186536 -0.254656 1.18 8 23 3
0.188369 -0.254656 1.18 8 23 3
0.190362 -0.254872 1.181 13 29 7
0.192196 -0.254872 1.181 17 33 11
0.194195 -0.255088 1.182 19 36 11
0.196196 -0.255304 1.183 22 39 14
0.198201 -0.25552 1.184 27 45 18
0.20004 -0.25552 1.184 29 47 20
0.201879 -0.25552 1.184 25 43 16
0.203889 -0.255735 1.185 25 43 16
0.20573 -0.255735 1.185 25 43 16
0.20757 -0.255735 1.185 26 44 17
0.209411 -0.255735 1.185 27 45 16
0.211073 -0.25552 1.184 25 43 14
0.212911 -0.25552 1.184 25 43 14
0.214932 -0.255735 1.185 25 43 14
0.216772 -0.255735 1.185 25 43 14
0.218981 -0.256167 1.187 25 43 14
0.221011 -0.256383 1.188 24 42 15
0.223231 -0.256814 1.19 23 41 14
0.225457 -0.257246 1.192 22 40 13
0.227308 -0.257246 1.192 22 40 13
0.229544 -0.257678 1.194 20 38 11
0.231399 -0.257678 1.194 20 38 11
0.233057 -0.257462 1.193 18 36 9
0.23491 -0.257462 1.193 18 36 9
0.236565 -0.257246 1.192 20 38 11
0.238216 -0.25703 1.191 19 37 10
0.239864 -0.256814 1.19 17 35 8
0.241712 -0.256814 1.19 18 36 9
0.243151 -0.256383 1.188 20 37 12
0.24479 -0.256167 1.187 12 29 4
0.246425 -0.255951 1.186 11 27 5
0.248267 -0.255951 1.186 11 27 5
0.249898 -0.255735 1.185 10 25 5
0.251314 -0.255304 1.183 9 24 4
0.252937 -0.255088 1.182 9 23 8
0.254773 -0.255088 1.182 9 23 8
0.256608 -0.255088 1.182 9 23 8
0.258444 -0.255088 1.182 9 23 8
0.26028 -0.255088 1.182 10 24 9
0.262115 -0.255088 1.182 8 22 7
0.264174 -0.255304 1.183 9 23 8
0.266011 -0.255304 1.183 10 24 9
0.268075 -0.25552 1.184 10 24 9
0.270142 -0.255735 1.185 10 24 9
0.271982 -0.255735 1.185 10 24 9
0.273823 -0.255735 1.185 10 24 9
0.27543 -0.25552 1.184 10 24 9
0.277269 -0.25552 1.184 10 24 9
0.279108 -0.25552 1.184 10 23 10
0.280709 -0.255304 1.183 9 22 9
0.282308 -0.255088 1.182 9 22 9
0.284143 -0.255088 1.182 9 22 9
0.285979 -0.255088 1.182 10 24 9
0.287815 -0.255088 1.182 10 24 9
0.289651 -0.255088 1.182 11 25 10
0.291486 -0.255088 1.182 11 25 10
0.29357 -0.255304 1.183 10 24 9
0.295407 -0.255304 1.183 11 25 10
0.297245 -0.255304 1.183 11 25 10
0.299335 -0.25552 1.184 12 26 11
0.301173 -0.25552 1.184 11 25 10
0.303012 -0.25552 1.184 11 25 10
0.304851 -0.25552 1.184 10 23 10
0.30669 -0.25552 1.184 10 23 10
0.308268 -0.255304 1.183 10 23 10
0.310105 -0.255304 1.183 11 24 11
0.311942 -0.255304 1.183 11 24 11
0.31378 -0.255304 1.183 10 23 10
0.31535 -0.255088 1.182 12 22 10
0.317186 -0.255088 1.182 14 24 12
0.318752 -0.254872 1.181 13 27 12
0.320586 -0.254872 1.181 15 29 14
0.322147 -0.254656 1.18 16 30 15
0.323979 -0.254656 1.18 16 30 15
0.325812 -0.254656 1.18 18 32 17
0.327645 -0.254656 1.18 19 33 18
0.329198 -0.254441 1.179 19 33 16
0.331029 -0.254441 1.179 18 32 15
0.33286 -0.254441 1.179 18 33 13
0.334691 -0.254441 1.179 19 34 14
0.336522 -0.254441 1.179 20 35 15
0.338353 -0.254441 1.179 20 35 15
0.340184 -0.254441 1.179 20 35 15
0.342015 -0.254441 1.179 20 35 15
0.343846 -0.254441 1.179 16 31 11
0.345677 -0.254441 1.179 17 32 12
0.347508 -0.254441 1.179 17 32 12
0.349339 -0.254441 1.179 19 34 14
0.35117 -0.254441 1.179 20 35 15
0.352702 -0.254225 1.178 19 34 14
0.354531 -0.254225 1.178 19 34 14
0.356058 -0.254009 1.177 19 34 14
0.357582 -0.253793 1.176 20 34 17
0.359103 -0.253577 1.175 15 29 12
0.360621 -0.253361 1.174 24 36 26
0.362135 -0.253146 1.173 46 58 48
0.363957 -0.253146 1.173 12 19 15
0.365155 -0.252714 1.171 12 19 15
0.366347 -0.252282 1.169 19 26 22
0.367847 -0.252067 1.168 12 19 15
0.368395 -0.251203 1.164 14 20 20
0.368931 -0.25034 1.16 66 72 72
0.368495 -0.248829 1.153 84 89 92
0.369001 -0.247966 1.149 83 88 91
0.37014 -0.247535 1.147 84 89 92
0.371273 -0.247103 1.145 85 90 93
-0.165039 -0.252393 1.178 7 17 5
-0.161654 -0.252822 1.18 10 20 8
-0.160093 -0.25325 1.182 7 17 5
-0.158257 -0.25325 1.182 8 18 6
-0.156686 -0.253679 1.184 10 20 8
-0.154978 -0.253893 1.185 11 22 8
-0.153138 -0.253893 1.185 11 22 8
-0.151297 -0.253893 1.185 10 21 5
-0.149457 -0.253893 1.185 11 22 6
-0.147617 -0.253893 1.185 13 25 6
-0.145776 -0.253893 1.185 14 26 7
-0.143936 -0.253893 1.185 14 26 7
-0.142095 -0.253893 1.185 15 27 8
-0.140255 -0.253893 1.185 18 30 11
-0.138298 -0.253679 1.184 18 30 11
-0.136459 -0.253679 1.184 17 29 10
-0.13462 -0.253679 1.184 15 27 8
-0.132782 -0.253679 1.184 15 27 8
-0.131053 -0.253893 1.185 15 27 8
-0.129322 -0.254107 1.186 13 28 8
-0.12748 -0.254107 1.186 13 28 8
-0.125744 -0.254321 1.187 13 28 8
-0.124005 -0.254536 1.188 13 28 8
-0.122263 -0.25475 1.189 13 28 8
-0.120518 -0.254964 1.19 13 28 8
-0.118769 -0.255178 1.191 12 27 7
-0.11692 -0.255178 1.191 13 28 8
-0.115167 -0.255393 1.192 15 30 10
-0.113315 -0.255393 1.192 13 28 8
-0.111464 -0.255393 1.192 15 30 10
-0.109613 -0.255393 1.192 15 30 10
-0.107762 -0.255393 1.192 15 29 12
-0.105911 -0.255393 1.192 12 26 9
-0.103972 -0.255178 1.191 13 27 10
-0.102122 -0.255178 1.191 13 27 10
-0.100188 -0.254964 1.19 15 29 12
-0.0982577 -0.25475 1.189 15 29 12
-0.096249 -0.254321 1.187 13 27 10
-0.0944056 -0.254321 1.187 12 26 9
-0.0924841 -0.254107 1.186 12 26 9
-0.0905658 -0.253893 1.185 12 26 9
-0.0887254 -0.253893 1.185 12 26 9
-0.0868118 -0.253679 1.184 11 25 8
-0.0849012 -0.253464 1.183 11 25 8
-0.0829938 -0.25325 1.182 11 25 8
-0.0811581 -0.25325 1.182 11 25 8
-0.0792553 -0.253036 1.181 11 25 8
-0.0774212 -0.253036 1.181 10 24 7
-0.075523 -0.252822 1.18 10 24 7
-0.0736904 -0.252822 1.18 11 25 8
-0.071797 -0.252607 1.179 11 25 8
-0.0699659 -0.252607 1.179 10 24 7
-0.0680771 -0.252393 1.178 9 23 6
-0.0662476 -0.252393 1.178 10 24 7
-0.0644729 -0.252607 1.179 11 25 8
-0.0626418 -0.252607 1.179 13 24 8
-0.0608108 -0.252607 1.179 13 24 8
-0.0589798 -0.252607 1.179 14 25 9
-0.0571972 -0.252822 1.18 11 22 6
-0.0553646 -0.252822 1.18 11 22 8
-0.0535321 -0.252822 1.18 12 23 9
-0.0517433 -0.253036 1.181 11 25 10
-0.0499092 -0.253036 1.181 10 24 9
-0.0480343 -0.252822 1.18 10 24 9
-0.0462017 -0.252822 1.18 10 24 9
-0.0443692 -0.252822 1.18 10 24 9
-0.0425366 -0.252822 1.18 9 23 8
-0.040704 -0.252822 1.18 9 23 8
-0.0388714 -0.252822 1.18 9 23 8
-0.0370388 -0.252822 1.18 8 22 7
-0.0352063 -0.252822 1.18 6 20 5
-0.0333737 -0.252822 1.18 8 22 7
-0.0315411 -0.252822 1.18 9 23 8
-0.0297085 -0.252822 1.18 9 23 8
-0.0278759 -0.252822 1.18 8 22 7
-0.0260434 -0.252822 1.18 8 22 7
-0.0242313 -0.253036 1.181 8 22 7
-0.0223972 -0.253036 1.181 8 22 7
-0.0205804 -0.25325 1.182 8 22 7
-0.0187447 -0.25325 1.182 9 23 8
-0.0169091 -0.25325 1.182 9 23 8
-0.0150861 -0.253464 1.183 10 24 9
-0.0132489 -0.253464 1.183 11 25 10
-0.0114309 -0.253893 1.185 9 23 8
-0.0095906 -0.253893 1.185 8 22 7
-0.00775025 -0.253893 1.185 8 22 7
-0.0059149 -0.254107 1.186 8 22 7
-0.004073 -0.254107 1.186 9 23 8
-0.00223298 -0.254321 1.187 9 23 8
-0.000389528 -0.254321 1.187 9 23 8
0.00145392 -0.254321 1.187 9 23 8
0.00330015 -0.254536 1.188 9 23 8
0.00514949 -0.25475 1.189 9 23 8
0.00700193 -0.254964 1.19 9 23 8
0.00886491 -0.255393 1.192 10 24 9
0.0107161 -0.255393 1.192 9 23 8
0.0125779 -0.255607 1.193 10 24 9
0.0144428 -0.255821 1.194 9 23 8
0.0163107 -0.256035 1.195 9 23 8
0.0181514 -0.255821 1.194 10 24 9
0.0200057 -0.255821 1.194 11 25 10
0.02186 -0.255821 1.194 10 24 9
0.0236746 -0.255393 1.192 11 25 10
0.0255259 -0.255393 1.192 10 24 9
0.0273541 -0.255178 1.191 8 22 7
0.0291793 -0.254964 1.19 10 24 9
0.0310274 -0.254964 1.19 11 25 10
0.0328479 -0.25475 1.189 11 25 10
0.0346652 -0.254536 1.188 12 26 11
0.0364795 -0.254321 1.187 11 25 10
0.038323 -0.254321 1.187 11 25 10
0.0401664 -0.254321 1.187 11 25 10
0.0420099 -0.254321 1.187 11 25 10
0.0438164 -0.254107 1.186 11 25 10
0.0456198 -0.253893 1.185 11 25 10
0.0475002 -0.254107 1.186 11 25 10
0.0493421 -0.254107 1.186 10 24 9
0.051184 -0.254107 1.186 11 25 10
0.0530706 -0.254321 1.187 11 25 10
0.054914 -0.254321 1.187 10 24 9
0.0568053 -0.254536 1.188 10 24 9
0.0586997 -0.25475 1.189 10 24 9
0.0605971 -0.254964 1.19 10 24 9
0.0624977 -0.255178 1.191 8 22 7
0.0643474 -0.255178 1.191 10 24 9
0.066197 -0.255178 1.191 10 24 9
0.0680467 -0.255178 1.191 10 24 9
0.0699551 -0.255393 1.192 11 25 10
0.071746 -0.255178 1.191 11 25 10
0.0735957 -0.255178 1.191 10 24 9
0.075382 -0.254964 1.19 11 25 10
0.0772301 -0.254964 1.19 10 24 9
0.0790118 -0.25475 1.189 10 24 9
0.0807903 -0.254536 1.188 10 24 9
0.0825658 -0.254321 1.187 10 24 9
0.0843381 -0.254107 1.186 11 25 10
0.0861074 -0.253893 1.185 10 24 9
0.0879477 -0.253893 1.185 10 24 9
0.0897123 -0.253679 1.184 9 23 8
0.0915511 -0.253679 1.184 9 23 8
0.0933899 -0.253679 1.184 10 24 9
0.0951482 -0.253464 1.183 10 24 9
0.0969855 -0.253464 1.183 11 25 10
0.0988227 -0.253464 1.183 10 24 9
0.10066 -0.253464 1.183 9 23 8
0.102497 -0.253464 1.183 9 23 8
0.104246 -0.25325 1.182 10 24 9
0.106172 -0.253464 1.183 9 23 8
0.108009 -0.253464 1.183 9 23 8
0.109939 -0.253679 1.184 9 23 8
0.111778 -0.253679 1.184 9 23 8
0.113713 -0.253893 1.185 10 24 9
0.115553 -0.253893 1.185 10 24 9
0.117393 -0.253893 1.185 10 24 9
0.119334 -0.254107 1.186 10 24 9
0.121176 -0.254107 1.186 9 23 8
0.123018 -0.254107 1.186 9 23 8
0.12486 -0.254107 1.186 10 24 9
0.126702 -0.254107 1.186 10 24 9
0.128544 -0.254107 1.186 10 24 9
0.130386 -0.254107 1.186 10 24 9
0.132227 -0.254107 1.186 9 23 6
0.134069 -0.254107 1.186 9 23 6
0.135797 -0.253893 1.185 9 23 6
0.137637 -0.253893 1.185 9 23 6
0.139477 -0.253893 1.185 9 23 6
0.141318 -0.253893 1.185 9 23 6
0.143037 -0.253679 1.184 9 23 6
0.144876 -0.253679 1.184 9 23 6
0.146591 -0.253464 1.183 9 23 6
0.148428 -0.253464 1.183 10 24 7
0.150392 -0.253679 1.184 10 24 7
0.152103 -0.253464 1.183 9 23 6
0.15394 -0.253464 1.183 10 24 7
0.155777 -0.253464 1.183 10 24 7
0.157748 -0.253679 1.184 10 24 7
0.159452 -0.253464 1.183 9 23 6
0.161289 -0.253464 1.183 9 23 6
0.162988 -0.25325 1.182 10 24 7
0.164824 -0.25325 1.182 9 23 6
0.166519 -0.253036 1.181 9 23 6
0.16821 -0.252822 1.18 8 22 5
0.170043 -0.252822 1.18 8 22 5
0.171875 -0.252822 1.18 6 20 5
0.173708 -0.252822 1.18 8 22 7
0.17554 -0.252822 1.18 6 20 5
0.177223 -0.252607 1.179 6 20 5
0.179054 -0.252607 1.179 8 22 7
0.182871 -0.252822 1.18 6 20 5
0.184703 -0.252822 1.18 6 20 5
0.186536 -0.252822 1.18 8 22 5
0.188369 -0.252822 1.18 8 22 5
0.192196 -0.253036 1.181 6 21 1
0.194195 -0.25325 1.182 9 25 3
0.196196 -0.253464 1.183 9 25 3
0.198034 -0.253464 1.183 17 34 9
0.20004 -0.253679 1.184 25 42 17
0.201879 -0.253679 1.184 25 43 16
0.203717 -0.253679 1.184 24 42 15
0.205556 -0.253679 1.184 25 43 14
0.20757 -0.253893 1.185 27 45 16
0.209234 -0.253679 1.184 26 44 15
0.210894 -0.253464 1.183 25 43 14
0.212911 -0.253679 1.184 25 43 14
0.21475 -0.253679 1.184 24 42 13
0.216772 -0.253893 1.185 25 43 14
0.218797 -0.254107 1.186 24 42 13
0.220825 -0.254321 1.187 24 42 15
0.223231 -0.254964 1.19 23 41 14
0.225268 -0.255178 1.191 22 40 13
0.227308 -0.255393 1.192 22 40 13
0.229352 -0.255607 1.193 20 38 11
0.231205 -0.255607 1.193 20 38 11
0.233057 -0.255607 1.193 20 38 11
0.23491 -0.255607 1.193 19 37 10
0.236565 -0.255393 1.192 20 38 11
0.238216 -0.255178 1.191 20 38 11
0.239864 -0.254964 1.19 19 37 10
0.241509 -0.25475 1.189 18 36 9
0.243151 -0.254536 1.188 22 39 14
0.244583 -0.254107 1.186 8 25 0
0.246633 -0.254321 1.187 11 27 5
0.247639 -0.253464 1.183 11 27 5
0.249265 -0.25325 1.182 10 24 7
0.250889 -0.253036 1.181 6 20 3
0.252295 -0.252607 1.179 8 22 7
0.25391 -0.252393 1.178 8 22 7
0.25574 -0.252393 1.178 9 23 8
0.257351 -0.252179 1.177 9 23 8
0.259399 -0.252393 1.178 9 23 8
0.261228 -0.252393 1.178 9 23 8
0.263281 -0.252607 1.179 9 23 8
0.265337 -0.252822 1.18 10 24 9
0.267622 -0.25325 1.182 10 24 9
0.269458 -0.25325 1.182 10 24 9
0.271523 -0.253464 1.183 10 24 9
0.273592 -0.253679 1.184 10 24 9
0.275198 -0.253464 1.183 10 24 9
0.277035 -0.253464 1.183 10 24 9
0.278872 -0.253464 1.183 9 23 8
0.280709 -0.253464 1.183 9 23 8
0.282547 -0.253464 1.183 9 23 8
0.284143 -0.25325 1.182 9 23 8
0.285979 -0.25325 1.182 10 24 9
0.287815 -0.25325 1.182 10 24 9
0.289896 -0.253464 1.183 10 24 9
0.291733 -0.253464 1.183 10 24 9
0.29357 -0.253464 1.183 10 24 9
0.295407 -0.253464 1.183 10 24 9
0.297245 -0.253464 1.183 11 25 10
0.299335 -0.253679 1.184 12 26 11
0.301173 -0.253679 1.184 11 25 10
0.303012 -0.253679 1.184 12 26 11
0.304851 -0.253679 1.184 11 24 11
0.306431 -0.253464 1.183 11 24 11
0.308268 -0.253464 1.183 11 24 11
0.310105 -0.253464 1.183 11 24 11
0.311679 -0.25325 1.182 11 24 11
0.313514 -0.25325 1.182 11 24 11
0.31535 -0.25325 1.182 13 23 11
0.317186 -0.25325 1.182 13 23 11
0.318752 -0.253036 1.181 15 26 12
0.320586 -0.253036 1.181 17 28 14
0.322147 -0.252822 1.18 16 30 15
0.323979 -0.252822 1.18 16 30 15
0.325812 -0.252822 1.18 17 31 14
0.327645 -0.252822 1.18 16 30 13
0.329198 -0.252607 1.179 18 32 15
0.331029 -0.252607 1.179 19 33 16
0.33286 -0.252607 1.179 19 34 14
0.334691 -0.252607 1.179 19 34 14
0.336522 -0.252607 1.179 20 35 15
0.33864 -0.252822 1.18 20 35 15
0.340184 -0.252607 1.179 18 35 15
0.342015 -0.252607 1.179 18 35 15
0.344138 -0.252822 1.18 15 32 12
0.34597 -0.252822 1.18 14 31 11
0.347803 -0.252822 1.18 14 31 11
0.349339 -0.252607 1.179 15 32 12
0.35117 -0.252607 1.179 17 34 14
0.352702 -0.252393 1.178 20 37 17
0.354531 -0.252393 1.178 18 35 15
0.355756 -0.251965 1.176 18 35 15
0.357278 -0.25175 1.175 18 34 17
0.359103 -0.25175 1.175 14 30 13
0.360621 -0.251536 1.174 24 36 26
0.362135 -0.251322 1.173 47 59 49
0.363647 -0.251108 1.172 12 22 17
0.365155 -0.250893 1.171 11 21 16
0.366347 -0.250465 1.169 16 25 23
0.367847 -0.250251 1.168 9 18 16
0.368395 -0.249393 1.164 14 19 22
0.367659 -0.247679 1.156 70 75 78
0.368359 -0.245751 1.147 86 91 94
0.369495 -0.245323 1.145 86 91 94
0.370949 -0.245108 1.144 88 93 96
-0.163348 -0.250774 1.179 8 18 6
-0.161791 -0.2512 1.181 10 20 8
-0.160093 -0.251412 1.182 8 18 6
-0.158391 -0.251625 1.183 10 20 8
-0.156554 -0.251625 1.183 10 20 8
-0.154847 -0.251838 1.184 10 21 7
-0.153008 -0.251838 1.184 11 22 8
-0.151297 -0.25205 1.185 11 22 6
-0.149457 -0.25205 1.185 11 22 6
-0.147492 -0.251838 1.184 12 24 5
-0.145653 -0.251838 1.184 13 25 6
-0.143814 -0.251838 1.184 14 26 7
-0.141976 -0.251838 1.184 17 29 10
-0.140018 -0.251625 1.183 18 30 11
-0.138064 -0.251412 1.182 17 29 10
-0.136229 -0.251412 1.182 17 29 10
-0.132669 -0.251625 1.183 15 27 8
-0.130943 -0.251838 1.184 15 27 8
-0.129213 -0.25205 1.185 15 27 8
-0.12748 -0.252263 1.186 17 29 10
-0.125744 -0.252476 1.187 15 30 10
-0.124005 -0.252688 1.188 13 28 8
-0.122366 -0.253114 1.19 13 28 8
-0.120518 -0.253114 1.19 13 28 8
-0.118869 -0.253539 1.192 12 27 7
-0.117018 -0.253539 1.192 13 28 8
-0.115167 -0.253539 1.192 16 31 11
-0.11341 -0.253752 1.193 15 30 10
-0.111558 -0.253752 1.193 16 31 11
-0.109705 -0.253752 1.193 16 31 11
-0.107762 -0.253539 1.192 16 30 13
-0.105911 -0.253539 1.192 15 29 12
-0.104059 -0.253539 1.192 15 29 12
-0.102122 -0.253327 1.191 15 29 12
-0.100188 -0.253114 1.19 16 30 13
-0.0983404 -0.253114 1.19 15 29 12
-0.0963301 -0.252688 1.188 13 27 10
-0.0944056 -0.252476 1.187 12 26 9
-0.0924841 -0.252263 1.186 13 27 10
-0.0905658 -0.25205 1.185 13 27 10
-0.0887254 -0.25205 1.185 13 27 10
-0.0868851 -0.25205 1.185 12 26 9
-0.084973 -0.251838 1.184 12 26 9
-0.0831342 -0.251838 1.184 11 25 8
-0.0812267 -0.251625 1.183 10 24 7
-0.0793224 -0.251412 1.182 11 25 8
-0.0774867 -0.251412 1.182 11 25 8
-0.075651 -0.251412 1.182 10 24 7
-0.0737529 -0.2512 1.181 11 25 8
-0.0718579 -0.250987 1.18 11 25 8
-0.0700253 -0.250987 1.18 11 25 8
-0.0681927 -0.250987 1.18 9 23 6
-0.0663601 -0.250987 1.18 10 24 7
-0.0645275 -0.250987 1.18 10 24 7
-0.062695 -0.250987 1.18 12 23 7
-0.060914 -0.2512 1.181 13 24 8
-0.0590798 -0.2512 1.181 14 25 9
-0.0572457 -0.2512 1.181 12 23 7
-0.0554116 -0.2512 1.181 12 23 9
-0.0536228 -0.251412 1.182 11 22 8
-0.0517871 -0.251412 1.182 11 25 10
-0.0499092 -0.2512 1.181 10 24 9
-0.048075 -0.2512 1.181 10 24 9
-0.0462017 -0.250987 1.18 10 24 9
-0.0443692 -0.250987 1.18 9 23 8
-0.0425366 -0.250987 1.18 9 23 8
-0.040704 -0.250987 1.18 9 23 8
-0.0388714 -0.250987 1.18 8 22 7
-0.0370388 -0.250987 1.18 8 22 7
-0.0352063 -0.250987 1.18 8 22 7
-0.0333737 -0.250987 1.18 8 22 7
-0.0315411 -0.250987 1.18 8 22 7
-0.0297085 -0.250987 1.18 8 22 7
-0.0278759 -0.250987 1.18 8 22 7
-0.0260434 -0.250987 1.18 8 22 7
-0.0242108 -0.250987 1.18 8 22 7
-0.0223782 -0.250987 1.18 8 22 7
-0.020563 -0.2512 1.181 8 22 7
-0.0187289 -0.2512 1.181 9 23 8
-0.0169091 -0.251412 1.182 9 23 8
-0.0150734 -0.251412 1.182 8 22 7
-0.0132489 -0.251625 1.183 10 24 9
-0.0114117 -0.251625 1.183 10 24 9
-0.00958251 -0.251838 1.184 10 24 9
-0.00775025 -0.25205 1.185 9 23 8
-0.00590991 -0.25205 1.185 9 23 8
-0.004073 -0.252263 1.186 9 23 8
-0.00223298 -0.252476 1.187 9 23 8
-0.000389528 -0.252476 1.187 11 22 8
0.00145515 -0.252688 1.188 11 22 8
0.00330293 -0.252901 1.189 11 22 8
0.00515382 -0.253114 1.19 11 22 8
0.00700781 -0.253327 1.191 11 22 8
0.00886491 -0.253539 1.192 11 22 8
0.0107251 -0.253752 1.193 11 22 8
0.0125884 -0.253965 1.194 11 22 8
0.0144549 -0.254177 1.195 11 22 8
0.0163107 -0.254177 1.195 11 22 8
0.0181666 -0.254177 1.195 11 22 8
0.0200057 -0.253965 1.194 11 22 8
0.0218417 -0.253752 1.193 9 23 8
0.0236746 -0.253539 1.192 9 23 8
0.0255044 -0.253327 1.191 9 23 8
0.0273311 -0.253114 1.19 8 22 7
0.0291793 -0.253114 1.19 8 22 7
0.0310013 -0.252901 1.189 10 24 9
0.0328202 -0.252688 1.188 11 25 10
0.0346652 -0.252688 1.188 12 26 11
0.0364795 -0.252476 1.187 12 26 11
0.038323 -0.252476 1.187 11 25 10
0.0401664 -0.252476 1.187 11 25 10
0.0420099 -0.252476 1.187 11 25 10
0.0438533 -0.252476 1.187 12 26 11
0.0456968 -0.252476 1.187 11 25 10
0.0475402 -0.252476 1.187 11 25 10
0.0493837 -0.252476 1.187 11 25 10
0.0512271 -0.252476 1.187 11 25 10
0.0531153 -0.252688 1.188 10 24 9
0.0550065 -0.252901 1.189 8 22 7
0.0568531 -0.252901 1.189 9 23 8
0.058749 -0.253114 1.19 9 23 8
0.0606481 -0.253327 1.191 9 23 8
0.0625502 -0.253539 1.192 8 22 7
0.0644014 -0.253539 1.192 10 24 9
0.0662526 -0.253539 1.192 10 24 9
0.0681038 -0.253539 1.192 11 25 10
0.0699551 -0.253539 1.192 11 25 10
0.0718063 -0.253539 1.192 11 25 10
0.0736575 -0.253539 1.192 9 23 8
0.0754454 -0.253327 1.191 9 23 8
0.077295 -0.253327 1.191 9 23 8
0.0790782 -0.253114 1.19 10 24 9
0.0808583 -0.252901 1.189 10 24 9
0.0826353 -0.252688 1.188 10 24 9
0.0844092 -0.252476 1.187 11 25 10
0.0862527 -0.252476 1.187 10 24 9
0.0880219 -0.252263 1.186 9 23 8
0.0897881 -0.25205 1.185 10 24 9
0.0916284 -0.25205 1.185 10 24 9
0.0934687 -0.25205 1.185 10 24 9
0.0953091 -0.25205 1.185 10 24 9
0.0971494 -0.25205 1.185 11 25 10
0.0989062 -0.251838 1.184 10 24 9
0.100745 -0.251838 1.184 10 24 9
0.102497 -0.251625 1.183 9 23 8
0.104334 -0.251625 1.183 9 23 8
0.106261 -0.251838 1.184 10 24 9
0.1081 -0.251838 1.184 10 24 9
0.110032 -0.25205 1.185 10 24 9
0.111872 -0.25205 1.185 10 24 9
0.113713 -0.25205 1.185 10 24 9
0.115553 -0.25205 1.185 10 24 9
0.117492 -0.252263 1.186 10 24 9
0.119234 -0.25205 1.185 10 24 9
0.121176 -0.252263 1.186 10 24 9
0.123018 -0.252263 1.186 10 24 9
0.12486 -0.252263 1.186 10 24 9
0.126702 -0.252263 1.186 10 24 9
0.128544 -0.252263 1.186 9 23 8
0.130276 -0.25205 1.185 9 23 8
0.132227 -0.252263 1.186 8 22 7
0.134069 -0.252263 1.186 9 23 8
0.135797 -0.25205 1.185 9 23 6
0.137637 -0.25205 1.185 9 23 6
0.139477 -0.25205 1.185 8 22 5
0.141318 -0.25205 1.185 9 23 6
0.143158 -0.25205 1.185 9 23 6
0.144876 -0.251838 1.184 10 24 7
0.146715 -0.251838 1.184 11 25 8
0.148679 -0.25205 1.185 11 25 8
0.150519 -0.25205 1.185 11 25 8
0.15236 -0.25205 1.185 10 24 7
0.1542 -0.25205 1.185 10 24 7
0.15604 -0.25205 1.185 10 24 7
0.157881 -0.25205 1.185 9 23 6
0.159721 -0.25205 1.185 9 23 6
0.161425 -0.251838 1.184 9 23 6
0.163264 -0.251838 1.184 9 23 6
0.164963 -0.251625 1.183 8 22 5
0.166801 -0.251625 1.183 8 22 5
0.168495 -0.251412 1.182 8 22 7
0.170187 -0.2512 1.181 8 22 7
0.171875 -0.250987 1.18 8 22 7
0.173708 -0.250987 1.18 8 22 7
0.17554 -0.250987 1.18 6 20 5
0.177223 -0.250774 1.179 6 20 5
0.179054 -0.250774 1.179 8 22 7
0.180885 -0.250774 1.179 6 20 5
0.182716 -0.250774 1.179 6 20 5
